# .PCD v0.7 - Point Cloud Data file format
VERSION 0.7
FIELDS x y z intensity
SIZE 4 4 4 4
TYPE F F F F
COUNT 1 1 1 1
WIDTH 1388
HEIGHT 1
VIEWPOINT 0 0 0 1 0 0 0
POINTS 1388
DATA ascii
2.4966793 -3.353215 0.51331371 21
2.5074682 -3.3713892 0.66547227 46
2.1894264 -2.9469903 0.71362567 40
2.1061773 -2.8390749 0.81612247 12
nan nan nan nan
1.4441187 -1.959471 -0.65222406 27
1.5955024 -2.1672528 -0.62131482 10
1.697724 -2.3094811 -0.55716228 9
1.6976366 -2.3118978 -0.45428574 6
1.6906806 -2.3049533 -0.35098374 5
1.6658481 -2.2744262 -0.24665076 5
1.685236 -2.303426 -0.14957617 1
2.5131969 -3.4388828 -0.07434725 9
2.2518613 -3.0577006 0.066284239 13
2.4865906 -3.3801346 0.2199157 17
2.4244912 -3.2993376 0.35821009 23
2.4696853 -3.3657615 0.51258254 46
2.2339656 -3.0478599 0.59851831 16
2.1687994 -2.9622033 0.71362567 31
2.1691141 -2.9669766 0.84851539 28
2.1123168 -2.8924654 0.95970106 7
1.425863 -1.9632522 -0.65015346 56
1.5723232 -2.1672969 -0.61816555 9
1.6746494 -2.3117378 -0.55487263 6
1.673349 -2.3124909 -0.45209566 3
1.6815251 -2.3263533 -0.35244617 7
1.6592571 -2.2989249 -0.24804525 5
1.6515933 -2.2908332 -0.1480061 5
1.6430583 -2.2815118 -0.049076166 5
2.2539506 -3.105715 0.066982336 3
2.503962 -3.4540083 0.22357923 52
nan nan nan nan
nan nan nan nan
2.4323933 -3.3676383 0.65796345 42
nan nan nan nan
2.1961904 -3.0484557 0.86741132 15
2.0762744 -2.8851891 0.95245409 3
1.4177437 -1.9810138 -0.65274167 38
1.5356215 -2.1481001 -0.60961735 9
1.6698759 -2.3393519 -0.55868876 9
1.6388149 -2.298382 -0.44708973 5
1.6652434 -2.3380358 -0.35244617 3
1.6528106 -2.3231535 -0.24943975 6
1.640187 -2.308821 -0.14842479 5
1.612046 -2.2717261 -0.048622403 5
2.3892481 -3.340961 0.071694486 1
2.4670172 -3.4535277 0.22242783 24
2.2601476 -3.1674402 0.34043032 29
5.6512341 -7.9315195 1.1957821 12
2.4122601 -3.3893657 0.65890205 27
2.7346838 -3.8466518 0.91740966 2
2.0794826 -2.9282804 0.82916963 22
2.1488287 -3.0304115 0.99541807 11
1.4116722 -2.0019145 -0.6563651 34
1.5239542 -2.1635478 -0.6109671 10
1.6844162 -2.3940163 -0.56899244 19
1.8866504 -2.6844318 -0.51967537 5
1.6260742 -2.3171065 -0.3475714 5
1.6342646 -2.3313725 -0.2490911 3
1.6290159 -2.3264759 -0.14884347 5
1.6110432 -2.30423 -0.049076166 7
1.6014448 -2.2718761 0.048517693 7
nan nan nan nan
2.2608981 -3.2157393 0.34391654 12
2.0718229 -2.950094 0.44262949 1
2.6296349 -3.7485406 0.72523028 10
2.3608451 -3.3703835 0.79987139 45
2.0779812 -2.9698706 0.83681798 4
2.0661776 -2.9562948 0.96643037 10
1.4013207 -2.0162361 -0.65791804 39
1.5125263 -2.1786733 -0.61231679 10
1.663188 -2.3992634 -0.56746602 23
1.8903546 -2.7300186 -0.52593273 11
2.1906826 -3.1672893 -0.47285309 12
1.6092976 -2.329329 -0.24769662 5
1.6081979 -2.3312156 -0.14842479 5
1.5941869 -2.3134961 -0.049041264 5
1.5980929 -2.3010676 0.048901644 6
1.5698965 -2.2629967 0.14434259 6
1.5841783 -2.2861385 0.24333882 6
2.0432703 -2.9530592 0.44092333 11
2.5719538 -3.721307 0.71646994 1
nan nan nan nan
2.3077419 -3.3465114 0.93849593 16
3.1509511 -4.5761013 1.4887272 14
1.3850279 -2.0227818 -0.65688276 33
1.5071808 -2.2036562 -0.61636597 11
1.6590005 -2.4283602 -0.57166374 12
1.8795223 -2.7542441 -0.52812284 8
2.1908731 -3.2153151 -0.47772786 17
2.2992516 -3.37817 -0.35751286 36
1.5878012 -2.3355012 -0.1480061 5
1.5566574 -2.2931335 -0.048378069 5
1.586911 -2.3184931 0.049041264 8
1.5589656 -2.280225 0.14476126 6
1.5580697 -2.2823329 0.24177003 6
1.5489357 -2.2715061 0.33757812 6
1.5701959 -2.3052764 0.44177097 1
nan nan nan nan
nan nan nan nan
3.07634 -4.5335016 1.4680218 17
1.3798717 -2.0449739 -0.66102386 27
1.4932353 -2.2154799 -0.61681581 10
1.6463917 -2.4463983 -0.57319027 10
1.8624524 -2.770577 -0.52874857 9
2.1800029 -3.246634 -0.48016527 17
2.3444011 -3.4967415 -0.36832017 26
2.3938611 -3.5745571 -0.22546332 39
1.5476838 -2.3136489 -0.048587501 5
1.5539173 -2.3046448 0.048517693 5
1.5619757 -2.3192151 0.1465407 7
1.5525072 -2.3077633 0.24333882 7
1.5363604 -2.2872078 0.33830932 6
1.5232468 -2.2702525 0.43301064 7
nan nan nan nan
nan nan nan nan
2.2415926 -3.3535128 1.0808283 59
1.3677001 -2.057775 -0.66205913 28
1.4777319 -2.2258506 -0.61681581 11
1.6433741 -2.4791052 -0.57815129 10
1.8452461 -2.7868056 -0.5293743 8
2.1693296 -3.2799866 -0.48284638 11
2.2869947 -3.4631457 -0.36309084 33
2.385344 -3.6161907 -0.22703341 24
2.596498 -3.9407887 -0.082375363 1
1.5344713 -2.3104396 0.048412975 7
1.5336014 -2.3117554 0.1453893 4
1.5396602 -2.3235281 0.24386176 6
1.5291185 -2.3111219 0.34025922 8
1.5215192 -2.3022552 0.43707794 6
1.5001678 -2.2725339 0.52930421 7
1.5057337 -2.2844329 0.63166261 5
2.2085655 -3.3545587 1.0761696 9
1.3596497 -2.0769711 -0.66516501 23
1.4621568 -2.2361128 -0.61681581 7
1.6238803 -2.4872301 -0.57738805 10
1.8322202 -2.8095479 -0.53125149 8
2.1669645 -3.3266544 -0.48747739 13
2.3366299 -3.5926013 -0.37494397 60
2.4253252 -3.7332461 -0.23331371 22
2.6048446 -4.0141754 -0.083527215 3
1.5807003 -2.4164832 0.050402552 1
1.5075929 -2.3073578 0.14444725 6
1.5212234 -2.3308835 0.24351314 6
1.5031924 -2.3067727 0.33806559 6
1.5118753 -2.3227549 0.43895519 8
1.5003182 -2.3076408 0.53502846 6
1.4748939 -2.2720053 0.62536401 5
1.4630346 -2.2563224 0.72055227 7
1.3545378 -2.1010256 -0.66982371 9
1.4528408 -2.2560966 -0.61951524 7
1.6064768 -2.4985061 -0.57738805 10
1.8296407 -2.8488643 -0.53625745 8
2.1511905 -3.3533978 -0.4891836 21
2.3157904 -3.6155376 -0.37564126 46
2.5541985 -3.9923539 -0.24838647 24
2.5401464 -3.9749722 -0.082340457 42
2.3359404 -3.6260598 0.075289682 26
nan nan nan nan
1.5070685 -2.3447988 0.24386176 6
1.4795468 -2.305516 0.33635944 7
1.4849622 -2.3166223 0.43582645 6
1.4873472 -2.323019 0.53617334 7
1.4694929 -2.2986658 0.62986302 7
1.4503659 -2.2713661 0.72210521 4
1.3336244 -2.1006451 -0.66671789 23
1.4454037 -2.2793503 -0.62311447 6
1.5900451 -2.5113192 -0.57776964 10
1.8160425 -2.8715854 -0.53813463 8
2.1362085 -3.3817601 -0.49113351 12
2.284116 -3.6215053 -0.37459537 39
2.2856684 -3.6281753 -0.22473061 20
2.4931643 -3.9621437 -0.081712164 21
2.2677214 -3.5747361 0.073893487 30
2.5613415 -4.042264 0.25079393 19
2.0660427 -3.2643707 0.33798996 32
1.4729594 -2.3308916 0.33855307 5
1.4655904 -2.3219213 0.43488789 7
1.4689993 -2.3300245 0.53541011 4
1.4617149 -2.3220623 0.63346225 7
1.4396149 -2.2896132 0.72469336 9
1.3107345 -2.0967994 -0.66257679 28
1.4408089 -2.3075681 -0.62806338 11
1.5766289 -2.5290225 -0.57929617 10
1.8043041 -2.8976083 -0.54063755 8
2.1010151 -3.3780494 -0.4884524 18
2.2713904 -3.6576734 -0.37668711 26
2.2550192 -3.6355572 -0.22420727 39
2.1600266 -3.4864833 -0.071589775 10
2.1897411 -3.5056794 0.072148249 35
2.4305108 -3.895679 0.24064074 18
2.0347729 -3.2651877 0.33659548 50
nan nan nan nan
1.4535153 -2.3388076 0.43613935 1
1.4423426 -2.3235428 0.53159386 8
1.4372553 -2.318959 0.62986302 6
1.414444 -2.2848246 0.7200346 4
1.3072023 -2.1239963 -0.66827077 12
1.4185408 -2.3076098 -0.62536401 12
1.5681771 -2.5550268 -0.58273071 11
1.7716424 -2.889925 -0.53688318 9
2.081527 -3.3994067 -0.48942733 10
2.2478783 -3.6768415 -0.37703574 28
2.3138959 -3.7892823 -0.23268569 24
2.5448513 -4.1724095 -0.08530736 3
2.1641655 -3.5191774 0.072113343 48
nan nan nan nan
2.0015094 -3.2623305 0.33485237 32
2.0344224 -3.3211763 0.47821537 21
nan nan nan nan
5.2293243 -8.5569296 1.9493048 1
1.4190011 -2.3256094 0.62896323 7
1.3964477 -2.2913442 0.71899933 4
1.2983487 -2.1429842 -0.67137665 25
1.406432 -2.3241255 -0.62716359 10
1.555378 -2.5743141 -0.58463877 11
1.7565267 -2.9106791 -0.5384475 4
2.040323 -3.384953 -0.48528376 19
2.2519484 -3.7419508 -0.38209078 30
2.1741996 -3.6170456 -0.22117178 33
2.5125728 -4.1849313 -0.085202649 24
2.1322958 -3.5222259 0.071869008 45
2.2467008 -3.7155962 0.22755675 9
2.4226274 -4.0112853 0.4099806 10
2.0245128 -3.3573978 0.48138395 37
nan nan nan nan
2.0928819 -3.4790123 0.78918606 2
5.138329 -8.5549974 2.3039489 2
1.3833989 -2.3060074 0.72055227 9
1.2932512 -2.1685882 -0.67655301 27
1.3971533 -2.3456073 -0.63031286 10
1.5433891 -2.5952346 -0.58692849 10
1.7442344 -2.9364579 -0.54095048 8
2.0379124 -3.4349668 -0.49040228 13
2.2389698 -3.779866 -0.38435683 28
2.2739847 -3.8435662 -0.23404641 26
2.4242907 -4.1025186 -0.08317817 29
2.1639538 -3.6315074 0.073788777 30
2.606828 -4.3799438 0.26712275 17
2.4006734 -4.0383763 0.41102645 15
1.8875488 -3.180258 0.4540852 34
1.9179535 -3.2353454 0.59570253 15
nan nan nan nan
2.5724609 -4.3515282 1.1670462 1
1.9143691 -3.2421854 1.0088767 5
1.2712349 -2.1659012 -0.67292953 12
1.3856716 -2.3637097 -0.6325624 9
1.5272167 -2.6093347 -0.58769172 8
1.7147193 -2.9332149 -0.53813463 15
2.0258939 -3.4696813 -0.49332717 22
2.1774077 -3.7351601 -0.3782559 40
2.2611656 -3.8835115 -0.23551181 33
2.3795059 -4.0916848 -0.082619689 36
2.6939242 -4.5935183 0.092951514 13
2.0966854 -3.5794363 0.21740359 12
2.3533056 -4.0223637 0.40771458 15
1.8733103 -3.2070711 0.45603511 36
2.2009211 -3.7724679 0.69175333 15
2.0263109 -3.4773619 0.78231698 32
1.7100325 -2.9393098 0.78507924 1
3.2311082 -5.5605245 1.7232174 29
1.2562547 -2.1723928 -0.67241186 22
1.3762267 -2.3827336 -0.63526183 15
1.5142577 -2.6259456 -0.5892182 11
1.713488 -2.9750388 -0.54376626 20
2.0048168 -3.4864826 -0.49381462 28
2.1542339 -3.7508709 -0.37843022 40
2.2870212 -3.9885201 -0.24095476 14
2.2489619 -3.9269085 -0.078989588 11
2.4160917 -4.1814232 0.084295124 4
2.0775197 -3.5998209 0.21782227 42
2.3186193 -4.0240722 0.40632007 12
1.8565217 -3.2259836 0.45701009 38
1.8053939 -3.1409442 0.5738017 1
1.9699801 -3.4328291 0.76934189 11
1.7055517 -2.975652 0.7918278 20
1.853744 -3.2394407 1.0000768 3
1.2444978 -2.1880438 -0.67448246 11
1.3572159 -2.3891318 -0.63436204 9
1.496397 -2.6384215 -0.58959985 13
1.6863136 -2.9769113 -0.54188907 35
1.9925203 -3.5232022 -0.4969832 18
2.1488962 -3.8043551 -0.38226506 40
2.2535162 -3.9960849 -0.24043141 48
2.5210984 -4.4760547 -0.089670464 24
2.3169463 -4.0769057 0.08185178 11
2.0507214 -3.6128583 0.2177176 28
2.2877996 -4.0370936 0.40597141 10
1.9497488 -3.444766 0.48601499 41
1.7896765 -3.1658201 0.57599175 27
1.7620224 -3.1219871 0.6968345 33
5.2086253 -9.2400503 2.4488173 16
1.8494653 -3.286294 1.0104296 16
1.2382394 -2.2137535 -0.67965883 16
1.3438865 -2.4055877 -0.63616163 5
1.4860852 -2.6644936 -0.59303439 11
1.6640072 -2.9871762 -0.54157621 22
1.9717356 -3.5439653 -0.49795815 12
2.2045434 -3.967298 -0.39708155 17
2.2216883 -4.0047336 -0.24001274 30
2.5014186 -4.5145359 -0.090089321 24
nan nan nan nan
2.00632 -3.5943048 0.21572883 30
2.7203979 -4.8795705 0.48876941 2
1.8097653 -3.2501719 0.45676634 11
1.7602581 -3.16646 0.5738017 34
1.7211239 -3.0998838 0.68920213 23
2.6046007 -4.6968899 1.2399303 33
1.9599639 -3.5387814 1.0839342 41
1.2259369 -2.2272077 -0.68121177 24
1.3284202 -2.4163871 -0.63661152 7
1.464136 -2.6676629 -0.59150791 11
1.6531308 -3.0157554 -0.54470485 13
1.9675866 -3.5938702 -0.50307667 13
2.1010182 -3.8423626 -0.38313666 40
2.144614 -3.9286046 -0.23456979 28
2.4514863 -4.4963441 -0.089391224 18
nan nan nan nan
1.9337294 -3.5203502 0.21049525 12
nan nan nan nan
1.8429266 -3.3633864 0.47090316 1
1.9860967 -3.6306877 0.65546048 37
1.6472714 -3.0150454 0.66783154 10
2.2439976 -4.1123667 1.0815647 26
1.8387622 -3.3739293 1.0295821 10
1.2107486 -2.2355006 -0.68121177 15
1.3119416 -2.4253733 -0.63661152 7
1.4487425 -2.6827495 -0.5926528 11
1.6578836 -3.0738807 -0.55315232 15
1.9546834 -3.6302404 -0.50624532 10
2.090184 -3.8867671 -0.38609993 40
2.1149883 -3.9378326 -0.23425576 41
2.1507232 -4.0110826 -0.07944335 24
2.2355852 -4.1311798 0.081991412 37
2.5687711 -4.7528257 0.28313756 8
2.086823 -3.8659465 0.38435683 10
1.818459 -3.374423 0.47065943 3
1.719798 -3.1953475 0.57474029 12
1.6540596 -3.0783546 0.67928004 18
nan nan nan nan
nan nan nan nan
1.1974442 -2.249223 -0.68276465 18
1.2945527 -2.4346993 -0.63661152 6
1.439186 -2.7101376 -0.59646893 10
1.6117885 -3.0402882 -0.54501772 17
1.9255764 -3.636781 -0.50527036 12
2.0471656 -3.8713229 -0.38313666 44
2.1557548 -4.0835686 -0.24200147 16
2.3847382 -4.5230584 -0.089251608 22
2.2113862 -4.1555123 0.082165927 27
2.2376528 -4.2119598 0.24995655 24
1.9078242 -3.5956616 0.35611835 37
1.762325 -3.3256447 0.46212861 10
1.7476941 -3.3036072 0.59194809 35
1.6417003 -3.1071854 0.68309623 19
1.6970674 -3.2160532 0.83951735 17
2.178952 -4.1362486 1.2526842 1
1.1826085 -2.2592394 -0.68328232 20
1.2802323 -2.4488585 -0.63796127 10
1.4161226 -2.7134044 -0.59494245 12
1.606046 -3.0812452 -0.55033648 15
1.9148058 -3.6783078 -0.50917011 22
2.0772917 -3.997251 -0.39411828 53
2.1354747 -4.1144733 -0.24294353 24
2.3383796 -4.5111909 -0.088693127 22
nan nan nan nan
1.9881144 -3.8061471 0.22504464 12
1.8964986 -3.63539 0.35873303 45
2.1300077 -4.089963 0.56620502 3
1.7154728 -3.2982032 0.58881938 34
1.7530044 -3.3746769 0.7391941 11
1.7673101 -3.4080312 0.88630724 30
1.9252472 -3.7173541 1.1217217 1
1.174763 -2.2829003 -0.68794107 28
1.2604328 -2.4525366 -0.63661152 7
1.3962488 -2.7214782 -0.59456086 16
1.574587 -3.0730441 -0.54689491 12
1.8673769 -3.649174 -0.5033204 12
2.0955606 -4.1021442 -0.40300813 20
2.049515 -4.0171986 -0.23634921 36
2.0163188 -3.9572484 -0.077523597 22
1.9585745 -3.8093381 0.074766114 6
4.2258797 -8.2297373 0.48484036 2
1.8765277 -3.659179 0.35977891 46
2.406255 -4.700211 0.64834493 12
1.707693 -3.3399985 0.59413815 13
1.5856576 -3.1053252 0.67775363 4
1.5540822 -3.0487421 0.79002815 45
1.776547 -3.4896801 1.0492525 22
1.1622846 -2.2979414 -0.69001162 23
1.2511879 -2.4769311 -0.64066064 12
1.3869393 -2.7504423 -0.5987587 11
1.5868577 -3.1510046 -0.55878401 16
1.8570184 -3.6922703 -0.50746399 16
1.983732 -3.9510813 -0.38679719 42
1.9963537 -3.9814174 -0.23341838 22
1.9841666 -3.9622881 -0.077349067 35
1.8570725 -3.6747847 0.071869008 26
1.999571 -3.9619131 0.23258102 28
1.8993621 -3.7682648 0.36919171 36
nan nan nan nan
nan nan nan nan
nan nan nan nan
1.7422489 -3.4776747 0.89800465 30
1.6025997 -3.20311 0.95970106 10
1.1462137 -2.3059998 -0.69001162 27
1.2381979 -2.494333 -0.64291012 16
1.3781641 -2.7811673 -0.60333806 15
1.5613165 -3.1549239 -0.55753249 12
1.839992 -3.7229404 -0.50990134 13
1.9640342 -3.9809148 -0.38836598 54
1.9261382 -3.9092615 -0.22839414 56
1.9538074 -3.9706604 -0.077244349 34
2.1204431 -4.269733 0.083213076 17
1.8343117 -3.6984384 0.21635687 22
nan nan nan nan
nan nan nan nan
1.6364037 -3.3139224 0.58537781 5
1.7201521 -3.4881237 0.75598526 10
2.1878624 -4.444365 1.1436512 4
1.564005 -3.1812801 0.94986594 16
1.130935 -2.3156815 -0.69052929 27
1.2352766 -2.5326924 -0.65055853 19
1.3604332 -2.7942512 -0.6041013 28
1.5461632 -3.1799593 -0.56003547 23
1.8113549 -3.7303381 -0.50917011 4
1.9473232 -4.0157032 -0.39045769 51
2.0188892 -4.1706977 -0.24283887 16
1.889486 -3.9085886 -0.075778343 43
1.9730755 -4.043613 0.078535825 27
1.8093226 -3.7129495 0.21646154 31
2.3252056 -4.7779551 0.46488872 30
1.7469512 -3.5961056 0.49088979 11
1.8537904 -3.8211231 0.67266828 1
1.5990292 -3.3003981 0.71286243 11
nan nan nan nan
1.5820868 -3.2756212 0.97471261 23
1.1139051 -2.3217785 -0.69001162 23
1.2175649 -2.5412545 -0.65055853 27
1.3371452 -2.7945917 -0.60219324 22
1.5389608 -3.2207098 -0.56535423 16
1.7912508 -3.755435 -0.51087636 16
1.9166704 -4.0238042 -0.38993478 42
1.9501292 -4.0995736 -0.23791927 24
1.9839522 -4.1781931 -0.080734834 15
1.8676859 -3.8946714 0.075394399 13
1.9720705 -4.1178718 0.23928 28
1.9772834 -4.1361675 0.40109071 8
1.8199289 -3.8121347 0.51867592 3
1.7461268 -3.6624761 0.6426329 19
1.5700444 -3.2990718 0.71019113 2
1.8377851 -3.8668821 0.98843497 12
1.5779769 -3.3247099 0.98610061 41
1.1021943 -2.3380439 -0.69259977 19
1.1944289 -2.5371411 -0.64740914 31
1.3226126 -2.8145199 -0.60448295 22
1.5114033 -3.2206457 -0.56347704 20
1.7664893 -3.7693381 -0.51112008 18
1.9797094 -4.2319932 -0.4087604 20
1.8800403 -4.0244207 -0.23279037 22
1.9326394 -4.1426711 -0.079792403 43
1.929065 -4.0957599 0.079024501 23
1.9050208 -4.0502095 0.23456979 10
1.7627308 -3.7527914 0.36274219 6
1.848047 -3.9415746 0.53451896 7
1.7046005 -3.6405861 0.63668835 15
2.0423362 -4.367856 0.93725383 27
1.9112961 -4.0950541 1.043323 12
nan nan nan nan
1.0834104 -2.3404222 -0.69104689 25
1.1791408 -2.5507245 -0.64875889 21
1.3177381 -2.8557718 -0.61135209 27
1.4979757 -3.2508538 -0.56691855 16
1.7558979 -3.8158422 -0.51575112 3
1.9634218 -4.2746797 -0.41154939 18
2.0867167 -4.5493903 -0.26230782 15
1.9494729 -4.2560554 -0.081712164 7
1.9239275 -4.1599474 0.080001831 33
1.7385215 -3.7642307 0.21729892 8
1.7273097 -3.745105 0.36082479 30
1.6594385 -3.604563 0.48723367 18
1.6774929 -3.6488078 0.63606256 13
1.6710337 -3.6397781 0.7785008 3
1.9857646 -4.3332891 1.1004606 16
2.8272681 -6.1781368 1.8205333 23
1.0646472 -2.3426523 -0.68949395 20
1.1564726 -2.5482473 -0.64605951 20
1.2961487 -2.8613248 -0.61058879 16
1.4614042 -3.2306354 -0.56159979 20
1.7275817 -3.8243887 -0.51526362 16
1.8237928 -4.0448985 -0.38819164 26
1.8745065 -4.1631904 -0.23928 24
1.8893712 -4.2020798 -0.080420688 19
1.9113735 -4.209693 0.080699928 30
1.6808592 -3.7071531 0.21332137 2
1.6953696 -3.7443671 0.3596046 12
1.6317807 -3.6106331 0.48650244 29
1.725111 -3.8224759 0.66422081 12
1.681882 -3.7318995 0.79567355 6
1.5909132 -3.5366404 0.89530528 4
2.2853577 -5.0875258 1.4944212 4
1.0600713 -2.3764923 -0.69725859 12
1.1529274 -2.5883009 -0.65415776 25
1.2761413 -2.8703039 -0.61058879 23
1.4436239 -3.2515919 -0.56347704 37
1.7088861 -3.8545039 -0.51770103 13
1.7922853 -4.0502443 -0.38749442 24
1.8453968 -4.1761756 -0.23928 20
1.8599895 -4.2151675 -0.080420688 15
1.7541424 -3.9361691 0.075219877 11
1.8376464 -4.1293612 0.23687255 1
1.6052682 -3.6122763 0.34583399 22
1.6041195 -3.6164935 0.48577127 36
1.6775833 -3.7874668 0.65608621 3
1.6700822 -3.7758694 0.80254269 51
1.5756288 -3.5690534 0.90070409 13
2.0386 -4.6243095 1.3541414 9
1.0457784 -2.3891444 -0.69881141 12
1.1332685 -2.5927155 -0.65325791 7
1.2843333 -2.943924 -0.62432706 22
1.4185215 -3.2561581 -0.56253839 39
1.6835188 -3.8699808 -0.51818854 13
1.8726349 -4.3108792 -0.41120079 24
1.8217584 -4.2017841 -0.24001274 12
1.7637796 -4.0739021 -0.077488683 34
1.6248657 -3.7156346 0.07078696 30
1.7592185 -4.0286078 0.23038292 4
1.5871785 -3.6398315 0.34740278 24
1.5732881 -3.6148624 0.48406506 41
4.8706293 -11.207032 1.9354074 1
1.6507152 -3.8036451 0.80597723 13
1.640409 -3.7853229 0.95244282 4
1.9249728 -4.4504805 1.2992717 12
1.0366962 -2.4141378 -0.70398778 13
1.1251245 -2.6238472 -0.65910661 18
1.2719929 -2.9706452 -0.62814325 15
1.404091 -3.2839012 -0.56566709 37
1.6502273 -3.8670325 -0.51623857 13
1.7292414 -4.0580745 -0.38592559 18
1.6812901 -3.9512806 -0.22504464 13
1.6110109 -3.7934623 -0.07193882 27
1.780944 -4.1492515 0.078815073 12
1.5846238 -3.6972032 0.21080926 4
1.5922896 -3.7222643 0.35420093 45
1.5595628 -3.6510448 0.48747739 32
nan nan nan nan
nan nan nan nan
1.6848437 -3.9634712 0.99428368 19
1.9452085 -4.5826249 1.3339534 15
1.0164891 -2.4122374 -0.70139962 22
1.1110176 -2.6404259 -0.66135615 9
1.2459018 -2.9667823 -0.62547189 17
1.3971728 -3.3318791 -0.57223737 16
1.6384343 -3.912966 -0.52086961 16
1.7484612 -4.181881 -0.39655861 17
1.6490496 -3.9518623 -0.2244166 33
1.6651404 -3.9963109 -0.075568922 17
1.6339998 -3.8814416 0.073509537 30
1.6663556 -3.9641027 0.22535865 15
1.5715432 -3.7440391 0.35524681 38
1.5255991 -3.6417036 0.48479629 32
nan nan nan nan
4.8881736 -11.702765 2.4652524 37
1.6443235 -3.9424739 0.98618549 42
1.5048481 -3.6151652 1.0492525 19
0.99888629 -2.4174893 -0.70088202 23
1.0947866 -2.6535223 -0.66270584 11
1.2182008 -2.9570415 -0.62165576 21
1.3932486 -3.3869834 -0.58005905 19
1.6163541 -3.9371638 -0.5225758 22
1.6799271 -4.0981231 -0.38749442 14
1.6493489 -4.0295386 -0.22818479 15
1.5940967 -3.9023199 -0.073579341 34
1.6090689 -3.8961704 0.073579341 27
1.7840041 -4.3261743 0.24524632 15
1.5438498 -3.7512343 0.35489815 31
1.5264295 -3.7144308 0.49308339 42
nan nan nan nan
4.8562059 -11.858332 2.4908209 15
1.6499503 -4.0350261 1.006431 18
nan nan nan nan
0.98458481 -2.4296038 -0.70243496 29
1.0796235 -2.6681385 -0.66450548 21
1.196792 -2.9636538 -0.62127411 22
1.3747399 -3.409452 -0.58224916 19
1.5969803 -3.9686098 -0.52525693 13
1.5940797 -3.9673982 -0.37407246 16
1.6947994 -4.2244663 -0.23854731 26
1.5608685 -3.8985023 -0.073300108 28
nan nan nan nan
1.5254627 -3.7737558 0.21332137 17
1.8754795 -4.6466427 0.43839338 9
1.5620222 -3.8778274 0.51331371 10
1.5044441 -3.7405357 0.6385656 25
4.8303432 -12.034058 2.520587 21
nan nan nan nan
1.5173041 -3.7916102 1.0942869 24
0.97287554 -2.4509516 -0.70657599 22
1.0640935 -2.684854 -0.66675496 11
1.175351 -2.9701111 -0.62089252 22
1.349582 -3.4173646 -0.5819363 13
1.5772457 -3.9999757 -0.52793807 21
1.6021079 -4.0692706 -0.38261372 22
1.6535714 -4.208602 -0.23697723 14
1.5496802 -3.950259 -0.074068017 30
1.6407924 -4.1357312 0.077663213 10
1.5587091 -3.9368498 0.22190447 4
1.5748266 -3.9836504 0.37476969 46
1.522522 -3.8572474 0.50917011 15
1.4233407 -3.6133611 0.61510038 50
nan nan nan nan
1.4894542 -3.7928419 0.94074535 15
1.4767404 -3.7681963 1.0844518 8
0.95994204 -2.4684868 -0.70968187 13
1.0410916 -2.6813176 -0.66405559 19
1.1732185 -3.0278728 -0.6311962 15
1.3278296 -3.43223 -0.58287489 16
1.5471522 -4.0074553 -0.52745056 21
1.5679319 -4.0676169 -0.38139355 32
1.5667595 -4.0709248 -0.22860347 22
1.5120533 -3.9369793 -0.073614255 31
1.598122 -4.1138144 0.07703492 16
1.4784623 -3.8117025 0.21426344 15
1.5102814 -3.8997939 0.36587983 28
1.5356708 -3.9735861 0.5230633 12
1.3945243 -3.6139951 0.61353606 11
4.7655616 -12.375957 2.5778296 27
1.4566805 -3.7888517 0.93714619 16
1.7917081 -4.6675587 1.3396474 12
0.94431555 -2.4807093 -0.71123475 12
1.0198011 -2.6832337 -0.66270584 34
1.1478727 -3.0249765 -0.62890649 18
1.3144277 -3.4712019 -0.58788079 16
1.5352832 -4.0608659 -0.53305656 11
1.6091536 -4.2630014 -0.39865038 27
1.5122436 -4.0147457 -0.22483528 26
1.4824194 -3.9418242 -0.073509537 30
1.5330987 -4.0295525 0.075254776 27
1.4695804 -3.8707325 0.21698491 4
1.4547946 -3.8378425 0.35908166 37
1.5064871 -3.9804971 0.5225758 18
nan nan nan nan
nan nan nan nan
1.4954218 -3.972188 0.97988689 15
1.7704916 -4.7128124 1.3489649 16
0.92649144 -2.4832976 -0.71019953 13
1.0135468 -2.7209833 -0.67035419 21
1.1381998 -3.0621634 -0.63501233 22
1.2927518 -3.4835467 -0.58850652 16
1.5262486 -4.1193562 -0.53939372 13
1.5165365 -4.1019301 -0.38261372 34
1.5748019 -4.2663932 -0.23833798 12
1.5641137 -4.2442775 -0.078954689 16
1.5168083 -4.0698757 0.075813256 20
1.4278569 -3.8373406 0.21457745 9
1.4508185 -3.9053044 0.36448529 8
1.4193282 -3.8287244 0.50137055 27
1.7518409 -4.7333021 0.79938018 15
nan nan nan nan
2.5632062 -6.951611 1.710528 27
1.3461084 -3.6566455 1.0440761 30
0.91575879 -2.5078516 -0.7153759 12
0.98918629 -2.713346 -0.66675496 14
1.118808 -3.0755696 -0.63615721 27
1.2764925 -3.5147679 -0.59226096 16
1.4873031 -4.1019182 -0.53573769 17
1.4966744 -4.1367731 -0.38487977 30
1.5632985 -4.3280025 -0.24116412 10
1.5161297 -4.2043033 -0.078012258 24
1.8022015 -4.9407735 0.091799662 10
1.6491176 -4.5284538 0.25257334 6
1.4514312 -3.9921093 0.3716321 35
1.4135507 -3.8963885 0.50892639 11
1.7086638 -4.7175574 0.79468721 25
2.7739091 -7.6712017 1.5856228 2
2.5212271 -6.9876661 1.715027 8
1.3251307 -3.6786764 1.0476996 31
0.89952821 -2.517822 -0.71641117 9
0.98265851 -2.7550595 -0.6753031 16
1.1045504 -3.103651 -0.64035505 24
1.2532471 -3.5273161 -0.59288669 19
1.4765482 -4.162715 -0.54231864 4
1.4650987 -4.1396079 -0.38418248 28
1.4778184 -4.182508 -0.23247635 35
1.4501548 -4.1110659 -0.076092489 34
1.4793274 -4.1452737 0.0768255 11
1.4733462 -4.1353521 0.23006889 9
1.3994892 -3.9345663 0.36535689 32
1.5669072 -4.4150114 0.57522333 40
1.6710693 -4.7163372 0.79249716 33
1.664252 -4.7049203 0.97007298 5
4.466763 -12.655852 3.0984762 12
1.3405045 -3.8044491 1.0808283 8
0.87746829 -2.5112743 -0.71278769 18
0.96661007 -2.7710526 -0.67755258 27
1.086728 -3.122412 -0.64264476 30
1.233778 -3.5509071 -0.59538966 33
1.4481021 -4.1747971 -0.54256237 14
1.4433315 -4.1704464 -0.38609993 26
1.4988046 -4.3380809 -0.24053608 16
1.6202871 -4.6976643 -0.08673846 16
1.5228366 -4.3631811 0.080665022 34
1.4326112 -4.111588 0.22818479 35
1.3647861 -3.9235406 0.36343944 41
1.4742141 -4.247684 0.55206817 41
1.6432759 -4.7428207 0.79500008 33
1.6012022 -4.629221 0.95213693 48
2.5225928 -7.3095584 1.7852117 36
1.2981807 -3.7680526 1.0678874 4
0.87240452 -2.5539017 -0.72314042 22
0.95290178 -2.7943335 -0.68160176 11
1.0642705 -3.1280639 -0.64226311 37
1.2318283 -3.6267698 -0.60665292 9
1.4246582 -4.201725 -0.544756 13
1.4628202 -4.3217149 -0.39917332 31
1.5247173 -4.5149584 -0.24974722 21
1.3708949 -4.0664854 -0.074905731 40
1.4942764 -4.3793836 0.08076974 9
nan nan nan nan
1.3380028 -3.9348598 0.36361378 32
1.4375089 -4.2371936 0.54938704 38
1.3813744 -4.0787511 0.68205434 43
1.4575484 -4.3110962 0.88459057 3
1.6339791 -4.8412905 1.1796434 4
1.2687606 -3.7678697 1.0652993 4
0.85455376 -2.5599301 -0.72314042 10
0.94137955 -2.8249521 -0.68745047 18
1.0429541 -3.1352355 -0.64226311 37
1.2033783 -3.623822 -0.60477573 15
1.3965383 -4.2153368 -0.54524344 17
1.3975799 -4.2258911 -0.38941187 31
1.4839315 -4.4948869 -0.24807246 8
1.3531067 -4.1082454 -0.07549911 29
1.4777229 -4.4292884 0.081502736 20
1.3063654 -3.9225073 0.21667089 35
1.3199238 -3.9724658 0.36622843 26
1.4805028 -4.4635577 0.57741702 23
1.4268466 -4.3093395 0.71897286 6
2.4453275 -7.4026542 1.5154052 3
2.5149436 -7.6268044 1.8540467 4
1.2841578 -3.9011979 1.1004987 45
0.83651 -2.5638509 -0.72262281 14
0.92575002 -2.8424118 -0.69014984 21
1.0313542 -3.1741822 -0.6487506 23
1.1810971 -3.6415298 -0.60634005 12
1.3739281 -4.2436314 -0.54768091 13
1.4159614 -4.3812857 -0.40283385 31
1.3998083 -4.3416595 -0.23907068 24
1.3398143 -4.1630454 -0.076336823 21
1.3482482 -4.1371927 0.075952873 30
1.4185839 -4.3607712 0.24032672 31
1.3063911 -4.0230479 0.37006328 12
1.3459156 -4.154633 0.53622514 28
1.4167844 -4.3812203 0.72929758 31
nan nan nan nan
1.4726429 -4.5702968 1.1085589 24
1.1983626 -3.7279906 1.0492525 33
0.82504082 -2.5898762 -0.72831684 14
0.90647429 -2.8506627 -0.6905998 28
1.0049731 -3.1661587 -0.64569765 31
1.1694089 -3.6909132 -0.61322314 18
1.3508492 -4.2739401 -0.55036199 14
1.424904 -4.516469 -0.41433838 31
1.3384272 -4.2501206 -0.23352307 50
1.5276735 -4.8629107 -0.088972367 16
1.4304656 -4.4930673 0.082305551 13
1.2563939 -3.9534705 0.21740359 11
1.4474658 -4.5657544 0.41904479 7
1.3661164 -4.316998 0.55596799 10
1.3530153 -4.2833953 0.71146405 37
1.4904283 -4.7299147 0.96396708 16
2.3499081 -7.4711409 1.8081566 2
1.2267753 -3.907474 1.0973928 42
0.80854094 -2.5991211 -0.72935206 9
0.88647181 -2.8549056 -0.69014984 28
0.98516804 -3.1805987 -0.64722413 38
1.1453636 -3.704649 -0.61416179 19
1.3309245 -4.3155146 -0.55450553 13
1.3868909 -4.5053601 -0.41242099 33
1.2987506 -4.2269049 -0.23174362 31
1.3800049 -4.5025473 -0.082200833 8
1.3765168 -4.4303775 0.080979168 12
1.2500607 -4.0308199 0.22117178 13
1.268474 -4.0977759 0.37529263 36
1.3570294 -4.3947124 0.56474262 7
1.2672237 -4.1115131 0.68142867 9
2.1347098 -6.9432926 1.4119867 6
1.2457517 -4.0594592 0.98033679 21
1.214177 -3.963969 1.1108514 42
0.79440671 -2.6196301 -0.73349321 9
0.86376214 -2.8537152 -0.68835026 22
0.95896566 -3.1742435 -0.64455283 50
1.1119853 -3.6900539 -0.61040735 16
1.3047663 -4.3380075 -0.55621171 21
1.3977959 -4.6561432 -0.42532 33
1.2690436 -4.2380037 -0.23184831 37
1.3199062 -4.4162741 -0.080455594 12
1.2660962 -4.1776972 0.076197207 7
1.2234966 -4.0473089 0.22159046 34
1.2356653 -4.0953035 0.37424675 41
1.2496105 -4.1493759 0.5320816 7
1.3446114 -4.4761457 0.74024802 7
1.2218275 -4.0751467 0.82696623 22
1.2257612 -4.0960612 0.98708522 9
1.1576005 -3.8781471 1.0844518 35
0.7788375 -2.6343753 -0.73608136 13
0.85153955 -2.8858428 -0.69464886 41
0.9450953 -3.2111585 -0.65065867 16
1.0822997 -3.6844602 -0.6082173 12
1.2805934 -4.3679647 -0.55889291 15
1.2774099 -4.3655715 -0.39795309 25
1.2550944 -4.3004432 -0.23477912 37
1.2951943 -4.4465003 -0.080839552 1
1.4287014 -4.838716 0.088064842 19
1.2290858 -4.1707001 0.22787078 8
1.2121044 -4.1210327 0.37581557 16
1.2031219 -4.1010671 0.52476943 6
1.3366429 -4.5650468 0.75338852 10
1.1949999 -4.0892305 0.82811105 18
1.2173241 -4.1737385 1.0037317 4
1.12726 -3.8750043 1.0813459 27
0.76256603 -2.6471739 -0.73815197 13
0.8195259 -2.8505142 -0.68475103 22
0.92808932 -3.2345011 -0.65409327 26
1.0735103 -3.7487128 -0.61760336 19
1.2544295 -4.3920689 -0.56084275 14
1.2605556 -4.4222846 -0.40231091 20
1.2558503 -4.4145441 -0.24053608 18
1.2362844 -4.3573217 -0.0790594 9
1.3271356 -4.6100445 0.083736651 4
1.1940504 -4.1559343 0.22661473 15
1.2228212 -4.2672963 0.38836598 8
1.3203707 -4.6168427 0.58960396 1
1.2670451 -4.4391732 0.73117477 25
1.1841613 -4.1597853 0.84070444 41
1.3670987 -4.811986 1.1548988 22
1.0803056 -3.8101032 1.0611582 26
0.74557424 -2.656023 -0.73918724 11
0.81061816 -2.8935561 -0.69374907 16
0.91129684 -3.2617006 -0.65829104 24
1.0515577 -3.7713382 -0.62010628 18
1.234616 -4.4368415 -0.56547379 15
1.2291193 -4.4290576 -0.40213659 14
1.2079425 -4.3616099 -0.23718657 36
1.1911478 -4.3097405 -0.078047164 14
1.2036971 -4.2937927 0.077837728 5
1.1628554 -4.1564751 0.22619602 16
1.2741157 -4.5633698 0.41451269 20
1.0990719 -3.9470677 0.50307667 10
1.161449 -4.1795516 0.68706024 46
1.1689357 -4.2150459 0.85024494 26
nan nan nan nan
1.0459702 -3.7896187 1.0533936 11
0.72904986 -2.6686175 -0.74125779 24
0.80167437 -2.9405077 -0.70364696 13
0.89365482 -3.2869279 -0.66210729 17
1.0355483 -3.8167167 -0.62636369 21
1.2046485 -4.4491854 -0.56596124 15
1.2999637 -4.814538 -0.43630162 15
1.1847382 -4.3969355 -0.23865199 16
1.1688203 -4.3469176 -0.078570738 13
1.2215865 -4.4776478 0.081014074 11
1.1175447 -4.1047516 0.2229512 38
1.206705 -4.441411 0.40265954 22
1.1607801 -4.2841978 0.54499972 40
1.152351 -4.2619271 0.69926214 13
1.1727239 -4.3463097 0.87505013 58
1.9716964 -7.3277655 1.751919 2
1.0620712 -3.9554183 1.0973928 20
0.71040195 -2.6736422 -0.74125779 20
0.78062683 -2.944149 -0.70319706 7
0.87068635 -3.2930868 -0.66210729 16
1.0033344 -3.8028429 -0.62292212 19
1.1811396 -4.4862819 -0.56961739 24
1.4013207 -5.3339291 -0.48249418 20
1.1530005 -4.4012351 -0.23844264 24
1.1728355 -4.4865298 -0.080944255 14
1.1610657 -4.3758965 0.079024501 9
1.0898839 -4.1163154 0.22316055 34
1.2016249 -4.5479679 0.41154939 12
1.1672559 -4.4304075 0.56254894 13
1.1019762 -4.1915393 0.68643451 43
1.1269094 -4.2955213 0.86321992 16
1.0798247 -4.124845 0.98438591 19
1.0158901 -3.8917065 1.0777225 20
0.68930423 -2.669184 -0.73866957 10
0.76151323 -2.955188 -0.70454675 10
0.84873927 -3.3008385 -0.66248888 15
0.98233539 -3.8287184 -0.62605083 21
1.1424108 -4.4655709 -0.56596124 24
1.2216318 -4.7856722 -0.43211815 10
1.1156213 -4.3799496 -0.23687255 38
1.1459152 -4.5120521 -0.081258401 12
1.1367493 -4.4049969 0.079408452 11
1.0638319 -4.1313753 0.22357923 35
1.1698453 -4.5562458 0.41154939 15
1.1415066 -4.4555569 0.56474262 10
1.0313444 -4.0343537 0.65952778 16
1.1148356 -4.3736734 0.87733978 8
1.0721374 -4.2153811 1.0041816 30
nan nan nan nan
0.67864448 -2.7037938 -0.74695182 13
0.74564099 -2.9773161 -0.70859587 10
0.8280533 -3.3162072 -0.66439694 16
0.95988071 -3.8527336 -0.62886661 19
1.1287493 -4.5406694 -0.57449216 17
1.1929847 -4.8134227 -0.43386129 7
1.0965234 -4.434164 -0.2393847 22
1.0385321 -4.2091122 -0.07567364 9
1.1118031 -4.4361019 0.079827309 12
1.0441697 -4.1755161 0.22556801 33
1.1426637 -4.5795684 0.41294393 11
2.1201084 -8.522296 1.0783 40
1.0969025 -4.4191437 0.72116297 12
1.1492264 -4.6403337 0.92923987 4
0.99222994 -4.0184364 0.95559216 16
1.0388479 -4.2167201 1.1636505 17
0.66340989 -2.7234814 -0.75109291 6
0.7248376 -2.9824493 -0.70859587 11
0.82152474 -3.3905966 -0.67813522 23
0.94038677 -3.8900623 -0.63387251 16
1.100281 -4.5619469 -0.57619828 15
1.1230205 -4.6705337 -0.42026496 14
1.2029848 -5.0146465 -0.2702629 15
1.0687007 -4.4651899 -0.080141447 17
1.0666286 -4.3854642 0.078780167 12
1.023001 -4.2156992 0.22734742 12
1.1181662 -4.6184173 0.41573292 15
2.0568337 -8.521452 1.0763502 6
1.0040514 -4.1693501 0.6792385 30
0.96223903 -4.0049338 0.80063456 48
1.0272483 -4.2886887 1.0181285 13
1.0102825 -4.2276278 1.1646857 34
0.64615661 -2.7355669 -0.75316346 18
0.70623344 -2.9969206 -0.71084535 10
0.80007881 -3.4058056 -0.68004328 16
0.90779722 -3.8734536 -0.63011813 16
1.0661461 -4.5598531 -0.57497966 17
1.0450392 -4.4801588 -0.40248519 47
1.0539572 -4.532692 -0.24388559 14
1.009938 -4.3537159 -0.078012258 21
1.0364457 -4.3947501 0.078815073 8
0.98165208 -4.1721897 0.22462595 26
1.0722373 -4.5679202 0.41050354 18
1.9886992 -8.4988794 1.0717192 8
0.97761387 -4.1877999 0.68111575 12
0.99748969 -4.2830701 0.8548243 25
0.99362248 -4.2765999 1.0136294 30
nan nan nan nan
0.62833595 -2.745661 -0.75471634 21
0.69136602 -3.0283763 -0.71714401 12
0.77557015 -3.4054298 -0.67889845 16
0.88141084 -3.8795428 -0.63011813 17
1.0399861 -4.5923533 -0.57814825 22
1.0264683 -4.5437045 -0.40754023 22
1.0156151 -4.5066385 -0.24210617 12
0.96418011 -4.2923727 -0.076790586 14
0.99313557 -4.3432217 0.077767923 5
0.96700001 -4.2391391 0.22787078 27
1.0699189 -4.7054625 0.42218241 7
1.9079696 -8.4115505 1.0590447 2
0.941239 -4.1596775 0.67548412 12
0.91443419 -4.0543666 0.80788535 6
0.95262021 -4.2340007 1.001932 25
0.90705234 -4.0413499 1.1098161 15
0.60963255 -2.7498744 -0.75471634 24
0.67704868 -3.0615535 -0.72389257 10
0.7572704 -3.4356852 -0.68385947 20
0.85600173 -3.8933189 -0.63136959 17
1.0197983 -4.6537962 -0.58497292 15
0.99684972 -4.5604925 -0.4084118 13
0.97264022 -4.4609308 -0.23928 24
0.96816075 -4.455327 -0.079582974 6
0.96062922 -4.3402867 0.077593401 11
0.96666187 -4.3784065 0.23498847 16
1.0670038 -4.8449473 0.43403557 20
4.0158935 -18.295776 2.2999187 16
0.90710604 -4.1429915 0.67172968 9
0.96731025 -4.432766 0.88191921 3
0.93091375 -4.2767272 1.0104802 30
1.0005559 -4.6082797 1.2635547 13
0.59236735 -2.7655003 -0.75782222 27
0.65512371 -3.0663199 -0.72389257 20
0.73694909 -3.4581697 -0.68729407 19
0.83878982 -3.9495838 -0.63950419 16
0.99345434 -4.6899328 -0.58862901 14
1.0448885 -4.9455152 -0.44222823 5
0.96373773 -4.5772233 -0.24514163 14
0.9288134 -4.4228363 -0.078884877 9
0.92611998 -4.327333 0.077244349 10
0.92197424 -4.3227053 0.23163895 16
1.0265034 -4.8251758 0.43159524 20
3.8958979 -18.36026 2.3045497 5
0.87375855 -4.1319818 0.66891384 6
nan nan nan nan
nan nan nan nan
0.88272971 -4.210701 1.1527801 12
0.57578605 -2.7828109 -0.76144564 29
0.6325193 -3.0650933 -0.72254282 13
0.71613896 -3.4825847 -0.69111025 19
0.81079924 -3.953408 -0.63919127 14
0.96662599 -4.7299848 -0.59277254 43
0.94978791 -4.6600275 -0.41608149 7
0.91783559 -4.5153365 -0.24147813 12
0.90785921 -4.4822874 -0.079827309 21
0.91171461 -4.4141426 0.078675449 13
0.90023595 -4.3701167 0.23383708 30
0.97915941 -4.7658691 0.42566866 11
1.692493 -8.2671585 1.0361333 2
1.4649251 -7.174695 1.1598053 24
nan nan nan nan
0.85408628 -4.2092471 0.99158424 28
1.1245946 -5.5573387 1.5192679 17
0.55736941 -2.7944376 -0.76351619 34
0.60942918 -3.063807 -0.72119313 18
0.69639295 -3.5106082 -0.69568962 11
0.79014879 -3.9978669 -0.64544868 13
0.92168075 -4.6762414 -0.58521664 21
0.94950968 -4.8307638 -0.4307237 15
0.90584362 -4.6256704 -0.24702574 14
0.86274701 -4.4178615 -0.078570738 35
0.88830167 -4.4576612 0.07933864 8
0.8529942 -4.2961268 0.22954552 17
nan nan nan nan
1.6551182 -8.3819895 1.0490514 40
1.4566363 -7.4040132 1.1951594 22
1.4748371 -7.5173092 1.4890735 22
0.83814967 -4.2839565 1.0077808 12
0.8415966 -4.3175678 1.1786621 24
0.54016024 -2.8076522 -0.7661044 30
0.5962708 -3.1080749 -0.73064107 10
0.67260438 -3.5192409 -0.69645286 6
0.76439762 -4.0109148 -0.64670014 19
0.8909415 -4.6882567 -0.58594781 19
0.87283468 -4.6061234 -0.41015494 4
0.92138839 -4.8809791 -0.26031908 12
0.83968425 -4.4609704 -0.07923393 21
0.83641952 -4.3557444 0.077418879 15
0.84176177 -4.3959913 0.23456979 18
0.97978491 -5.1313424 0.45704472 17
1.3732507 -7.2193642 0.90232068 11
1.3885362 -7.3205996 1.1801417 33
1.4783621 -7.8165317 1.5463161 33
0.81149876 -4.3029675 1.0109302 21
0.78900319 -4.1997843 1.1450155 4
0.51913977 -2.8037567 -0.76403385 30
0.57526577 -3.1159945 -0.73154086 10
0.65147775 -3.5391841 -0.69950581 6
0.74527997 -4.0607119 -0.65389615 15
0.86211652 -4.7158427 -0.58862901 21
0.85459012 -4.6885481 -0.41695309 16
0.83100551 -4.5727258 -0.24357156 20
0.81457531 -4.500175 -0.079827309 19
0.83112127 -4.4930811 0.079757497 17
0.81507987 -4.4192958 0.23551181 37
1.3133043 -7.1486015 0.63588828 2
1.3451812 -7.3437481 0.91670126 23
1.3379645 -7.325995 1.1795161 19
nan nan nan nan
0.78109086 -4.3066106 1.0104802 27
0.77621132 -4.2925048 1.1688268 28
0.50410825 -2.8300483 -0.77024549 10
0.5581314 -3.142863 -0.73693973 27
0.63119882 -3.5687785 -0.70446682 9
0.71897137 -4.0774879 -0.6557734 17
0.84133887 -4.7861204 -0.59667236 20
0.84638679 -4.829668 -0.42898056 14
0.8090198 -4.6354737 -0.24660707 24
0.78701013 -4.5233455 -0.080141447 19
0.80113393 -4.506649 0.079897113 19
0.7824654 -4.4150457 0.23498847 19
1.2493616 -7.0710468 0.62821859 3
1.3052323 -7.4174767 0.92474467 38
1.3325249 -7.5958762 1.2214404 70
0.74779493 -4.2758584 0.84375745 5
0.76849455 -4.4078164 1.0329753 7
0.73432779 -4.2292976 1.1501919 9
0.48661765 -2.8468285 -0.77386898 22
0.54010451 -3.1697354 -0.74233854 26
0.61050862 -3.5942831 -0.70866466 15
0.69449776 -4.1017642 -0.65890205 17
0.81417537 -4.8290691 -0.60130334 18
0.80670542 -4.8000917 -0.42584294 4
1.1651834 -6.9554005 -0.36959657 5
0.752451 -4.5109782 -0.079827309 19
0.76909316 -4.5041132 0.079757497 9
0.75976819 -4.4635863 0.23729126 19
1.3341473 -7.8712382 0.69846606 1
1.247438 -7.3831272 0.91938239 60
1.2827597 -7.6164575 1.2233176 31
0.71467894 -4.2616124 0.83994126 7
3.2011085 -19.149588 4.4823751 21
0.72870207 -4.3733053 1.1879795 24
0.47004128 -2.8672321 -0.77852774 13
0.5182023 -3.1714149 -0.74188864 30
0.58508658 -3.5965197 -0.70828301 10
0.66584563 -4.1065125 -0.65890205 19
0.78793669 -4.8756528 -0.60642189 16
0.9985128 -6.2061768 -0.54995275 19
0.75957704 -4.7369027 -0.25142196 4
0.78642243 -4.9207959 -0.086982794 11
0.75022012 -4.586338 0.081118785 16
0.72569537 -4.4510403 0.23634921 21
1.1421624 -7.0286031 0.62298924 2
1.2186904 -7.5327482 0.93693155 23
1.2267255 -7.607676 1.2205019 7
0.68939316 -4.2896385 0.84452063 6
0.75490522 -4.7183022 1.10316 11
0.68872309 -4.3191462 1.1719327 23
0.45240676 -2.8857119 -0.78266883 30
0.49665105 -3.1788061 -0.74278843 13
0.56479114 -3.6315558 -0.71438891 9
0.64079148 -4.1344857 -0.66265643 15
0.75993973 -4.9202714 -0.61129665 20
0.95818943 -6.2326889 -0.55169582 26
0.72134691 -4.708528 -0.24964255 4
0.74088359 -4.853025 -0.085691318 3
0.71416581 -4.5657802 0.080665022 16
0.73151839 -4.6928096 0.24890982 18
1.2340581 -7.9440117 0.70334685 11
1.2003505 -7.762754 0.96447408 46
1.1856177 -7.6941485 1.2330166 29
0.66240889 -4.3137517 0.84833682 10
0.72194684 -4.7234573 1.10316 14
0.658553 -4.3238487 1.1719327 8
0.4296768 -2.8716049 -0.77801007 30
0.47875768 -3.2111075 -0.74953699 15
0.54000062 -3.6392941 -0.71515214 10
0.61566758 -4.1642618 -0.66672373 22
0.73309374 -4.9765182 -0.61763388 16
0.93199378 -6.3575053 -0.56215453 18
1.0475535 -7.1719532 -0.37985441 2
0.71130461 -4.8877616 -0.086214885 13
0.67961669 -4.5528545 0.080350876 17
0.69462496 -4.6701446 0.24744442 27
1.150236 -7.7612596 0.68643862 12
1.1678504 -7.9182329 0.98275441 32
1.1373304 -7.7393718 1.2389611 22
3.0612674 -20.907581 4.1073546 25
0.69260651 -4.7534513 1.1090088 14
0.67025989 -4.6170244 1.2500961 7
0.41261664 -2.8955724 -0.7837041 26
0.45468479 -3.2027953 -0.74683756 25
0.5173263 -3.6624148 -0.71896833 9
0.59043425 -4.1958447 -0.67110395 15
0.70053786 -4.9972415 -0.61958379 18
0.90024745 -6.454628 -0.57017285 18
1.022746 -7.3610911 -0.38948423 2
0.99025178 -7.1546974 -0.12607619 2
0.69368565 -4.8801947 0.086040363 15
0.68524778 -4.839015 0.25613219 14
1.112445 -7.885499 0.69672298 11
1.0739141 -7.6509781 0.94863105 5
1.1013271 -7.8762403 1.2596104 28
2.9753609 -21.360121 4.1920738 53
0.6650219 -4.7987065 1.1184567 1
0.66971296 -4.8512354 1.3122126 16
0.39342836 -2.9060402 -0.78577471 22
0.43622047 -3.2348602 -0.75358605 18
0.49331173 -3.6776121 -0.72125804 9
0.565575 -4.23315 -0.67642272 18
0.67820311 -5.0964622 -0.63128328 18
0.86335933 -6.5139346 -0.57487923 21
1.1316097 -8.583849 -0.45375276 18
0.92648149 -7.0563545 -0.12422623 23
0.66976738 -4.9602232 0.087366745 4
0.94589216 -7.032938 0.37189934 14
1.0605421 -7.9167695 0.69881475 21
1.0854992 -8.1462793 1.0090783 10
1.0767217 -8.1128473 1.2962161 14
2.8884294 -21.851379 4.2844253 27
0.59469777 -4.5171762 1.0518712 6
0.6383369 -4.8749475 1.317389 18
0.37485215 -2.9221292 -0.78939813 13
0.41165066 -3.2223625 -0.74998683 27
0.47124064 -3.7042553 -0.72583747 9
0.5372442 -4.2408209 -0.67704844 18
0.63069719 -5.0065355 -0.61958379 16
0.82654291 -6.588995 -0.58098018 9
0.92660272 -7.4180932 -0.39178702 2
0.89223105 -7.1837015 -0.12635542 22
0.89211196 -6.9640222 0.1225508 21
0.9227674 -7.2333717 0.38215721 12
1.010012 -7.9615355 0.70212668 10
0.98349959 -7.785193 0.96349907 6
1.0125974 -8.0494318 1.2849529 7
2.7977057 -22.365824 4.3813567 49
0.5580892 -4.480608 1.0424232 4
0.60371315 -4.8676763 1.3142831 27
0.35751304 -2.945708 -0.79509211 15
0.39181158 -3.242502 -0.75403601 26
0.44560319 -3.7094045 -0.72621906 12
0.50856346 -4.2523136 -0.67829996 16
0.61846209 -5.2020235 -0.64322644 6
0.78380144 -6.6223044 -0.58342052 18
0.8738572 -7.4164472 -0.3913683 17
0.85089684 -7.2652278 -0.12768181 16
0.84731686 -7.0018439 0.12310927 19
0.89589816 -7.435946 0.39251971 21
1.0025418 -8.357933 0.73646605 1
3.9078243 -32.77198 4.0524001 13
0.95591319 -8.0523806 1.284327 3
2.7040749 -22.915134 4.4851565 50
0.53066075 -4.5172973 1.0500716 14
0.57397902 -4.9082294 1.3241183 12
0.33730134 -2.9558687 -0.79716271 15
0.36815923 -3.2413499 -0.75313616 28
0.42013735 -3.7163267 -0.7269823 21
0.47900373 -4.2636962 -0.67955142 16
0.58433646 -5.2259426 -0.64566386 14
0.74195713 -6.6672187 -0.58690673 15
0.82800889 -7.4880209 -0.39482248 14
0.8021248 -7.2888799 -0.12799595 19
0.80158329 -7.0354047 0.12359794 17
0.84019297 -7.4203362 0.3913683 10
5.1296711 -45.516899 4.007421 24
3.6118906 -32.200726 3.9785466 38
3.5718434 -32.045628 5.1069598 30
2.6024778 -23.4603 4.5881934 30
0.51664633 -4.6797237 1.0869635 39
0.52894193 -4.8219557 1.2997893 16
0.31686291 -2.9600725 -0.79768038 20
0.34923667 -3.2787213 -0.7612344 23
0.39497924 -3.7329042 -0.7296536 10
0.45460382 -4.3180137 -0.68768603 20
0.55611134 -5.3088665 -0.65541339 4
0.7069605 -6.7832079 -0.59666818 18
0.77447855 -7.4816995 -0.39419448 8
0.75285912 -7.310216 -0.12827519 19
0.76479697 -7.1682186 0.12583186 19
0.80376273 -7.5710068 0.39900938 15
4.7104774 -44.592613 3.9230542 22
3.3830364 -32.241543 3.9804969 64
3.3564451 -32.150337 5.1197877 46
3.3343298 -32.101238 6.2734184 41
nan nan nan nan
0.48954552 -4.7697997 1.2847778 21
0.29638255 -2.9641345 -0.79819798 26
0.32807463 -3.298532 -0.76528352 11
0.37555277 -3.7960715 -0.74148381 15
0.42520145 -4.3210082 -0.68768603 18
0.52501857 -5.3738651 -0.66296923 2
0.66575372 -6.8514357 -0.60224617 18
0.75792509 -7.842649 -0.41293073 8
0.70848966 -7.384963 -0.12949686 22
0.70982975 -7.1115742 0.1247498 27
0.74905163 -7.5445027 0.39733464 7
4.3118825 -43.740093 3.8453114 21
3.1693075 -32.32309 3.9878087 77
3.1427073 -32.225525 5.1282353 30
3.1156261 -32.180401 6.2844853 14
0.46918756 -4.8726988 1.1301541 13
0.48303324 -5.0441718 1.3577647 21
0.2799609 -3.0064774 -0.80906838 13
0.30902827 -3.3375571 -0.77383167 13
0.34796467 -3.7868705 -0.7391941 18
0.39610353 -4.3356738 -0.68956316 24
0.49112177 -5.4069691 -0.66662538 4
0.63471681 -7.0424457 -0.61863148 9
0.68283528 -7.6209693 -0.40099812 8
0.67204446 -7.5449753 -0.13221943 19
0.67309511 -7.2557368 0.12719314 13
0.78405219 -8.5002012 0.44736779 8
3.9361734 -42.919254 3.7707062 19
2.9493339 -32.407696 3.9956088 77
2.9308262 -32.392262 5.1513872 31
nan nan nan nan
0.41281137 -4.625463 1.0721169 14
0.50192577 -5.6574225 1.521856 17
0.2594623 -3.014133 -0.81062132 26
0.28671691 -3.3512831 -0.7765311 22
0.32201681 -3.7950761 -0.74033892 16
0.36848092 -4.3698282 -0.69456911 16
0.45850062 -5.4715886 -0.67418122 2
0.59312516 -7.1380405 -0.6266498 15
0.67185158 -8.1371069 -0.42789882 9
0.61984468 -7.5554619 -0.13232414 19
0.62652344 -7.3080764 0.12803085 30
0.73944205 -8.6786022 0.45647424 8
3.5656774 -42.109882 3.6973207 18
2.7303224 -32.51453 4.0063329 78
2.6978836 -32.331226 5.1385603 31
nan nan nan nan
0.39248642 -4.7738967 1.1058595 34
0.38943708 -4.767385 1.2816719 12
0.23856598 -3.0177968 -0.81113893 16
0.26606038 -3.3881726 -0.78462934 25
0.29521012 -3.7933173 -0.73957568 19
0.34177071 -4.4215317 -0.70239085 16
0.42469713 -5.5320549 -0.68124968 2
0.55088669 -7.2253504 -0.63397086 11
0.76066017 -10.069451 -0.52922124 13
0.5747115 -7.661305 -0.1341043 11
0.5816071 -7.3900199 0.12939215 21
0.85161924 -10.893767 0.57266009 17
3.2083695 -41.319321 3.6258531 16
2.5111809 -32.635719 4.0190072 78
2.4894128 -32.575775 5.17454 31
2.4649103 -32.478958 6.3314247 42
2.435812 -32.319786 7.4827719 62
0.35787219 -4.7931056 1.2878836 3
0.21832475 -3.0309498 -0.81424475 7
0.24420686 -3.4152167 -0.79047805 30
0.27174643 -3.8285303 -0.74606317 21
0.31097269 -4.4139028 -0.70082647 22
0.38882896 -5.5744905 -0.68612444 2
0.5097872 -7.3641791 -0.64582402 8
0.72126001 -10.498812 -0.55151635 10
0.53192967 -7.822742 -0.13686177 11
0.53286862 -7.4157476 0.12977609 21
0.7811439 -10.951109 0.57538158 14
2.8660665 -40.579521 3.5590918 15
2.2945344 -32.731266 4.0287571 78
nan nan nan nan
2.2426946 -32.561962 6.344399 43
2.2167625 -32.433216 7.5052676 84
0.33046713 -4.8725276 1.3085891 19
0.19856873 -3.0458601 -0.81786817 8
0.22095492 -3.4167998 -0.79047805 26
0.24664083 -3.8558044 -0.75102425 10
0.28165165 -4.4396238 -0.7045809 22
0.35498878 -5.6423869 -0.69416779 4
0.46455064 -7.4669857 -0.65453959 8
0.66036731 -10.704933 -0.56208825 28
0.48575005 -7.941947 -0.13888624 14
0.48716545 -7.5130758 0.13141662 21
0.70736367 -10.998152 0.57757968 2
2.5442529 -39.88427 3.4965138 13
2.070596 -32.81979 4.037775 78
nan nan nan nan
2.0180824 -32.529449 6.3352408 14
1.9951773 -32.527649 7.5237136 63
0.29386318 -4.8322935 1.297201 9
0.17819749 -3.0626006 -0.82200933 12
0.19776885 -3.4299321 -0.79317749 22
0.22027446 -3.8672326 -0.75293231 15
0.25243112 -4.4730372 -0.7095868 18
0.31869224 -5.7002234 -0.70099252 2
0.41570485 -7.5297279 -0.65976894 11
0.5852921 -10.703299 -0.56177419 10
0.44564998 -8.2286863 -0.14384274 21
0.44047633 -7.6161118 0.13316187 17
2.490263 -43.452972 2.2810106 41
2.2251956 -39.186947 3.4339361 13
1.8464261 -32.922634 4.0487437 78
nan nan nan nan
0.27962789 -5.0810666 0.98915386 11
1.7726946 -32.626404 7.543509 42
0.26987734 -5.0155587 1.3458591 49
0.15621966 -3.0521941 -0.81890345 25
0.17480452 -3.4506917 -0.7976765 13
0.19483851 -3.9000492 -0.75903821 12
0.22275832 -4.5062585 -0.71459275 18
0.28228411 -5.7717052 -0.70952338 2
0.36656013 -7.5761642 -0.66360378 8
0.52073342 -10.920588 -0.57297415 24
0.5046227 -10.700477 -0.18698509 17
0.39775249 -7.8247042 0.13675706 19
nan nan nan nan
1.9177843 -38.522964 3.374496 13
1.621213 -33.029888 4.0604429 79
1.6003767 -32.957859 5.2261629 16
1.5688844 -32.662304 6.3562293 87
1.5552001 -32.735043 7.5660043 43
0.23160374 -4.9478502 1.3272241 13
0.13652815 -3.0898798 -0.82873863 10
0.15121989 -3.4635091 -0.80037588 20
0.16921784 -3.9228606 -0.76323599 14
0.19207996 -4.5076699 -0.71459275 22
0.24372879 -5.8151855 -0.71464187 4
0.31637943 -7.6442313 -0.66935611 2
0.45527706 -11.141399 -0.58438331 21
0.42774019 -10.649791 -0.18604267 28
0.34597677 -7.8611922 0.13735044 17
1.6317307 -37.522995 1.9683554 61
1.6216365 -37.900421 3.3188906 12
1.4005349 -33.139328 4.0726304 79
1.3773203 -32.999573 5.2311692 32
1.3447648 -32.768578 6.3749285 58
1.3302573 -32.834671 7.5867 43
nan nan nan nan
0.11599776 -3.1042509 -0.83236206 22
0.12835889 -3.4839325 -0.8048749 26
0.14097649 -3.9004028 -0.75865656 16
0.16341908 -4.5878663 -0.72710747 19
0.20588098 -5.8663068 -0.72073537 4
0.26826313 -7.759706 -0.67929184 5
0.38323143 -11.313975 -0.59328043 21
