# .PCD v0.7 - Point Cloud Data file format
VERSION 0.7
FIELDS x y z intensity
SIZE 4 4 4 4
TYPE F F F F
COUNT 1 1 1 1
WIDTH 1424
HEIGHT 1
VIEWPOINT 0 0 0 1 0 0 0
POINTS 1424
DATA ascii
0.78371257 5.5552917 -0.29402342 17
0.78197306 5.5220585 -0.097349517 27
1.4890463 10.800174 0.19030103 1
nan nan nan nan
4.2422376 30.532953 2.6969473 9
4.2635708 30.53023 3.7850182 23
4.2734184 30.484221 4.8754373 13
4.3205056 30.70318 6.0268936 24
4.2919965 30.38518 7.084609 52
4.3100266 30.359875 8.2164698 17
0.41314781 2.856463 -0.77335137 15
0.46194279 3.182066 -0.74233854 36
0.51773423 3.553272 -0.69797933 16
0.58940375 4.0303574 -0.64513582 30
0.69210321 4.7096696 -0.58448541 15
0.85294265 5.7831101 -0.51142991 6
0.82092071 5.5458779 -0.29381409 55
0.82138526 5.5223989 -0.097454235 31
1.557076 10.752187 0.18963784 3
1.5418408 10.607822 0.56177419 2
4.4561434 30.508507 2.6974702 59
4.4718614 30.504431 3.785506 35
4.4825444 30.466152 4.8773141 27
4.5143771 30.534376 5.9997983 48
4.5266166 30.50676 7.1201515 70
4.5168791 30.331741 8.2169876 17
0.42447567 2.8001037 -0.75885749 24
0.48095548 3.1615083 -0.73828942 16
0.54133993 3.5418079 -0.69645286 16
0.61333197 3.9988093 -0.64075565 17
0.72082317 4.6832676 -0.58180428 19
0.85402238 5.5230141 -0.4889437 54
0.85808951 5.5301423 -0.2932907 35
0.85926634 5.5186553 -0.097489148 36
1.6149745 10.628366 0.18764828 1
2.1668169 14.21002 0.75332385 10
4.6673217 30.501102 2.6995618 59
4.6841097 30.468542 3.7850182 11
4.6981411 30.45364 4.8804431 13
4.7449255 30.650393 6.028801 24
4.7373729 30.460938 7.117002 17
4.7273183 30.291836 8.2149172 17
0.44855553 2.8256917 -0.76662207 18
0.49964345 3.1369045 -0.7333405 15
0.55891937 3.4933548 -0.68767565 27
0.63966841 3.9846776 -0.63919127 19
0.73929584 4.5899282 -0.57083601 22
0.89573884 5.5365858 -0.4906868 39
0.89731377 5.5279608 -0.29350007 52
0.89648455 5.5046277 -0.097349517 57
1.5753996 9.9019337 0.17501274 1
2.2300825 13.969705 0.74139124 13
4.880146 30.467775 2.6995618 59
4.8967061 30.435099 3.7850182 23
4.9084291 30.406446 4.878253 13
4.9619288 30.635899 6.0326176 12
5.5347428 34.02206 7.9578695 24
4.9452147 30.298132 8.2257872 17
0.46479359 2.8015275 -0.76092798 31
0.52216941 3.1371846 -0.73424029 22
0.58199924 3.4816225 -0.68614918 16
0.65832323 3.9255662 -0.630431 17
0.76835757 4.5670376 -0.56864244 17
0.93138248 5.512517 -0.48911804 60
0.93855441 5.5373149 -0.29433745 62
0.93321621 5.488378 -0.097175002 36
1.5808617 9.5080061 0.1682412 1
2.3272264 13.951824 0.74128658 9
5.093719 30.43886 2.7000849 59
5.1130123 30.423664 3.7879431 35
5.1222291 30.381178 4.8798175 27
5.369513 31.746483 6.2585359 13
5.1648259 30.407192 7.1206012 35
5.1559663 30.259062 8.2247524 17
0.48071763 2.7772753 -0.755234 29
0.5437265 3.1315424 -0.7337904 31
0.60494083 3.469738 -0.6846227 15
0.68162727 3.8975246 -0.6266765 19
0.79747653 4.5459204 -0.56669247 14
0.97122687 5.5137291 -0.48981526 45
0.97718936 5.5306277 -0.29433745 47
0.97395217 5.495512 -0.097419336 29
1.4913666 8.5982914 0.1523246 1
2.3930752 13.75421 0.73165673 26
5.3156891 30.457512 2.7049656 9
5.3266554 30.39505 3.7889183 23
5.3362565 30.35635 4.8816943 27
5.3670325 30.43796 6.0078125 36
5.3640728 30.297478 7.1035047 35
5.3701286 30.239447 8.2294111 17
0.49906665 2.7681477 -0.75368112 37
0.55413222 3.064388 -0.7189436 21
0.62704694 3.45384 -0.68233299 17
0.70457578 3.8693495 -0.62292212 19
0.82527274 4.5187612 -0.56401139 15
1.0076582 5.5011106 -0.48929232 15
1.0132453 5.5099211 -0.29360473 40
1.0130173 5.4925122 -0.097489148 36
1.4550163 8.0543861 0.1428654 3
2.4787064 13.680176 0.72862124 19
5.5317411 30.439264 2.7067087 9
5.5394359 30.361027 3.7894058 23
5.5480542 30.318356 4.8816943 13
5.5609703 30.299337 5.9879684 24
5.5751157 30.287094 7.1098032 35
5.5835662 30.214518 8.2330341 17
0.51659834 2.7551026 -0.75109291 39
0.56866801 3.0240569 -0.71039551 31
0.64617431 3.4263411 -0.67775363 17
0.73162979 3.8683465 -0.62354785 16
0.83717537 4.4095263 -0.55109322 29
1.0341138 5.4313107 -0.48371434 6
1.0511039 5.504858 -0.29370943 52
1.0524694 5.4911981 -0.097593859 48
1.4434131 7.690526 0.13658254 1
2.5721428 13.664948 0.72872591 9
5.7492914 30.427311 2.7091491 9
5.7452149 30.31872 3.7889183 35
5.7638702 30.330347 4.8898292 27
5.7774997 30.286777 5.9933109 48
5.804718 30.34314 7.1322985 35
5.7919989 30.190992 8.237175 17
0.53570873 2.7534187 -0.75161052 37
0.58961356 3.0220282 -0.71084535 27
0.66253299 3.3832133 -0.67012119 13
0.75100517 3.8243771 -0.61729044 16
0.86755204 4.405673 -0.55133694 14
1.0615734 5.3711858 -0.47900796 5
1.0930015 5.5150185 -0.29465145 47
1.0870913 5.4701777 -0.097349517 29
2.6815548 13.756953 0.24464783 2
2.6613426 13.615297 0.72705114 9
5.9616361 30.414846 2.7115893 9
5.9613523 30.301243 3.7918432 24
5.9762549 30.293243 4.8904548 27
6.0056338 30.358452 6.0154448 48
6.9966922 35.239094 8.2943954 27
6.0082884 30.17824 8.2449398 17
0.5484212 2.7174191 -0.74281067 11
0.60914946 3.0101986 -0.70904577 26
0.6810565 3.3534937 -0.66516018 15
0.7721678 3.7919419 -0.61291033 27
0.88955373 4.3567195 -0.54597467 14
1.0862472 5.3011847 -0.47342998 5
1.1310749 5.5052967 -0.29454678 45
1.1276747 5.4742064 -0.097558953 38
2.7739644 13.720257 0.2443337 28
2.7626798 13.627705 0.72872591 3
6.1766047 30.386154 2.7128096 9
6.1790833 30.29001 3.795743 24
6.1895604 30.260464 4.8920193 27
6.2264872 30.360022 6.0242219 36
7.2896957 35.418434 8.3483849 28
6.223135 30.156368 8.2506342 17
0.567379 2.7135243 -0.74281067 29
0.62815058 2.9963365 -0.70679629 23
0.69232696 3.2910213 -0.65371162 28
0.79372978 3.7632647 -0.60915589 30
0.91624951 4.3329248 -0.5437811 13
1.116613 5.2622881 -0.47064099 2
1.1707284 5.5031271 -0.29486081 47
1.1641985 5.4583769 -0.097419336 38
2.9000192 13.845391 0.24691665 27
2.8651407 13.64327 0.73061001 6
6.3939266 30.367638 2.7150757 59
6.3945007 30.265554 3.7981803 36
6.4059892 30.241636 4.8960867 13
6.4370651 30.310053 6.023077 49
7.5798211 35.568714 8.3960733 28
6.4351296 30.119745 8.2527046 17
0.58712626 2.7132733 -0.74384594 29
0.64409584 2.9690244 -0.70139742 38
0.7186262 3.3014543 -0.65676457 27
0.81661373 3.742192 -0.60665292 27
0.93884033 4.2915158 -0.53939372 19
1.138373 5.1862526 -0.46454012 5
1.2069755 5.4850664 -0.29433745 37
1.2070152 5.4715962 -0.097803287 40
3.1130929 14.362246 0.25651547 19
2.9539504 13.59366 0.72903991 9
6.609169 30.337831 2.71647 59
6.6098771 30.239567 3.8006177 36
6.6224561 30.22126 4.9001536 27
6.6518812 30.279711 6.0261297 36
6.6698256 30.260578 7.1538939 35
6.6464839 30.079748 8.2542572 17
0.60563117 2.7072234 -0.74332833 31
0.65798354 2.934032 -0.69419903 37
0.73864061 3.2829494 -0.65409327 31
0.8388077 3.7190568 -0.60383707 16
0.9630869 4.2596865 -0.53622514 16
1.1617577 5.1259193 -0.45983368 2
1.2452364 5.4765067 -0.29433745 35
1.2447377 5.4610877 -0.097768381 12
3.1800609 14.191861 0.25386271 28
3.0649822 13.644807 0.73291278 6
6.8282466 30.323994 2.7194335 19
6.8225636 30.200436 3.8015926 24
6.8424268 30.214752 4.906724 27
6.8431339 30.144464 6.0085754 36
8.2744923 36.3615 8.6093273 30
6.8619075 30.057098 8.2609863 17
0.6145137 2.6596372 -0.73142266 22
0.6766935 2.9217725 -0.69239938 37
0.75297838 3.2434225 -0.64722413 33
0.86275995 3.707489 -0.60289848 15
0.98196906 4.2064643 -0.53037542 21
1.1838943 5.059485 -0.45460433 2
1.2847627 5.4776273 -0.29486081 27
2.1470623 9.1253891 -0.16363376 6
3.2774827 14.173785 0.25393254 28
3.1573312 13.621684 0.73280811 16
8.240078 35.43763 3.1831021 12
7.036099 30.188091 3.80598 24
7.0488477 30.171324 4.9073496 13
7.0650482 30.145657 6.0184975 24
nan nan nan nan
7.0765252 30.052942 8.272892 18
0.62320131 2.6159284 -0.72055227 45
0.69746965 2.9208899 -0.69329923 42
0.77148747 3.2209032 -0.64378959 28
0.87755471 3.6552768 -0.59538966 16
1.0110453 4.2016125 -0.53061914 13
1.2024254 4.985456 -0.44867775 5
1.5075434 6.2314382 -0.33599687 11
2.1723711 8.9589806 -0.16091119 3
3.276108 13.730418 0.24639308 18
3.2481706 13.581826 0.73186606 22
8.4885168 35.411724 3.1858909 12
7.2531629 30.165258 3.8093922 24
7.2657762 30.148266 4.9117298 13
7.2792845 30.135038 6.0261297 24
nan nan nan nan
7.2879858 30.010317 8.2749634 18
0.63960546 2.6040094 -0.71848166 58
0.71225423 2.8932424 -0.68790036 33
0.79292184 3.2136717 -0.643408 24
0.88960975 3.5974431 -0.5869422 24
1.0398736 4.1925254 -0.53037542 14
1.2323922 4.9576049 -0.44693464 2
1.5373681 6.1706448 -0.33327541 2
2.1994743 8.8019724 -0.15836313 12
3.3694925 13.7078 0.24639308 27
3.3567884 13.625339 0.73542494 6
8.7537098 35.425095 3.1925147 12
7.4621558 30.1306 3.8113422 24
7.4751191 30.115364 4.914546 27
7.4890156 30.081581 6.0257483 24
nan nan nan nan
7.4934969 29.965635 8.276516 18
0.65729547 2.5976081 -0.71796405 38
0.73004037 2.8787549 -0.68565083 30
0.81493026 3.2041104 -0.64264476 37
0.90849888 3.564187 -0.58256203 27
1.0686263 4.1832404 -0.5301317 13
1.2551134 4.9025569 -0.44275117 5
1.5963886 6.2175198 -0.33641556 2
2.246419 8.7302418 -0.1573509 3
3.4674969 13.683337 0.24639308 24
3.0608981 12.052324 0.65168738 8
3.5423269 13.917412 1.2564372 10
7.6815023 30.091818 3.813292 24
7.6972823 30.087894 4.9189262 13
7.7042193 30.04948 6.0299463 36
7.7331977 30.096996 7.1741395 72
7.7207355 29.96176 8.2904921 18
0.67444021 2.5892167 -0.71692878 40
0.7461825 2.8585036 -0.6820516 23
0.82877129 3.1680994 -0.63653886 28
0.93073481 3.5502772 -0.58131051 31
1.0761011 4.0931249 -0.51965094 16
1.2756038 4.8416557 -0.43804473 5
1.571882 5.9535375 -0.32270354 2
2.2653387 8.5558329 -0.1544887 3
3.60343 13.823895 0.24936 27
3.1075289 11.895941 0.64436036 5
3.6010294 13.745865 1.2431895 18
7.8942037 30.069561 3.8171921 36
7.90943 30.063461 4.9236188 13
7.9208283 30.021538 6.0352888 36
7.9301744 29.99329 7.1624422 18
7.9299574 29.929049 8.2961855 18
0.68405408 2.5547085 -0.7086466 31
0.75754201 2.8232436 -0.67485321 26
0.84168655 3.1281116 -0.62966973 30
0.94624096 3.509362 -0.57567888 36
1.0956525 4.0550427 -0.51575112 16
1.3046869 4.8153243 -0.43647596 5
1.6364334 6.0272274 -0.3273091 2
2.2825801 8.3897085 -0.15176612 3
3.7210784 13.877593 0.25079107 25
3.1687353 11.792946 0.63996416 8
3.7136846 13.792215 1.249639 18
8.1142855 30.052044 3.8220665 36
8.1232471 30.022766 4.9261217 27
8.1383381 30.016195 6.0452108 24
8.1470289 29.965406 7.1691904 36
8.1508818 29.917698 8.308609 18
0.70238417 2.5517335 -0.70916426 27
0.76790541 2.7840719 -0.66675496 20
0.85617763 3.0956681 -0.62432706 32
0.9628045 3.4741163 -0.57098585 27
1.1271223 4.0587711 -0.51721358 16
1.3323909 4.7849855 -0.43455851 5
1.689204 6.054132 -0.32940254 2
2.3012483 8.2310581 -0.14918317 3
3.8396642 13.930315 0.25222218 28
3.2717254 11.845618 0.64404637 11
3.7976525 13.72179 1.2456299 15
8.3355551 30.036747 3.8274291 24
8.3374252 29.982449 4.9289379 13
8.3561392 29.988903 6.0513167 49
10.632371 38.05526 9.1222162 35
8.3642349 29.876808 8.3132687 18
0.71545154 2.5300369 -0.70450544 25
0.80113715 2.8273907 -0.67845237 12
0.87615752 3.0839503 -0.62318224 30
0.97243059 3.4160135 -0.56253839 27
1.1456274 4.0164428 -0.51282626 16
1.3405635 4.6874504 -0.4265402 9
1.7149231 5.9845929 -0.32626238 2
2.329407 8.1129236 -0.14733322 6
3.3511481 11.83482 0.21469951 16
3.4072239 12.008866 0.65419954 20
3.8731971 13.624034 1.2391803 18
8.5559454 30.015999 3.8323038 24
8.5644274 29.986195 4.9392624 14
8.5706844 29.948715 6.0551329 37
10.975183 38.249836 9.1870012 36
8.5747604 29.825108 8.3153391 18
0.72824931 2.5082831 -0.69984674 31
0.80670393 2.7730784 -0.66675496 22
0.89766628 3.0777583 -0.62318224 35
1.0023519 3.4299977 -0.56597996 27
1.1663897 3.9835796 -0.50965762 18
1.3783062 4.6951828 -0.42810899 16
1.7228473 5.8575091 -0.31998208 5
2.3582914 8.0024757 -0.14562289 3
3.4738762 11.949391 0.21721266 18
3.5216932 12.090255 0.65995646 9
3.9609532 13.5718 1.2369143 20
8.7686329 29.966969 3.8337662 36
8.7796745 29.946526 4.9427037 28
8.7906237 29.925825 6.0627656 25
11.346552 38.527462 9.2724829 37
8.7898636 29.78861 8.3220682 18
0.7496025 2.516098 -0.70347023 31
0.82046884 2.7487061 -0.66225594 25
0.91856974 3.069535 -0.62280059 32
1.0274079 3.4267006 -0.56660569 17
1.1838923 3.941119 -0.50527036 22
1.4110489 4.6854467 -0.42810899 23
1.7521597 5.807096 -0.31788865 5
2.4187305 8.0011292 -0.14590213 12
3.5600717 11.934428 0.21738717 8
3.6111608 12.082596 0.66089851 9
3.6389577 12.152408 1.1098412 2
8.9913263 29.950653 3.8396161 12
9.0027514 29.931793 4.9505258 14
9.0083942 29.893803 6.0688715 37
nan nan nan nan
9.0088053 29.763498 8.3324203 55
0.76658547 2.508956 -0.70295256 28
0.84249049 2.7522283 -0.66450548 18
0.94055277 3.0649245 -0.62318224 27
1.0396955 3.3816814 -0.56034833 20
1.2096245 3.9270663 -0.50453913 19
1.4313828 4.6355033 -0.42444846 23
1.7666858 5.7107677 -0.31328306 7
2.3401475 7.5504646 -0.13797872 5
3.6011841 11.771604 0.21487403 38
3.5853989 11.698088 0.64122021 8
3.7476935 12.204796 1.1169881 6
9.2147884 29.934584 3.8457093 12
9.2219601 29.902195 4.9561572 14
9.2284498 29.867701 6.0765033 37
9.2679977 29.92157 7.2317271 93
9.2301159 29.744162 8.3448439 55
0.77426714 2.4722028 -0.69415271 31
0.85293305 2.7183888 -0.65775692 20
0.95780218 3.0451744 -0.62051088 37
1.0626835 3.3724568 -0.56003547 28
1.2382045 3.9223125 -0.50502658 16
1.4480809 4.5760093 -0.41991636 23
1.7938366 5.6583133 -0.31108496 2
2.4418335 7.6883202 -0.14080602 18
3.6850781 11.751899 0.21497875 32
3.7005007 11.779476 0.64708179 8
3.6862659 11.712714 1.0742816 16
9.4193659 29.856274 3.8440032 36
9.4430084 29.876635 4.9627275 28
9.4569054 29.866179 6.0894785 25
12.47517 39.302975 9.5199299 40
9.4492378 29.715822 8.355197 55
0.78914773 2.459379 -0.69208211 31
0.86175317 2.6808286 -0.65010858 14
0.96639371 2.9991715 -0.61249691 27
1.0764928 3.334878 -0.55502951 28
1.2508982 3.8682415 -0.49917686 22
1.4892054 4.5942183 -0.42253101 19
1.7999825 5.5430746 -0.30543268 15
2.4261611 7.458106 -0.13689667 11
3.8612175 12.019082 0.22035408 25
3.840158 11.932073 0.65692103 8
3.7593811 11.660147 1.0718412 18
9.6434593 29.838892 3.8503404 73
9.6635246 29.847569 4.9689851 14
9.6724491 29.821838 6.094058 50
12.855295 39.541092 9.5991116 41
9.6684437 29.685867 8.36555 56
0.80147249 2.4391277 -0.68794107 27
0.87191641 2.648833 -0.64380997 43
0.98976892 2.9998097 -0.61402339 46
1.0947905 3.3122761 -0.55252659 37
1.2741312 3.8481066 -0.49771443 16
1.5035093 4.5329156 -0.41782463 23
1.8329655 5.5133152 -0.30449063 5
2.461741 7.3916578 -0.13598914 23
3.9456568 11.993731 0.22038898 21
3.8558509 11.700107 0.64561641 8
3.8538096 11.673348 1.0755018 16
9.8639975 29.808537 3.8552151 61
9.8847036 29.818756 4.9755554 14
9.8940058 29.794582 6.1024537 38
13.142599 39.508148 9.6126089 42
9.8846197 29.645132 8.3733139 37
0.82279229 2.4462903 -0.6915645 31
0.88043207 2.6131334 -0.63661152 30
0.99949223 2.9613802 -0.6075359 21
1.1160442 3.3010054 -0.55190086 31
1.2920438 3.8127978 -0.49430209 19
1.5357566 4.5241957 -0.41799891 19
1.8537335 5.4515471 -0.30176917 2
2.479743 7.275866 -0.13417409 17
4.0297561 11.974178 0.22052862 25
3.9264698 11.647093 0.64415103 11
3.9154394 11.587646 1.0700982 20
10.078126 29.774551 3.8596025 49
10.102668 29.795681 4.9830642 14
10.115668 29.765676 6.1108489 38
10.152437 29.822609 7.273118 19
10.121082 29.67956 8.4023018 19
0.83439702 2.4260187 -0.68742341 28
0.90962327 2.6402447 -0.64470977 30
1.0086079 2.920927 -0.60066676 28
1.1461654 3.313669 -0.55534244 26
1.3121177 3.7870331 -0.49210843 22
1.5521448 4.4722281 -0.4141641 18
1.875343 5.3913126 -0.29915234 2
2.5055208 7.1908388 -0.13291752 17
4.1158576 11.953317 0.22066824 29
4.0317817 11.689257 0.6480239 11
4.0332613 11.673715 1.0805569 16
10.302634 29.752235 3.8659396 61
10.323381 29.761751 4.9893212 14
10.332218 29.736929 6.1192446 38
10.339826 29.708643 7.26232 18
10.336946 29.633717 8.4095488 19
0.84810942 2.4110222 -0.68483526 33
0.93645388 2.6577234 -0.65055853 27
1.0356542 2.9343586 -0.60486454 33
1.16211 3.2871664 -0.55221373 27
1.3338817 3.7646837 -0.49040228 16
1.5646701 4.408709 -0.40928334 6
1.8925962 5.3238482 -0.29611689 2
2.5080111 7.0394282 -0.13043928 19
nan nan nan nan
4.1265221 11.704867 0.65043133 23
4.112669 11.639637 1.0800339 18
10.53008 29.752531 3.8752017 37
10.540907 29.733614 4.9965177 28
10.557317 29.714024 6.1295481 25
10.55678 29.663275 7.2690692 37
10.598744 29.731901 8.4576893 78
0.8612327 2.3961039 -0.68224704 30
0.94858038 2.6347861 -0.64650935 24
1.0581135 2.9325969 -0.60600942 27
1.1749594 3.2511063 -0.5475207 15
1.3574295 3.7478132 -0.48942733 13
1.5872569 4.3752027 -0.40719163 18
1.909254 5.2541909 -0.29297671 2
2.5167196 6.9108887 -0.12837991 16
4.2552252 11.825813 0.21937676 31
4.2237186 11.718988 0.65283883 17
4.1708307 11.55328 1.0746303 16
10.795602 29.838831 3.8961632 49
10.765041 29.705736 5.0043392 14
10.779917 29.682035 6.1383257 39
10.814242 29.728033 7.3032618 57
10.819942 29.695299 8.4685593 58
0.88702047 2.4134521 -0.68897635 39
0.9653905 2.6224444 -0.64515966 28
1.0629382 2.8827722 -0.59723216 26
1.1858695 3.2092626 -0.54188907 26
1.3677135 3.6954267 -0.48382133 22
1.6066823 4.3341246 -0.40440264 20
1.9273282 5.1879716 -0.29004589 2
2.521672 6.7769513 -0.1262158 16
4.3604569 11.857753 0.22052862 19
4.3012481 11.671599 0.65189672 20
4.2892675 11.620335 1.0836946 20
11.012617 29.786938 3.8993318 37
11.000669 29.690924 5.014977 14
11.004618 29.653917 6.1482477 26
14.638307 39.382317 9.6998901 43
8.1122799 21.778355 6.2271867 17
0.89773613 2.3909235 -0.68431759 30
0.97818744 2.6010489 -0.64156049 31
1.0994638 2.917346 -0.60600942 27
1.21522 3.2193873 -0.54501772 20
1.3927753 3.6839318 -0.48357758 17
1.6291847 4.3001585 -0.40231091 24
1.9464941 5.1295738 -0.28753379 2
2.5788684 6.7853508 -0.12670447 19
4.4641938 11.876786 0.22147104 38
4.369966 11.60764 0.65001267 17
4.3527198 11.543498 1.0793368 28
11.235995 29.735228 3.902988 75
11.230057 29.672518 5.0249887 29
11.235729 29.640617 6.1616039 26
4.2094998 11.0816 2.7367547 12
8.095808 21.278824 6.1003652 24
0.91578948 2.3882055 -0.68535286 42
0.99632239 2.5941565 -0.64156049 39
1.1141627 2.8949413 -0.60295647 20
1.2234561 3.1739614 -0.53876036 22
1.4055909 3.640785 -0.47919029 23
1.6670715 4.3091202 -0.4042283 22
1.9562773 5.0488157 -0.28376558 14
2.5842123 6.6590571 -0.12468 15
nan nan nan nan
4.4709587 11.629048 0.65294349 8
4.4475164 11.550017 1.0828229 20
11.463337 29.707912 3.9098125 75
11.45333 29.635769 5.0321846 29
11.459409 29.605392 6.170763 13
4.1352487 10.661319 2.6400259 22
8.0615826 20.751791 5.9652615 30
0.91976333 2.3493736 -0.6760354 45
1.0044495 2.5617378 -0.63526183 41
1.1242949 2.8615105 -0.59761381 23
1.2369046 3.1432843 -0.53500593 22
1.4324299 3.634577 -0.47967777 28
1.6941717 4.2921128 -0.40370542 18
1.9826618 5.0127482 -0.28250951 7
2.5636206 6.4716721 -0.12150366 21
4.0517039 10.338733 0.19382644 3
4.5812249 11.671919 0.65713036 5
4.6381092 11.79868 1.109144 12
13.73156 34.859615 4.6003242 15
11.671531 29.584492 5.0371904 14
4.3755765 11.074036 2.3145132 34
4.1682835 10.533261 2.6152811 40
8.0218372 20.229885 5.8311934 29
0.93399221 2.3375132 -0.67448246 28
1.0331695 2.5818017 -0.64201033 34
1.1276786 2.8137 -0.5892182 30
1.2678376 3.1586239 -0.53907323 17
1.4436952 3.5894959 -0.47504675 23
1.7136708 4.2543082 -0.40126503 17
1.9943228 4.9435692 -0.27936935 4
2.5810101 6.3850203 -0.12021218 23
3.920078 9.8058586 0.18433231 3
4.6501741 11.614507 0.65566492 5
4.6291189 11.538569 1.0877036 19
13.989247 34.816917 4.6071491 15
4.4644065 11.094373 1.8941088 16
nan nan nan nan
4.1388311 10.249124 2.5518451 40
4.1727448 10.317543 2.9821131 18
0.95571238 2.3454144 -0.67862362 46
1.0367284 2.5404286 -0.63346225 27
1.1450653 2.8003073 -0.58807337 21
1.2831205 3.1332436 -0.53625745 16
1.4598089 3.5593829 -0.47236562 26
1.7039831 4.1485529 -0.39237517 31
2.0880747 5.0735893 -0.28753379 14
2.628984 6.3783965 -0.1204216 18
4.2769432 10.485559 0.19766594 5
4.7643776 11.663113 0.66027045 6
4.7264132 11.552894 1.0920614 19
8.9004421 21.712318 2.8812351 32
4.5492578 11.081206 1.8972374 10
4.2299771 10.288158 2.1622477 24
4.195148 10.188275 2.5437467 46
4.2174115 10.222085 2.9629607 36
0.97132283 2.3369007 -0.67810595 70
1.0439552 2.507941 -0.62716359 28
1.1527686 2.7652664 -0.58234906 30
1.2937635 3.0989165 -0.53187722 17
1.4769602 3.530792 -0.46992823 27
1.7167351 4.0979657 -0.38871458 24
2.0962873 4.9966402 -0.28397492 21
2.6540768 6.3138013 -0.11954898 13
4.0103679 9.6437874 0.18230784 3
4.9035435 11.774228 0.66843486 3
4.8744717 11.681422 1.1074008 14
8.9753122 21.477232 2.8580801 72
4.4705243 10.681897 1.8340379 19
4.3168788 10.294589 2.1698802 26
4.199769 10.000629 2.5041554 10
nan nan nan nan
0.97816294 2.3088899 -0.67189431 40
1.0594788 2.4971895 -0.6262638 29
1.1697416 2.7517309 -0.58120424 30
1.3169141 3.0934439 -0.53250295 17
1.5064106 3.5334384 -0.47163439 16
1.7438092 4.084352 -0.3885403 22
2.1232662 4.9635196 -0.2829282 23
2.6639194 6.2183881 -0.11808299 15
4.3328853 10.217562 0.19372171 15
5.1651869 12.162529 0.69250941 18
4.9312592 11.594803 1.1023458 19
9.1304712 21.426838 2.8597863 24
4.5209484 10.594106 1.8243389 13
4.4531975 10.420225 2.2026992 24
4.5683055 10.674103 2.680517 26
4.1630464 9.708437 2.8304453 23
1.0003861 2.3161926 -0.6760354 52
1.0668294 2.4664803 -0.62041503 30
1.1861027 2.738301 -0.58005941 28
1.3316498 3.0699112 -0.53000003 17
1.523128 3.5046308 -0.46919701 13
1.788976 4.1104436 -0.39220083 17
2.1330628 4.8940248 -0.27978805 28
2.6784577 6.133666 -0.11682641 7
4.3674326 10.107064 0.19218589 12
5.9561892 13.763952 0.78598148 3
5.1024365 11.768481 1.1222173 12
9.3188105 21.462515 2.8729482 8
4.6032009 10.586635 1.8284062 21
4.3180537 9.9119139 2.1015704 16
4.5125852 10.343658 2.6053834 22
4.0735765 9.324049 2.7263999 20
1.0064131 2.2861667 -0.6693061 39
1.0879544 2.4678876 -0.62266457 22
1.2040807 2.7261517 -0.57929617 27
1.3431959 3.0368185 -0.52593273 17
1.5427343 3.4830217 -0.46773461 22
1.8168209 4.0960326 -0.39202651 19
2.1599183 4.860384 -0.27874133 35
2.6943836 6.0545278 -0.11567455 10
4.330791 9.8285141 0.18747376 14
5.2046862 11.795035 0.67565727 24
5.2311726 11.838275 1.1323274 13
4.6954942 10.605975 1.4241652 35
4.6748357 10.544395 1.8268418 19
4.4054694 9.9227962 2.1103475 13
4.5007687 10.123152 2.5576937 18
4.506494 10.117011 2.9676192 16
1.0270932 2.2896607 -0.67241186 33
1.1027602 2.4548998 -0.62131482 27
1.2209983 2.7143114 -0.57853287 30
1.330573 2.9537604 -0.51310509 25
1.5719138 3.483022 -0.46919701 16
1.8453742 4.0832481 -0.39202651 23
2.174835 4.8055382 -0.27643853 23
2.7192426 5.9973259 -0.11494155 20
4.2019067 9.3627777 0.17913151 8
5.3740921 11.957903 0.6870665 9
5.2956963 11.761498 1.1284926 11
4.6892424 10.400043 1.4007664 26
4.797709 10.625755 1.8465527 13
4.6971545 10.383705 2.2152925 38
4.6710405 10.311598 2.6134815 50
4.5784512 10.093137 2.9696898 28
1.0370361 2.2703159 -0.66878843 50
1.1137705 2.4349315 -0.61816555 37
1.2440075 2.7146451 -0.580441 26
1.3824676 3.0126238 -0.52499413 23
1.5837536 3.4449089 -0.46554092 20
1.8746688 4.0720754 -0.39220083 21
2.1865904 4.7430792 -0.27371708 27
2.7208021 5.8910532 -0.11326612 12
4.2513704 9.2986612 0.17846832 5
5.4216924 11.842008 0.68256563 9
5.3839407 11.743287 1.1302357 2
4.7136774 10.262425 1.3866295 39
4.6827469 10.181028 1.7749057 19
4.6914725 10.181271 2.1790388 33
4.3428369 9.4117069 2.3930295 12
7.7652831 16.805626 4.960526 13
1.0483642 2.2523284 -0.66568261 43
1.1336358 2.4321983 -0.61951524 43
1.2513043 2.6809878 -0.57509834 30
1.3998065 2.9937069 -0.52342981 27
1.6128141 3.4445555 -0.46700338 20
1.8903626 4.0318303 -0.38958618 23
2.2128332 4.7110415 -0.27277502 24
2.752501 5.8520103 -0.11288217 15
4.3389754 9.3176985 0.17941074 8
5.4936213 11.775761 0.68099552 9
4.9500613 10.59611 1.0232084 20
4.8499804 10.367719 1.4053974 37
4.706861 10.043513 1.7567593 7
4.9867964 10.626358 2.2816939 14
4.6844311 9.9684744 2.5428469 70
5.3517966 11.368005 3.3667183 4
1.0648892 2.2467008 -0.66620022 40
1.158107 2.4400699 -0.62356436 46
1.2687711 2.6684191 -0.5743351 36
1.4130298 2.9678094 -0.52061397 26
1.6428024 3.4457552 -0.46870953 13
1.9090222 3.9987569 -0.38766876 16
2.2413576 4.68647 -0.27225167 20
2.7060499 5.6504955 -0.10935678 19
4.3129725 9.0912876 0.17564102 10
5.6579762 11.910306 0.69104403 18
5.0940909 10.708831 1.0375019 11
4.8958592 10.273613 1.397354 8
4.7130589 9.8766994 1.7332941 12
3.4500904 7.2202826 1.555475 3
4.8136325 10.060333 2.5747898 26
4.4415207 9.2660236 2.7533171 36
1.0704732 2.2183332 -0.65998858 40
1.1674843 2.4161329 -0.61951524 29
1.2911804 2.6685574 -0.57624322 37
1.4254466 2.9421232 -0.51779813 28
1.6486158 3.3966992 -0.46359101 19
1.9203449 3.9512844 -0.38435683 20
2.2487342 4.62082 -0.26932088 24
2.731411 5.602706 -0.1087983 9
4.4390855 9.1949835 0.17822398 10
5.1008677 10.551664 0.61421484 2
5.0384684 10.40403 1.0113552 9
4.9249668 10.1561 1.3858984 13
4.9052911 10.102051 1.7786602 10
4.7413549 9.7471142 2.1069131 15
4.888865 10.036998 2.5774894 38
nan nan nan nan
1.0898051 2.219666 -0.66257679 42
1.1847619 2.4098794 -0.61996514 31
1.3037071 2.6471491 -0.57357186 26
1.4363413 2.9126115 -0.51435655 27
1.6734561 3.3889587 -0.46407849 20
1.9401313 3.9238334 -0.38296232 22
2.2862577 4.615747 -0.2699489 20
2.6930723 5.4299188 -0.10579649 11
4.5384479 9.2355556 0.17962018 12
5.0976911 10.359886 0.60510838 17
5.1435075 10.439197 1.0181533 13
5.2619677 10.660831 1.4597511 10
4.7787695 9.6691055 1.7082645 13
3.6163611 7.3075166 1.5848596 20
4.6871109 9.4587002 2.43712 24
4.480382 9.0256748 2.7000003 15
1.1078653 2.2171881 -0.66412973 64
1.1858619 2.3701794 -0.61186689 31
1.3172973 2.6294379 -0.57166374 31
1.4667609 2.9239559 -0.51811105 33
1.6765742 3.3363972 -0.45847249 22
1.9549401 3.8852761 -0.38052195 32
2.2969544 4.5590534 -0.26754144 27
2.7903802 5.5288095 -0.10810021 19
4.4116554 8.8252516 0.17222033 14
5.1680956 10.324944 0.60510838 5
5.1957269 10.362068 1.0141442 13
5.0012894 9.9612732 1.3685929 8
4.8311653 9.6098795 1.7035716 18
3.64256 7.2329955 1.5741742 3
4.8153238 9.5492926 2.469063 18
5.730258 11.348905 3.4065764 8
1.1194316 2.2027063 -0.66205913 65
1.2010852 2.3603153 -0.611417 34
1.3320559 2.6131809 -0.57013732 24
1.470975 2.8819742 -0.51247936 26
1.6965355 3.3196049 -0.45774129 17
1.9720279 3.852026 -0.37860456 26
2.3196135 4.5251336 -0.26649469 22
2.8142495 5.4830031 -0.10757664 14
4.4767823 8.8013687 0.17235997 11
5.1693449 10.149796 0.59694397 17
5.2190661 10.234169 1.00508 1
4.9840159 9.7564077 1.3451939 1
4.880146 9.5407448 1.6973141 10
nan nan nan nan
3.6089244 7.0342817 1.825253 19
4.9813328 9.6967878 2.9210317 4
1.1188108 2.163949 -0.65274167 39
1.2318674 2.3795629 -0.61861545 33
1.337615 2.5794172 -0.56479466 30
1.5056238 2.8996847 -0.51748526 22
1.7178379 3.3041573 -0.45725381 26
1.9795458 3.8010554 -0.37494397 22
2.3372986 4.4822645 -0.26492465 15
2.8163669 5.3940892 -0.10621535 16
4.4021034 8.5070524 0.16719407 11
5.2391596 10.111687 0.59683931 8
5.1922131 10.008248 0.98642868 1
5.0474257 9.7125702 1.3439753 19
5.0569601 9.7184792 1.7351713 6
3.800905 7.295258 1.5989794 9
3.6363056 6.9674525 1.8144553 19
nan nan nan nan
1.1320924 2.1526659 -0.6517064 31
1.2430021 2.360559 -0.61591601 34
1.3583367 2.5752263 -0.56593949 37
1.5046116 2.8489285 -0.51028925 17
1.7287983 3.2692719 -0.4540852 33
1.998575 3.773057 -0.37354952 16
2.3685336 4.465838 -0.26492465 13
2.8155031 5.3018842 -0.10478425 21
4.4101558 8.3787899 0.16527429 13
5.0712457 9.6225357 0.57004327 11
5.2666106 9.9805632 0.98730022 33
3.5974598 6.8059082 0.94521874 20
5.0729389 9.585165 1.7176507 1
3.8278415 7.2234411 1.5890573 15
3.675719 6.9246855 1.8099563 23
nan nan nan nan
1.1461821 2.1430063 -0.65118873 34
1.2438118 2.3226192 -0.60826772 41
1.3614334 2.5379996 -0.55983365 25
1.5207255 2.831394 -0.50903779 22
1.75158 3.257123 -0.4540852 23
2.0362039 3.7800624 -0.37564126 14
2.3892221 4.4298582 -0.26377326 9
2.81919 5.2205176 -0.10356259 22
4.0684071 7.6002841 0.15047465 11
5.5581522 10.370258 0.61662227 2
5.4068141 10.075223 1.0003736 3
3.7031593 6.8890333 0.96033055 7
5.7239251 10.634922 1.9128809 7
3.7235754 6.9096465 1.5257088 16
5.3911057 9.9873075 2.6202302 6
5.2650614 9.7415981 2.9671018 2
1.163884 2.1400435 -0.65274167 31
1.2572007 2.3087447 -0.60691798 33
1.3932202 2.5542862 -0.5655579 33
1.5300405 2.8016376 -0.50559622 26
1.7723715 3.2413318 -0.45359772 17
2.0300026 3.7063415 -0.36971465 16
2.4028037 4.3815484 -0.26188916 15
2.8748162 5.2357659 -0.10426068 22
4.0611386 7.4610443 0.14827564 6
5.4908729 10.075158 0.60134023 8
3.7687323 6.9066076 0.68835604 5
3.7140329 6.7950792 0.95082474 7
3.9146638 7.1532459 1.2915231 7
nan nan nan nan
3.6520298 6.6540203 1.7523688 46
5.2799153 9.6080971 2.9375963 26
1.1881442 2.1487722 -0.65791804 28
1.2770636 2.306731 -0.60871756 38
1.3881668 2.5032916 -0.55639905 27
1.5409323 2.7753446 -0.50278044 23
1.7959218 3.2306147 -0.45384148 23
2.0548592 3.6903384 -0.36954033 24
2.422636 4.3454776 -0.26073778 12
2.9200702 5.2312827 -0.10457481 20
3.8778431 7.0073457 0.13979377 3
5.5726933 10.057544 0.60259628 8
5.4184113 9.7670307 0.9771902 17
5.2134795 9.382184 1.3178952 21
4.4552689 8.0078287 1.4513992 7
3.6333809 6.5225401 1.4512933 6
3.6746564 6.5858183 1.7411213 31
nan nan nan nan
1.1945971 2.1252685 -0.65325934 34
1.2778444 2.270587 -0.60151911 33
1.3921136 2.4695954 -0.55105644 27
1.5670668 2.7765613 -0.50497049 22
1.8145255 3.2110848 -0.45286649 27
2.0727193 3.6620321 -0.36814582 18
2.4519293 4.3267207 -0.26063308 8
2.9407341 5.1829405 -0.10401635 20
4.096282 7.2816176 0.1458323 8
5.5663152 9.8826599 0.59443188 5
5.515821 9.7810307 0.98241949 15
3.7899959 6.7097206 0.9461937 13
5.2355194 9.2575197 1.6844865 9
3.6256239 6.4030533 1.4303043 2
3.7051623 6.5328822 1.7339228 23
5.2389784 9.2260218 2.8428683 36
1.2046126 2.1084905 -0.65067112 48
1.2936639 2.2616112 -0.60151911 30
1.4346962 2.5041065 -0.56097847 23
1.5903442 2.7724071 -0.50622195 25
1.8250351 3.1776822 -0.44994166 27
2.0992301 3.6491988 -0.36832017 16
2.4501779 4.2541146 -0.2572836 21
2.9438784 5.1051188 -0.10286448 22
4.0854769 7.1452122 0.1436682 17
5.6738772 9.9111557 0.59851408 8
5.559207 9.6990671 0.97806168 50
2.5855024 4.5036035 0.63762045 2
nan nan nan nan
3.6565249 6.3537655 1.4249617 1
3.7458143 6.498414 1.7316734 31
5.27912 9.1473923 2.8299277 17
1.2260934 2.1117241 -0.65429455 48
1.3182358 2.2676876 -0.60556829 29
1.4304093 2.4567049 -0.55258286 36
1.6166232 2.7731838 -0.50841206 15
1.8551787 3.17858 -0.45189157 35
2.1005228 3.5931735 -0.36413667 26
2.4636755 4.2093263 -0.25560883 14
2.9885464 5.0999699 -0.10317863 24
4.1101465 7.0732894 0.14279559 24
4.1891861 7.2006297 0.43658656 5
5.5054426 9.451704 0.95697004 10
2.5588608 4.3859954 0.6234836 15
3.888694 6.6573682 1.2211275 40
3.9237957 6.7093935 1.5108256 49
3.9181464 6.6890216 1.7897106 23
5.4523044 9.2969561 2.8879032 10
1.2388427 2.0997851 -0.65325934 37
1.3399829 2.2684958 -0.60826772 23
1.4595214 2.4669347 -0.55716228 19
1.6007085 2.7023444 -0.49746165 21
1.8692236 3.1518917 -0.44994166 31
2.1235197 3.5749962 -0.36378807 22
2.4797282 4.1697083 -0.25424811 2
3.0117993 5.0583649 -0.10275977 22
4.1319728 6.9979329 0.14185315 30
4.1600728 7.0371051 0.42842221 17
2.5552835 4.3173113 0.43891633 11
2.559052 4.3167953 0.61617148 12
5.4796677 9.2324791 1.7004429 12
4.0748434 6.8573637 1.550514 11
3.8740523 6.5091166 1.7487695 99
3.8497896 6.4606524 2.0151651 14
1.2554585 2.0943992 -0.65429455 45
1.346761 2.2440481 -0.60421854 10
1.4848 2.4701464 -0.56021523 36
1.627684 2.7046437 -0.49996459 26
1.8594249 3.086055 -0.44238573 17
2.1319554 3.5327911 -0.36099908 31
2.4932852 4.1266532 -0.25267801 8
3.03669 5.0201054 -0.10241073 20
4.1467791 6.9123282 0.14070129 30
2.6110194 4.3471866 0.265762 1
2.4580448 4.0876427 0.41730168 10
2.557375 4.2461109 0.60861558 17
5.9081426 9.7979126 1.812137 33
3.8790934 6.4253788 1.4589256 31
3.930495 6.5002542 1.7537186 27
5.5935884 9.2397509 2.8941145 2
1.2559823 2.0624833 -0.64704764 38
1.3634089 2.2362552 -0.6046685 27
1.4887074 2.4379385 -0.55525422 21
1.6506478 2.6999559 -0.50121611 26
1.8819593 3.0746925 -0.44262949 37
2.1492779 3.5059309 -0.35977891 26
2.5021839 4.0768042 -0.25068927 19
3.0517738 4.9664102 -0.10174754 22
4.1990976 6.8900399 0.14084093 27
2.634023 4.3169174 0.26502931 14
2.3888893 3.9105599 0.40091643 30
2.5558753 4.1773543 0.60130334 15
4.4626956 7.2853155 1.3531584 15
3.9567003 6.4516964 1.4711374 12
3.9400809 6.4145374 1.7379719 44
4.2351203 6.8867807 2.1663156 21
1.265269 2.04545 -0.64445943 30
1.3913001 2.2465634 -0.61006731 37
1.488099 2.3991234 -0.54876673 25
1.6611201 2.6749415 -0.49871314 30
1.9159563 3.0817089 -0.44555435 27
2.1699333 3.4861453 -0.35925597 22
2.5031142 4.0151682 -0.24796779 18
3.0821364 4.9381986 -0.10160792 18
4.2292004 6.8316541 0.14024754 16
2.4652348 3.977571 0.24524632 15
2.3394456 3.7702012 0.38819164 18
2.5304899 4.0717368 0.58862901 11
4.2650781 6.8548036 1.2786956 40
nan nan nan nan
3.9877739 6.3941855 1.7397715 36
4.2871861 6.8636012 2.168386 12
1.2795172 2.0365674 -0.64445943 30
1.3882729 2.2071042 -0.60196906 14
1.5002089 2.3822939 -0.5472402 16
1.677181 2.6602314 -0.49808741 32
1.9384838 3.0699363 -0.4457981 23
2.1888952 3.4624908 -0.3583844 28
2.525044 3.9895999 -0.24744442 16
3.1090395 4.9047389 -0.10136358 24
2.6805012 4.2648129 0.087925225 9
2.4326866 3.8660328 0.2393847 13
2.3827064 3.7807465 0.39098063 23
2.5973399 4.1165352 0.59764731 26
4.3126936 6.8272834 1.2790084 26
3.8941994 6.1552515 1.4158028 26
4.090714 6.4583797 1.764966 34
5.743926 9.0579615 2.8739266 17
1.2964678 2.0326967 -0.64601237 33
1.4001186 2.1926754 -0.60061932 34
1.5273826 2.3883016 -0.55105644 20
1.6935829 2.6451294 -0.49746165 21
1.9475514 3.0382869 -0.44311696 16
2.1973479 3.424036 -0.35594404 15
2.5355573 3.9449918 -0.24576966 10
3.1391068 4.878418 -0.10125886 15
2.4928751 3.905508 0.080874451 12
2.3746529 3.7160017 0.23111561 13
2.3471811 3.6687777 0.38104489 17
2.5746086 4.018074 0.58594781 17
5.9462829 9.2694044 1.7442445 7
4.0357294 6.2838836 1.4516749 21
4.1387925 6.4369445 1.7667657 17
5.9837809 9.2921352 2.9614077 8
1.3127263 2.0268395 -0.64704764 33
1.4153912 2.1828477 -0.60061932 34
1.5371889 2.36797 -0.54876673 29
1.7104709 2.6318851 -0.49714881 25
1.9470574 2.9913425 -0.4382422 15
2.2146719 3.3985965 -0.35489815 15
2.531795 3.8808045 -0.24283887 14
2.6568186 4.0662379 -0.084783792 5
2.5476742 3.9320817 0.081781976 12
2.3890245 3.6829946 0.23006889 16
2.3390889 3.6005085 0.37564126 17
2.5218058 3.8773153 0.56791121 13
6.5384851 10.041504 1.8978633 30
nan nan nan nan
4.0430036 6.192502 1.7073786 29
5.7720819 8.8307562 2.8268218 40
1.3180038 2.0049424 -0.64290655 38
1.4302177 2.1731622 -0.60061932 30
1.5385567 2.3342319 -0.54342401 23
1.7549148 2.6594496 -0.50465763 17
1.9673722 2.9780209 -0.4382422 15
2.2295499 3.3697598 -0.3535037 24
2.5301502 3.8197422 -0.2401174 14
2.5971274 3.9164021 -0.08202631 22
2.5343966 3.8523886 0.080490492 13
2.4509299 3.721271 0.23352307 13
2.3723168 3.5978098 0.37703574 33
2.5608482 3.8778355 0.57059228 22
6.3208203 9.5605898 1.8152657 10
4.132823 6.2440133 1.4554911 10
4.1873455 6.3168097 1.7496694 31
6.8227701 10.280769 3.3061545 10
1.3298229 1.9924791 -0.64187121 31
1.4301963 2.1404409 -0.59432071 25
1.5635502 2.3364868 -0.54647696 30
1.7569478 2.6225157 -0.49996459 20
2.0091252 2.9955361 -0.44287321 13
2.2396877 3.3342667 -0.35141194 15
2.5344627 3.7688391 -0.23802395 14
2.5406466 3.7737663 -0.079408452 16
2.3835208 3.5685408 0.074905731 27
2.3780417 3.5563049 0.22420727 20
2.3608007 3.5265241 0.37128347 20
2.5093713 3.7427974 0.55328691 21
4.0171776 5.9849567 1.1416589 3
4.1960235 6.2443409 1.4623603 22
4.2857475 6.3682561 1.7721645 53
6.2380781 9.2587852 2.9914308 14
1.3350315 1.9703521 -0.63773018 38
1.453856 2.1433058 -0.59791994 23
1.5820312 2.3287613 -0.5472402 27
1.7585502 2.5856848 -0.49527156 25
2.0378096 2.9929228 -0.44457942 12
2.2707682 3.3300719 -0.35263211 14
2.571975 3.7675476 -0.23907068 14
2.5759587 3.7691438 -0.079687685 9
2.4308212 3.5849154 0.075603828 12
2.4039333 3.5412688 0.22431193 23
2.3719242 3.4901824 0.36919171 22
2.4829421 3.6480591 0.54183114 20
6.5537963 9.6183271 1.843424 1
4.2129598 6.1759725 1.4532013 12
4.2146764 6.1692271 1.7249248 42
6.3211055 9.2421169 3.0002306 33
1.3509443 1.9641674 -0.63876545 45
1.4632579 2.1250787 -0.59567046 40
1.5893333 2.3047309 -0.54418731 34
1.7642126 2.5554638 -0.49182999 30
2.045109 2.959028 -0.44165453 15
2.2871592 3.3043079 -0.35158628 8
2.5675004 3.7051759 -0.23624454 20
2.6808572 3.8644383 -0.082096115 1
2.4841323 3.6090393 0.076476447 13
2.3776019 3.4503913 0.21960169 27
2.3747382 3.4423769 0.36587983 20
2.5489705 3.6894317 0.55060571 18
3.1980238 4.6237059 0.89042509 1
4.2760911 6.1754637 1.4600705 12
4.5174961 6.5143757 1.830202 12
6.2158065 8.9533806 2.9205141 36
1.3613052 1.9499365 -0.63721251 29
1.4702424 2.1036308 -0.59252113 34
1.5952524 2.2791035 -0.54075271 38
1.7876779 2.5511734 -0.49339435 31
2.0429168 2.9121764 -0.43677977 17
2.2918446 3.2621765 -0.34879729 10
2.574919 3.6610239 -0.23456979 20
3.267282 4.6402621 -0.099059857 8
2.5253031 3.6145575 0.076965116 7
2.3718677 3.3911564 0.21688022 30
2.3884261 3.4110267 0.36431101 15
2.5279367 3.6049097 0.54061246 15
2.9691761 4.2294135 0.81846523 7
4.2434673 6.0378399 1.434502 27
4.5707164 6.493834 1.8333513 70
7.566731 10.738463 3.5199392 14
1.3726525 1.9372321 -0.63617724 35
1.4848936 2.0933146 -0.59252113 30
1.6179467 2.2775142 -0.54304242 30
1.8191832 2.5579486 -0.49714881 22
2.0493817 2.878438 -0.43385491 17
2.2983692 3.2233856 -0.34635693 8
2.5772076 3.6104465 -0.23247635 22
2.5636413 3.5874679 -0.076965116 4
2.4741352 3.4891789 0.074661396 26
2.3827674 3.3566003 0.21572883 23
2.3902524 3.3634121 0.36099908 23
2.554193 3.5887909 0.54085618 16
3.0227001 4.2423673 0.82503545 15
4.532908 6.3549042 1.5173131 14
4.4970021 6.2952666 1.7861115 21
7.5549917 10.564378 3.4800811 15
1.3793762 1.9181916 -0.63307142 36
1.5074416 2.0939682 -0.59567046 31
1.63151 2.262979 -0.54227924 30
1.8127192 2.5115492 -0.49057853 26
2.0740776 2.8704965 -0.43482983 19
2.3027411 3.1834517 -0.34374225 16
2.6210971 3.6182451 -0.23415108 22
2.8386817 3.9142902 -0.084399842 10
2.4739048 3.4377356 0.073928393 25
2.3921332 3.3204372 0.21447276 16
2.3647254 3.2787728 0.35367799 20
2.615217 3.6207578 0.54841208 15
3.030252 4.1907473 0.8190909 12
4.5426269 6.2753944 1.5058646 13
7.6615405 10.572348 3.0143442 22
6.3270607 8.71805 2.8863502 36
1.393873 1.9100754 -0.63358909 45
1.515126 2.0739517 -0.59297103 31
1.6549895 2.262913 -0.54495054 27
1.826272 2.4943705 -0.48963994 31
2.087024 2.8463416 -0.43336743 15
2.3225517 3.1640856 -0.34339362 17
2.6598575 3.6196334 -0.23540714 16
2.8505309 3.8734393 -0.083946079 12
2.518471 3.4498889 0.074556686 7
2.4099655 3.2976277 0.21405408 31
2.4110906 3.2943408 0.3571642 28
2.5647128 3.5003917 0.53281283 26
2.8904648 3.9406583 0.77403784 16
4.6281686 6.3004885 1.5196029 39
4.563746 6.2059751 1.7784631 19
nan nan nan nan
1.388451 1.8757002 -0.62530684 25
1.5152839 2.0448029 -0.58757222 29
1.6754262 2.2576108 -0.54647696 23
1.8389282 2.4752183 -0.48838848 22
2.0719934 2.7858784 -0.42629901 15
2.3368945 3.1386158 -0.34234774 17
2.646858 3.5497391 -0.23205765 41
2.9330513 3.9292626 -0.0855866 20
2.5163076 3.3968718 0.073788777 13
2.3782024 3.2069263 0.20923917 11
2.4002068 3.2330592 0.35228351 26
2.6163304 3.5190403 0.53841883 20
2.8778062 3.8665035 0.76340026 18
4.7823844 6.4183984 1.5558566 10
4.9810653 6.6777458 1.9233316 6
3.5678596 4.7762098 1.5974313 14
1.377149 1.8335226 -0.61443645 61
1.5365503 2.043519 -0.59027159 29
1.6813099 2.2336051 -0.54342401 47
1.8509798 2.4563324 -0.48713696 35
2.0925877 2.7729299 -0.42654276 15
2.3407357 3.0983777 -0.33973309 16
2.6456592 3.4981878 -0.22985955 16
2.6030354 3.4368432 -0.075254776 14
2.3964245 3.1894202 0.069635101 14
2.4167831 3.213011 0.21070457 22
2.4107299 3.2003105 0.3505404 27
2.6067557 3.4567728 0.5315941 12
2.900486 3.842097 0.76246166 13
nan nan nan nan
4.6724 6.1735392 1.7874613 6
nan nan nan nan
1.3860844 1.8194965 -0.61288351 38
1.5527868 2.0361123 -0.59117138 22
1.6909033 2.2140124 -0.54151595 41
1.8440859 2.4119656 -0.4808796 25
2.1053815 2.7507401 -0.42532405 20
2.3392801 3.0519159 -0.33642116 14
2.6651533 3.4732943 -0.22944085 22
2.5337896 3.298521 -0.072602011 16
2.435607 3.1948752 0.070123769 31
2.3834186 3.1230245 0.20588967 15
2.4469743 3.2028244 0.35263211 17
2.542769 3.3234007 0.51380116 28
2.9476583 3.8484142 0.76778048 19
4.7652965 6.2147498 1.5222743 16
4.7189426 6.1454082 1.7888108 2
7.2573285 9.4408731 3.1907215 1
1.4046601 1.8174181 -0.61547172 25
1.5598089 2.015975 -0.58847201 32
1.6882815 2.178875 -0.5357917 20
1.8790405 2.4224455 -0.48557264 25
2.1233163 2.7344067 -0.4250803 19
2.3434052 3.0134921 -0.3339808 14
2.706511 3.4766684 -0.23090626 7
2.861598 3.6719193 -0.081258401 7
2.4921067 3.2220848 0.071101107 25
2.4773042 3.1994836 0.21206531 15
2.4119051 3.1116526 0.34443948 20
2.5281763 3.2569551 0.50624532 26
2.9647586 3.8152621 0.7652775 30
4.8254466 6.203023 1.527617 10
7.3821211 9.4759321 2.7731969 2
7.2612839 9.3107624 3.1638043 1
1.4292341 1.8227699 -0.62064809 41
1.573845 2.0050361 -0.58847201 27
1.7216512 2.1901877 -0.54151595 27
1.8861339 2.3968494 -0.48306966 21
2.138669 2.7148383 -0.42434907 27
2.3619182 2.9939301 -0.33363217 30
2.7146244 3.4373126 -0.22954552 20
2.5262682 3.1953707 -0.071101107 16
2.4824445 3.1637044 0.070193581 15
2.4206204 3.0815904 0.20536631 12
2.3978546 3.04932 0.33938447 15
2.5975204 3.2984905 0.51550734 18
2.9986575 3.8037806 0.76715469 22
5.0547171 6.4049807 1.5860044 14
7.3780169 9.3354836 2.7471025 2
7.2446041 9.1568165 3.1286047 1
1.4443299 1.8157713 -0.62168342 44
1.5878044 1.9939998 -0.58847201 41
1.7442437 2.1873245 -0.54380566 38
1.883103 2.3589227 -0.47806379 21
2.1352632 2.6719282 -0.41996178 22
2.3952115 2.9929237 -0.33537531 19
2.7035902 3.3746333 -0.22661473 22
2.8662965 3.5738883 -0.079966925 15
2.5032256 3.144732 0.070158668 16
2.4482985 3.0724258 0.20588967 13
2.3942347 3.0013545 0.33589822 12
2.5672081 3.2135851 0.50502658 22
3.0016987 3.7534416 0.7612102 12
nan nan nan nan
7.3552408 9.1742802 2.7147095 2
7.2974715 9.0924568 3.123946 5
1.4593973 1.8086506 -0.62271863 40
1.5980129 1.9783185 -0.58712232 25
1.749594 2.162883 -0.54075271 46
1.9169294 2.3672109 -0.48244393 26
2.1613653 2.6662083 -0.42142424 16
2.391674 2.9471562 -0.33206338 19
2.7182674 3.344825 -0.22588199 31
2.7511001 3.3816066 -0.076092489 6
2.5025046 3.0991762 0.06953039 22
2.6642988 3.296015 0.22211383 11
2.4953403 3.0836921 0.34705415 10
2.5920799 3.198669 0.50551409 21
2.9705832 3.6618268 0.74681824 15
5.1139483 6.2972035 1.5768455 16
3.5858302 4.4107914 1.3123645 10
3.6309867 4.4599724 1.5410087 8
1.4719876 1.7984188 -0.62271863 35
1.608079 1.9625926 -0.58577257 39
1.7655197 2.1524429 -0.54113436 47
1.924222 2.3434222 -0.48025388 28
2.1509278 2.6157887 -0.41581824 17
2.3931973 2.9073136 -0.3294487 11
2.7282691 3.3108325 -0.22483528 16
2.8090038 3.4039621 -0.07703492 21
2.4488001 2.9907832 0.067471005 18
2.4347191 2.9704115 0.20128411 27
2.4953198 3.0400145 0.34409088 18
2.5999298 3.1640801 0.50283301 23
2.9000676 3.5255792 0.72304016 15
5.2738719 6.402277 1.6123362 10
7.4611931 9.0479441 2.7075109 34
7.4172144 8.9850245 3.1218753 33
1.4718585 1.7734911 -0.61754227 43
1.6251376 1.9560972 -0.58712232 38
1.7767369 2.1355371 -0.53998947 41
1.9278934 2.3147528 -0.4771252 22
2.1801238 2.6148088 -0.41801187 11
2.403219 2.8783011 -0.32805422 17
2.7577193 3.2993689 -0.22535865 16
2.7794945 3.3218849 -0.075603828 13
2.6599822 3.2028284 0.072671816 13
2.4387968 2.9333773 0.19992337 13
2.5631113 3.0796213 0.3505404 12
2.6473749 3.1763499 0.50770777 27
3.0764723 3.687259 0.76058447 21
7.5701189 9.0633993 2.2954323 38
7.5466876 9.0225372 2.7156093 8
7.4041123 8.8426676 3.0902996 24
1.4904236 1.7705629 -0.62013048 25
1.6186612 1.9208616 -0.57992387 30
1.7865387 2.1170785 -0.538463 34
1.9529308 2.311799 -0.47931525 18
2.2008893 2.6025569 -0.41849938 13
2.4206796 2.8584125 -0.32770559 14
2.7432315 3.2358553 -0.22232316 21
2.6680527 3.1438344 -0.071973726 25
2.4787233 2.9425375 0.067156859 19
2.4695163 2.9284947 0.20076075 13
2.5151477 2.9794402 0.34112757 10
2.6592312 3.1456637 0.50575781 20
3.0345054 3.5857742 0.7440024 10
7.6357417 9.0133286 2.2961955 25
7.6889157 9.0632505 2.7439532 22
7.3868818 8.6979952 3.0576882 15
1.5152918 1.7748065 -0.62530684 15
1.634564 1.9124771 -0.58082366 38
1.7974446 2.100081 -0.53731817 27
1.9458869 2.2711084 -0.47368363 37
2.2073724 2.5735683 -0.41630572 8
2.4224026 2.8202825 -0.32526523 16
2.7436202 3.1908784 -0.22054374 19
2.5516558 2.9644792 -0.068273813 16
2.4628348 2.8825912 0.066179529 23
2.4613411 2.8777909 0.19845797 16
2.5527337 2.981482 0.34339362 6
2.7108459 3.1616831 0.5113638 15
3.1392322 3.6574366 0.76340026 13
7.7074375 8.9702253 2.2988667 23
3.6287858 4.2173629 1.2844706 14
7.3906913 8.5803461 3.0343947 33
1.5213223 1.7568824 -0.62271863 11
1.6542579 1.9083817 -0.58307314 31
1.806914 2.0815508 -0.5357917 27
1.9629905 2.2589595 -0.47399649 45
2.210954 2.5416203 -0.41362458 11
2.4394155 2.8002975 -0.3249166 16
2.7815821 3.1897101 -0.22179982 15
2.6301529 3.0128763 -0.069809623 13
2.4986136 2.8834622 0.066598386 27
2.4604321 2.8363979 0.19678321 17
2.4768157 2.8522666 0.33049458 12
2.7041953 3.109726 0.50600159 13
3.1958177 3.67119 0.77090919 15
nan nan nan nan
3.7247663 4.2682781 1.3078655 1
7.3868599 8.4557991 3.0085127 3
1.5259011 1.7375101 -0.61961281 12
1.6546738 1.8821507 -0.57857412 28
1.8006452 2.0453084 -0.5296858 33
1.9983042 2.2674296 -0.47868952 16
2.224704 2.5216575 -0.41289338 12
2.4518242 2.7761626 -0.32404503 15
2.817013 3.1851757 -0.22284654 20
2.5782151 2.9120951 -0.067889862 30
2.4922817 2.8359067 0.065900289 27
2.437958 2.7711656 0.1934337 8
2.5282712 2.8707905 0.33467805 22
2.6798851 3.038662 0.49747071 30
3.1560023 3.5747461 0.75526565 16
3.1202929 3.530571 0.91588324 1
7.9723291 9.011076 2.7776959 2
2.8773346 3.2476659 1.1626152 12
1.5212915 1.7080603 -0.61288351 20
1.691117 1.896735 -0.58667237 23
1.8315203 2.0520453 -0.53464681 36
1.9992144 2.2375715 -0.47524795 22
2.2316666 2.4942286 -0.41094348 15
2.4605126 2.7471037 -0.32265055 10
2.8426301 3.170387 -0.22316055 18
2.5490515 2.8389714 -0.066598386 33
2.5008838 2.8069332 0.065621048 25
2.5139279 2.8186009 0.1979346 6
2.5177255 2.8188922 0.33066887 15
2.6753657 2.9922342 0.49283966 28
3.1157064 3.4810588 0.7399351 15
9.0729303 10.122608 2.642323 2
8.6675358 9.6601315 2.9963481 2
nan nan nan nan
1.5419445 1.7077032 -0.61650699 17
1.68308 1.8620498 -0.57947397 37
1.8378968 2.0304759 -0.53235716 36
1.9895856 2.1957471 -0.46930346 27
2.2419229 2.4716296 -0.40972477 13
2.4871898 2.7391434 -0.32369643 19
2.8552866 3.1401215 -0.22242783 14
2.5858159 2.8407793 -0.067052148 24
2.5552773 2.8279812 0.066528574 9
2.5630212 2.8335676 0.20023739 7
2.4753392 2.7337518 0.32265055 30
2.7881949 3.074954 0.50965762 10
5.0185795 5.5289083 1.1826447 5
8.7600565 9.6407003 2.5320356 2
2.9634809 3.2579663 1.0167788 25
7.4529023 8.182025 2.9655488 24
1.5603522 1.7040207 -0.61909521 24
1.6934048 1.847381 -0.57857412 28
1.8490193 2.0150263 -0.53159386 41
2.0084944 2.1865177 -0.47024205 17
2.2577784 2.4544578 -0.40948102 12
2.5103009 2.7261097 -0.32421938 15
2.827862 3.0677464 -0.21865964 15
2.5852396 2.800617 -0.066528574 38
2.5879734 2.8252692 0.066877626 7
2.5957463 2.8307776 0.20128411 11
2.4997544 2.7222743 0.32334781 22
2.6908426 2.9272947 0.48820862 27
3.0778003 3.3447387 0.71991152 1
3.1157787 3.3812709 0.89374936 11
3.1975627 3.4663801 1.0887631 9
3.2293167 3.4971275 1.2754604 30
1.572506 1.6928114 -0.61909521 33
1.7012728 1.8295078 -0.57677454 21
1.8476855 1.984177 -0.52701449 41
2.0002232 2.1457272 -0.4646104 21
2.2509072 2.4121137 -0.40509373 17
2.5161433 2.693517 -0.32247624 24
2.844816 3.0411005 -0.21824095 21
2.7678692 2.9557414 -0.07068225 13
2.6222305 2.8208678 0.067226671 11
2.6504436 2.8482258 0.2039009 12
2.5517635 2.7393048 0.32753128 15
2.6648343 2.8566878 0.47967777 20
4.933105 5.2827139 1.1447875 17
3.3061402 3.5367286 0.94107002 12
7.4325614 7.9426093 2.5113537 20
nan nan nan nan
1.5710392 1.6677303 -0.61391884 25
1.7073197 1.8104963 -0.57452506 28
1.8638449 1.9744086 -0.52777767 43
2.0120687 2.1291909 -0.46398467 10
2.2690554 2.3977835 -0.40533748 13
2.5198128 2.659976 -0.32055882 21
