# .PCD v0.7 - Point Cloud Data file format
VERSION 0.7
FIELDS x y z intensity
SIZE 4 4 4 4
TYPE F F F F
COUNT 1 1 1 1
WIDTH 1394
HEIGHT 1
VIEWPOINT 0 0 0 1 0 0 0
POINTS 1394
DATA ascii
3.0941908 -3.2949784 0.55499303 46
2.7205379 -2.9001198 0.62980521 4
2.8446319 -3.0355895 0.80864859 7
2.8694324 -3.0663424 0.96953917 3
nan nan nan nan
1.595757 -1.7160373 -0.62789506 12
1.7692829 -1.9046417 -0.60016948 11
1.9480171 -2.099988 -0.5567807 10
2.1831627 -2.3559511 -0.50872493 7
2.5014668 -2.7022839 -0.45213532 9
2.9231646 -3.1611545 -0.37668711 12
3.1733463 -3.4365151 -0.24514163 30
2.9761047 -3.2263033 -0.076616064 29
nan nan nan nan
3.0967274 -3.3359764 0.23854731 36
3.0129242 -3.249109 0.38766876 28
2.924098 -3.1577389 0.52842557 23
5.6700702 -6.1295533 1.3224971 5
2.9752648 -3.2197499 0.852153 3
2.8802176 -3.1201687 0.98033679 16
2.7994123 -3.0368829 1.1067102 30
1.5824323 -1.7257119 -0.62737739 12
1.7717388 -1.934191 -0.60556829 12
1.9350032 -2.1146474 -0.55716228 9
2.1644101 -2.3678405 -0.5080992 8
2.4905698 -2.7284784 -0.45359772 9
2.8902853 -3.1697073 -0.37529263 11
3.0073166 -3.301523 -0.23404641 26
3.0154047 -3.3150485 -0.078221686 19
3.1740444 -3.4626477 0.081991412 31
nan nan nan nan
3.5804033 -3.9155481 0.46419147 11
4.5091066 -4.9363713 0.820912 6
3.0184925 -3.3079894 0.70927399 25
2.8680863 -3.1475687 0.82772946 22
2.8308172 -3.109937 0.97088879 19
4.355166 -4.7896218 1.7346053 23
1.5797207 -1.7464722 -0.63100088 12
1.7559192 -1.943314 -0.6046685 12
1.9267691 -2.1353927 -0.55907035 9
2.1451821 -2.3799586 -0.50747347 7
2.4825664 -2.7571697 -0.45554763 9
2.8673108 -3.1878262 -0.37511832 3
2.9788558 -3.316494 -0.23362774 39
3.03684 -3.3846133 -0.079373546 13
3.0827477 -3.4105475 0.080246165 8
3.0798845 -3.4109685 0.24085009 6
4.3223171 -4.7920032 0.56459486 4
2.6929579 -2.9897828 0.49405837 3
2.9186912 -3.2438111 0.69112754 12
2.7245426 -3.0312264 0.79223901 22
3.0790844 -3.4292862 1.0640185 16
2.824337 -3.1499858 1.1336274 8
1.571347 -1.7617834 -0.63255376 11
1.7461985 -1.9598904 -0.60601819 11
1.9174105 -2.1543243 -0.56059688 10
2.1420579 -2.4092679 -0.51060218 7
2.4606218 -2.7714648 -0.45506018 9
2.7775626 -3.1317453 -0.36622843 22
2.9548883 -3.3351986 -0.23352307 35
2.8448575 -3.2155263 -0.074940629 35
2.95433 -3.3135376 0.077488683 51
2.9556394 -3.3185022 0.23289503 43
nan nan nan nan
nan nan nan nan
2.8519616 -3.213371 0.68049002 31
2.8192077 -3.1809368 0.82620305 41
2.7786267 -3.138458 0.96773946 40
nan nan nan nan
1.5771832 -1.7927444 -0.63980073 11
1.7392499 -1.9790497 -0.60826772 9
1.897144 -2.1617553 -0.55907035 9
2.1264882 -2.4256489 -0.51091504 7
2.4443159 -2.7911363 -0.45554763 11
2.747762 -3.1420612 -0.36518255 31
2.867146 -3.282043 -0.22839414 5
2.7558489 -3.1579757 -0.073160492 45
2.8756716 -3.2710052 0.076022685 22
2.8678212 -3.2655215 0.22776611 34
2.8840878 -3.2875142 0.38261372 31
2.8228381 -3.2222319 0.5259881 20
2.7943344 -3.1930661 0.67204249 18
2.6127141 -2.9886863 0.7716316 22
2.7271731 -3.1240144 0.95739174 30
2.5520918 -2.9265487 1.0404526 28
1.5557683 -1.7934963 -0.63617724 7
1.7279434 -1.9940892 -0.60916752 13
1.8845752 -2.1779163 -0.55983365 9
2.1120858 -2.443424 -0.51154077 6
2.428663 -2.8126402 -0.45627886 6
2.7478776 -3.1868186 -0.36814582 28
2.8272188 -3.2823067 -0.22703341 22
2.7350395 -3.1786542 -0.07319539 13
2.852766 -3.2910008 0.076022685 35
2.7704306 -3.1994007 0.22179982 56
2.7411492 -3.168937 0.36657706 41
nan nan nan nan
2.6403444 -3.059948 0.64012986 43
2.5866585 -3.0009053 0.77010518 22
2.6366475 -3.0632219 0.93309706 31
2.5278203 -2.9398997 1.0388998 35
1.5419537 -1.8028456 -0.63565958 7
1.7228411 -2.016475 -0.61231679 13
1.8756961 -2.1984878 -0.56174171 9
2.0962577 -2.4596128 -0.51185364 7
2.4192624 -2.8416188 -0.45822877 12
2.7087865 -3.1861916 -0.36587983 16
2.7770844 -3.269995 -0.22483528 33
2.6700912 -3.1473498 -0.072043538 36
2.7478695 -3.2150683 0.073823676 23
2.9231021 -3.4237223 0.23593052 19
2.7163737 -3.1849642 0.36622843 6
2.6643085 -3.1283386 0.50453913 7
2.6022773 -3.0587468 0.63606256 13
2.568188 -3.0218821 0.77086836 12
2.5080175 -2.955261 0.89485532 34
nan nan nan nan
1.533066 -1.817997 -0.63721251 8
1.7036997 -2.0224919 -0.6105172 13
1.8628294 -2.2145336 -0.56250495 9
2.0803061 -2.4756999 -0.5121665 5
2.4210618 -2.8842864 -0.46237233 9
2.6020041 -3.1042471 -0.35437521 31
2.6823847 -3.2035482 -0.21897365 31
2.5685091 -3.0708132 -0.069879435 34
2.6531966 -3.1485407 0.071869008 10
2.6521757 -3.1506755 0.2158335 8
3.3377774 -3.9693587 0.45373279 30
2.6564455 -3.1635849 0.50722027 1
2.4221747 -2.8876588 0.59695399 2
2.439852 -2.911828 0.73843086 28
2.5586057 -3.0578883 0.92049974 13
3.3327131 -3.9872944 1.3924465 17
1.526512 -1.8360828 -0.63980073 11
1.6882937 -2.0328372 -0.61006731 12
1.8535905 -2.2350404 -0.56441307 10
2.0717933 -2.5008111 -0.51435655 7
2.403398 -2.904177 -0.46285981 9
2.6430175 -3.1971309 -0.3629165 26
2.6472392 -3.206794 -0.21792693 36
2.561003 -3.1056404 -0.070263386 39
3.1895838 -3.8391447 0.087122411 15
2.7972081 -3.3704498 0.22954552 34
2.5991583 -3.1351523 0.35629267 10
3.3153381 -4.0047083 0.63835168 5
2.427134 -2.9349437 0.60321134 1
2.4007087 -2.9060864 0.73270655 10
3.4456606 -4.1754632 1.2498281 1
4.2741208 -5.1867666 1.8008629 61
1.5185553 -1.8526716 -0.64187121 9
1.6839372 -2.0566366 -0.61366653 12
1.8259046 -2.2324085 -0.56059688 12
2.060972 -2.5225039 -0.51592094 5
2.3818099 -2.9193468 -0.46261609 8
2.5942001 -3.1830714 -0.35925597 38
2.7211843 -3.3424523 -0.22588199 50
2.6401742 -3.247575 -0.073055774 15
2.5220845 -3.078095 0.069460578 21
nan nan nan nan
nan nan nan nan
4.2182846 -5.1666026 0.81896204 8
2.3746393 -2.9115956 0.5950768 55
2.4249938 -2.9775779 0.74644482 30
2.6133568 -3.2122967 0.95604199 15
4.1814532 -5.145277 1.776534 40
1.502266 -1.8584578 -0.64031839 6
1.6711235 -2.069567 -0.61411637 11
1.8213658 -2.2588563 -0.56403142 10
2.047029 -2.5414457 -0.51685953 8
2.3738124 -2.9513721 -0.46505347 8
2.6006169 -3.2368281 -0.36326513 26
2.6340265 -3.281929 -0.22054374 36
2.6411982 -3.2955749 -0.073718965 37
2.50179 -3.0971828 0.069495484 29
2.4682753 -3.0589671 0.20599434 11
nan nan nan nan
2.3686192 -2.9428113 0.46383476 22
2.3653953 -2.9419582 0.59789258 11
2.3144221 -2.8826792 0.71858674 7
3.3662989 -4.1973214 1.2421799 40
4.1792512 -5.2165585 1.7910279 16
1.481707 -1.8600938 -0.63721251 4
1.6623383 -2.089097 -0.61636597 12
1.810438 -2.2776642 -0.5655579 12
2.0214219 -2.5467453 -0.51498228 7
2.3309507 -2.9398735 -0.46066615 12
2.5556901 -3.2267914 -0.36012751 35
2.6216252 -3.3147929 -0.22148579 31
2.5945735 -3.2841208 -0.073055774 30
2.4788618 -3.1130087 0.069460578 9
2.4326494 -3.059355 0.20484295 18
nan nan nan nan
2.8464923 -3.5875192 0.56230521 36
2.3332417 -2.944874 0.5950768 26
3.2592113 -4.1180038 1.0208282 7
3.4178894 -4.3231425 1.2723233 35
4.0963278 -5.1887116 1.7713577 2
1.4770366 -1.8810287 -0.64083594 7
1.6525241 -2.1067846 -0.61816555 10
1.7904617 -2.2859242 -0.56441307 12
2.0084622 -2.5670183 -0.5162338 7
2.3421531 -2.9967403 -0.46700338 8
2.5472441 -3.2638447 -0.36221924 28
2.5971918 -3.3314388 -0.22138111 28
2.598613 -3.3368638 -0.073823676 30
2.4688663 -3.146399 0.069809623 33
2.3779647 -3.0338216 0.20201682 16
2.3791802 -3.0386474 0.33764133 28
2.3769112 -3.0401194 0.47382805 31
2.3308644 -2.9844439 0.59976977 12
2.7678647 -3.5478075 0.87466848 37
3.373693 -4.3305793 1.2673743 31
2.4761043 -3.1818414 1.0803107 4
1.4756932 -1.9065713 -0.64601237 18
1.6318158 -2.1105614 -0.61591601 10
1.7828578 -2.3092463 -0.56708437 10
2.0037622 -2.5981841 -0.51967537 6
2.3235974 -3.0161638 -0.46749085 5
2.519537 -3.2752318 -0.36152202 31
2.5677862 -3.3415711 -0.22085775 38
2.6178713 -3.4104431 -0.075045347 37
2.4260418 -3.1366682 0.069216244 28
2.5875156 -3.3490615 0.22179982 49
2.36643 -3.0662241 0.33886153 21
2.3083713 -2.9953175 0.46432224 28
2.2557478 -2.9302061 0.58569074 9
2.7382419 -3.5608191 0.873142 27
2.246721 -2.925869 0.85166478 11
nan nan nan nan
1.4646902 -1.9198987 -0.64704764 23
1.6241289 -2.1312022 -0.61861545 10
1.7286483 -2.2716417 -0.55487263 7
1.7297573 -2.2755702 -0.45272139 3
2.2940812 -3.021245 -0.46578467 4
2.5182784 -3.3213184 -0.36465961 31
2.527513 -3.3371265 -0.21939236 29
2.5626285 -3.3871732 -0.074137822 30
2.6186705 -3.4350083 0.075394399 46
nan nan nan nan
2.5632987 -3.369688 0.37041187 56
2.3774593 -3.1299176 0.48260266 11
nan nan nan nan
nan nan nan nan
nan nan nan nan
2.1378474 -2.8277667 0.94986594 23
1.4593785 -1.9408859 -0.65067112 27
1.6115514 -2.1456048 -0.61951524 10
1.7221711 -2.2962191 -0.55792552 9
1.7090911 -2.2812672 -0.45146993 4
1.7032131 -2.2759037 -0.34903383 3
2.4342046 -3.2574227 -0.35576975 21
2.6045113 -3.4891336 -0.22818479 16
2.6453056 -3.5476565 -0.077244349 17
2.6042359 -3.465996 0.07567364 33
2.4349983 -3.2442925 0.21258868 28
2.5361264 -3.3827188 0.36988899 25
2.3959994 -3.2004688 0.49088979 23
2.4878941 -3.3268466 0.65796345 43
2.2065334 -2.9538312 0.71667862 43
2.1485579 -2.8804123 0.82961953 26
2.6213083 -3.5180359 1.1755562 35
1.4461335 -1.9507746 -0.65067112 27
1.6038677 -2.1659212 -0.62221462 10
1.7111701 -2.3142028 -0.559452 10
1.6946973 -2.2944365 -0.45178279 6
1.6912178 -2.2922363 -0.34976503 3
1.6792834 -2.2793901 -0.24769662 3
2.540452 -3.4520881 -0.22462595 7
2.545294 -3.4624641 -0.075010449 6
2.6186733 -3.5350609 0.076790586 8
2.4104829 -3.2575805 0.21237932 26
2.2359207 -3.0249844 0.32910007 2
2.4720018 -3.3492687 0.51112008 41
2.3198352 -3.1465478 0.61916769 33
2.1677494 -2.9434888 0.71057272 31
2.1473742 -2.9200895 0.83681798 50
3.0090268 -4.096293 1.3619058 12
1.4358983 -1.9655027 -0.65222406 37
1.5818154 -2.1676204 -0.61951524 10
1.6880352 -2.3165722 -0.55716228 7
1.6798004 -2.3078089 -0.45209566 4
1.688015 -2.3216486 -0.35244617 7
1.6563064 -2.2813842 -0.24665076 3
1.6579843 -2.2862122 -0.1480061 6
1.6893095 -2.331975 -0.050262932 1
2.2508237 -3.0832574 0.066633284 16
2.5230117 -3.4599123 0.2244166 24
3.1649313 -4.3449812 0.47029239 9
2.6820893 -3.6875172 0.5598678 38
nan nan nan nan
2.1483002 -2.9601395 0.71095431 25
2.2881711 -3.1575027 0.90025419 15
2.0956514 -2.8950286 0.95763052 10
1.4221416 -1.9754792 -0.65222406 45
1.5450274 -2.1485498 -0.6109671 9
1.6706766 -2.3267057 -0.5567807 9
1.6613455 -2.3162694 -0.45146993 4
1.6671413 -2.3269215 -0.35147122 3
1.6546535 -2.3120482 -0.24874248 4
1.6396607 -2.2944813 -0.14779675 5
1.61606 -2.2639606 -0.048552595 8
2.3880589 -3.3196661 0.07138034 22
2.468493 -3.4352715 0.22169513 31
2.2794399 -3.175684 0.34199914 22
2.6597495 -3.7109921 0.56059903 13
nan nan nan nan
nan nan nan nan
2.1091743 -2.9525907 0.83771777 30
3.3116481 -4.6427598 1.5280677 1
1.4161396 -1.996389 -0.65584749 29
1.5254835 -2.1529238 -0.60916752 9
1.685424 -2.3812907 -0.56708437 14
1.6455407 -2.3275242 -0.45146993 4
1.6382626 -2.3206651 -0.34879011 3
1.6453614 -2.3333127 -0.24978836 3
1.6332059 -2.3186519 -0.14863414 6
1.6197724 -2.3029935 -0.049145978 7
1.6170365 -2.2804451 0.048796929 6
nan nan nan nan
2.2491608 -3.1801331 0.34077895 23
2.1682491 -3.0691376 0.46139738 15
nan nan nan nan
2.3736398 -3.368592 0.80101627 23
2.0772932 -2.9513075 0.83321875 27
2.0155368 -2.8667548 0.93899554 18
1.3991971 -2.0012324 -0.65429455 45
1.5230676 -2.1808317 -0.61411637 11
1.6676354 -2.3913887 -0.56670272 24
1.9092613 -2.7409379 -0.52906144 13
1.6303648 -2.3431685 -0.35049626 5
1.6131165 -2.3218353 -0.24734798 4
1.6169791 -2.3299973 -0.14863414 5
1.5983627 -2.3057485 -0.048971456 10
1.5942051 -2.2818427 0.048587501 5
1.5796391 -2.2635176 0.1446566 3
nan nan nan nan
2.0503747 -2.9457123 0.44067958 25
2.5891016 -3.7238414 0.71834713 57
2.3517756 -3.3862829 0.80139786 23
nan nan nan nan
nan nan nan nan
1.3873835 -2.0141337 -0.65532982 29
1.5111192 -2.1962278 -0.61546612 10
1.6575702 -2.4126816 -0.56899244 22
1.8867266 -2.7493138 -0.52812284 8
2.1886199 -3.192811 -0.47529048 15
1.6013693 -2.3396168 -0.24804525 3
1.5939099 -2.3313365 -0.1480061 5
1.5732048 -2.3036399 -0.048692215 5
1.5884401 -2.3077414 0.048901644 6
1.5694562 -2.2827191 0.14517996 5
1.5587972 -2.2697613 0.24089848 9
nan nan nan nan
nan nan nan nan
2.1063561 -3.0785601 0.72507423 4
2.0622671 -3.0186415 0.84401637 48
5.3597002 -7.8540816 2.5478148 42
1.3765427 -2.0285659 -0.65688276 27
1.497937 -2.2099502 -0.61636597 10
1.6571923 -2.4485831 -0.57471669 10
1.8630617 -2.7558727 -0.52687138 9
2.2018259 -3.2606568 -0.48309013 15
2.3078799 -3.4228616 -0.36117339 47
1.5764798 -2.3407505 -0.14790143 1
1.5559678 -2.3129075 -0.048657309 7
1.5689237 -2.3138096 0.048796929 6
1.5669218 -2.3134639 0.14643602 6
1.5585437 -2.3036909 0.24333882 7
1.5278976 -2.2617936 0.33514073 6
1.5413392 -2.2842689 0.43645221 6
nan nan nan nan
2.2859495 -3.3967268 0.94524437 18
2.237431 -3.3283939 1.0746168 2
1.3773773 -2.060612 -0.66412973 27
1.4803079 -2.2171123 -0.61546612 12
1.6498588 -2.4747944 -0.57815129 10
1.8591049 -2.7918305 -0.53125149 8
2.1812074 -3.2792547 -0.48357758 12
2.3092806 -3.4770632 -0.36518255 24
2.3716168 -3.5749824 -0.22483528 33
2.9326572 -4.4257245 -0.092672281 6
1.5438467 -2.311403 0.048517693 5
1.5341063 -2.2994254 0.14486594 3
1.5446328 -2.3178315 0.24368747 9
1.5285655 -2.297195 0.33879682 8
1.5253544 -2.2949739 0.43645221 6
1.5093699 -2.2735054 0.53044903 7
nan nan nan nan
2.2376041 -3.3793693 1.0860047 50
1.3650825 -2.0734046 -0.66516501 34
1.4669353 -2.230649 -0.61636597 9
1.6293087 -2.481329 -0.57700646 10
1.8417358 -2.8080449 -0.53187722 9
2.1745784 -3.3193099 -0.48723367 11
2.3471184 -3.5881391 -0.37511832 65
2.4438298 -3.7402599 -0.23415108 30
2.6186235 -4.0123668 -0.083631933 1
1.5309696 -2.3271363 0.048622403 6
1.5147252 -2.3050718 0.14455192 5
1.5251341 -2.3235617 0.24316452 6
1.5168434 -2.3144517 0.33977175 6
1.5103774 -2.3072195 0.43676507 7
1.5052798 -2.3020618 0.53464681 5
1.4765755 -2.2616093 0.62356436 7
nan nan nan nan
1.3453192 -2.0747793 -0.66257679 7
1.467217 -2.2653706 -0.62311447 7
1.6119461 -2.4926431 -0.57700646 10
1.8328054 -2.8374271 -0.53500593 8
2.1621149 -3.3510904 -0.48967105 15
2.3079841 -3.5826633 -0.37285227 48
2.5732882 -3.9990895 -0.24922384 21
2.5602746 -3.9834478 -0.082654595 7
2.355212 -3.635036 0.075603828 32
1.4920852 -2.3055301 0.14392389 1
1.4991407 -2.3190932 0.24159572 8
1.488807 -2.306638 0.33709061 6
1.4974445 -2.3226883 0.43770367 5
1.4976753 -2.3257196 0.53769976 7
1.4670744 -2.2816975 0.6262638 5
1.4458679 -2.2513063 0.71692878 5
1.3360001 -2.092262 -0.66516501 25
1.4534621 -2.2788444 -0.62401426 7
1.6050506 -2.5203958 -0.58082259 10
1.8129519 -2.8501534 -0.53500593 8
2.1429253 -3.3728051 -0.490646 13
2.2978582 -3.6222427 -0.37529263 33
2.300504 -3.6306145 -0.22525398 33
2.4896257 -3.9336367 -0.081258401 35
2.288904 -3.5873301 0.074277438 20
2.572989 -4.0372281 0.2508986 43
2.1291478 -3.3446684 0.34687987 36
1.4747972 -2.3203263 0.33757812 6
1.4727226 -2.3197441 0.43520072 5
1.4782481 -2.3311446 0.53655493 4
1.4667463 -2.316581 0.63301229 9
1.4425066 -2.2809381 0.72314042 7
1.3213608 -2.1015379 -0.66516501 23
1.4385537 -2.290586 -0.62446415 9
1.5936742 -2.5415194 -0.58311236 10
1.8013985 -2.8761337 -0.5375089 8
2.1098518 -3.3725371 -0.4884524 13
2.275681 -3.6432655 -0.37581557 32
2.2708731 -3.6398079 -0.22483528 41
2.5361352 -4.0697207 -0.083701737 28
2.1967833 -3.4965482 0.072078437 33
nan nan nan nan
2.0443726 -3.2615371 0.33676979 47
2.2252293 -3.5555856 0.51501989 55
1.4627744 -2.3400195 0.43707794 6
1.4463412 -2.3164284 0.53083062 5
1.4443525 -2.3168418 0.63031286 6
1.4296111 -2.2958729 0.72469336 9
1.3107249 -2.1172817 -0.66723549 10
1.4215025 -2.2989159 -0.62401426 14
1.5789862 -2.5575943 -0.58425713 11
1.7812755 -2.8886397 -0.5375089 11
2.1008301 -3.4108474 -0.49186471 13
2.2894573 -3.7214592 -0.38226506 20
2.2757218 -3.7049265 -0.22787078 24
2.5547204 -4.1640286 -0.085272454 26
2.1870472 -3.5356076 0.072567105 36
2.6675413 -4.317431 0.26597136 6
2.0163209 -3.2672524 0.33589822 45
2.0118699 -3.2651379 0.47090316 34
2.1473434 -3.4890921 0.64889026 33
1.4383593 -2.3398495 0.53388357 3
1.4122341 -2.3000488 0.62311447 6
1.4064806 -2.2942684 0.72106987 4
1.3089812 -2.147826 -0.6739648 25
1.4114983 -2.3187711 -0.62671363 10
1.5595009 -2.5649281 -0.58349395 11
1.760547 -2.8990092 -0.53719604 4
2.0450609 -3.3728101 -0.48430881 13
2.2438107 -3.7049716 -0.37895316 40
2.2225401 -3.6741898 -0.22504464 15
2.5431623 -4.2108617 -0.08586584 20
2.1577289 -3.5418739 0.072392583 40
2.1729736 -3.5711048 0.21907835 19
nan nan nan nan
2.0390294 -3.3602166 0.48260266 33
2.1194489 -3.4968708 0.6476388 34
2.7159081 -4.4880314 1.0196834 30
5.1490946 -8.5189333 2.2981002 2
1.3908316 -2.3037887 0.72106987 7
1.2933372 -2.1550298 -0.67344719 29
1.4057018 -2.3450396 -0.63121271 6
1.5445808 -2.5808067 -0.58463877 10
1.7504008 -2.9281845 -0.54032475 6
2.0505497 -3.4343753 -0.49113351 13
2.2511957 -3.7749174 -0.38453114 22
2.1815083 -3.6638746 -0.22347455 50
2.4837773 -4.1765127 -0.084818691 15
2.1298645 -3.5517063 0.072287865 36
2.6908884 -4.4925866 0.2744498 49
2.4211473 -4.0470443 0.41259527 27
1.9381579 -3.2448483 0.46407849 25
nan nan nan nan
1.9174943 -3.2179036 0.72812718 69
5.1228824 -8.6073723 2.3124971 2
1.913547 -3.2202189 1.0037004 3
1.2782608 -2.1640065 -0.67344719 18
1.3932571 -2.3615096 -0.63301229 14
1.531962 -2.5997176 -0.5865469 10
1.7234145 -2.9281144 -0.53813463 9
2.0436206 -3.4777021 -0.49527705 9
2.176378 -3.7080634 -0.37616417 32
2.2736886 -3.878509 -0.23561651 38
2.3979933 -4.097105 -0.082864024 36
2.2012117 -3.7279835 0.075568922 11
2.53951 -4.3060751 0.26199383 16
2.3190382 -3.9385169 0.39987054 20
1.9009316 -3.2322989 0.4604224 28
1.9099531 -3.2515345 0.59726685 20
2.0042324 -3.4174974 0.77010518 12
2.0319617 -3.468941 0.92814815 12
nan nan nan nan
1.2625302 -2.1709867 -0.67292953 20
1.3712779 -2.3608277 -0.63031286 14
1.5196847 -2.6205394 -0.58883661 11
1.7108514 -2.9537492 -0.54063755 15
2.0179138 -3.4880958 -0.4947896 25
2.1743543 -3.7645741 -0.38034767 50
2.25454 -3.908128 -0.23645388 32
2.3081529 -4.0059075 -0.080699928 17
2.7397625 -4.714951 0.095185429 22
2.0853076 -3.5930064 0.2177176 46
2.3371398 -4.0317779 0.40771458 18
1.8544552 -3.2042568 0.45457271 34
1.8002117 -3.114291 0.56973439 3
1.9966297 -3.4582646 0.77621108 11
1.7167101 -2.9782288 0.79362738 27
nan nan nan nan
1.2550193 -2.1931617 -0.67707068 10
1.3547629 -2.3703434 -0.63031286 7
1.505245 -2.6379054 -0.59036303 12
1.7029042 -2.9879324 -0.54470485 26
1.9895848 -3.4951973 -0.49381462 16
2.1460507 -3.7761974 -0.37999901 36
2.2646668 -3.9897764 -0.24043141 30
2.5385196 -4.4776955 -0.089844987 22
2.3365448 -4.0864496 0.082165927 4
2.079982 -3.6421642 0.21981104 31
2.3079491 -4.0462646 0.40754023 22
1.8870505 -3.313725 0.46822205 27
1.8096778 -3.1817288 0.57974619 28
1.7969164 -3.1631446 0.70713818 54
1.6804945 -2.9630194 0.78642893 8
1.8548262 -3.2743928 1.0083591 3
1.2510508 -2.2220707 -0.68328232 20
1.3486888 -2.3984282 -0.63526183 5
1.4848703 -2.6449258 -0.58959985 13
1.6800711 -2.9963019 -0.54407912 16
2.0000541 -3.5713532 -0.50258923 9
2.2370114 -3.9993813 -0.40091643 14
2.2357838 -4.0037451 -0.24032672 30
2.5062232 -4.4935617 -0.089810088 38
1.9765701 -3.5135796 0.070368104 11
2.0124364 -3.581723 0.21531016 34
2.3176715 -4.1300416 0.41433838 8
1.9104432 -3.4099452 0.47992152 7
1.7690934 -3.1615322 0.5738017 50
1.7632961 -3.1550469 0.70255876 24
1.9138892 -3.4287159 0.90655279 21
1.9635794 -3.5235128 1.0808283 45
1.2298913 -2.2206106 -0.68017644 23
1.3337983 -2.4111958 -0.63616163 9
1.4677821 -2.6566904 -0.58998144 11
1.6644092 -3.0163157 -0.54564345 17
1.9712412 -3.5782745 -0.50161427 15
2.0937817 -3.8054278 -0.37999901 40
2.2277176 -4.0538788 -0.24242018 18
2.4680586 -4.4986768 -0.089565754 18
1.9739164 -3.5654411 0.071136013 11
2.2615178 -4.0899811 0.24493231 6
1.9508086 -3.5338833 0.35315505 46
1.7942189 -3.2542474 0.45627886 1
1.9914634 -3.6164756 0.65389615 25
1.6882621 -3.0709369 0.68118817 19
2.5633309 -4.6684709 1.2295825 12
1.93955 -3.5367966 1.0808283 17
1.2128989 -2.225538 -0.67914116 15
1.3145602 -2.4150839 -0.63481188 6
1.4520112 -2.6720474 -0.59112626 10
1.6621561 -3.0625849 -0.55190086 15
1.9537779 -3.6059117 -0.50356412 9
2.0709572 -3.826961 -0.38069627 48
2.1167433 -3.9164686 -0.23331371 63
2.3169465 -4.294055 -0.085167743 20
2.2444799 -4.1218004 0.0819216 37
2.5907476 -4.7636299 0.28418428 7
2.1530452 -3.9637661 0.39464122 22
1.835804 -3.3853559 0.47285309 14
1.7469728 -3.2255738 0.58099771 24
1.6546428 -3.0601978 0.67622709 22
1.7121192 -3.1704648 0.83186907 8
1.8166869 -3.3683178 1.0254411 5
1.2033284 -2.2460804 -0.68276465 19
1.302761 -2.4347382 -0.63751131 6
1.4416496 -2.6977026 -0.59456086 10
1.6318303 -3.0587151 -0.54908502 16
1.9518932 -3.6632614 -0.50965762 12
2.0572937 -3.8659501 -0.38313666 44
2.0858524 -3.9262238 -0.2329997 37
2.4068811 -4.5362306 -0.089635558 37
2.2203696 -4.1461835 0.082096115 34
2.2467895 -4.2025647 0.24974722 1
1.9360002 -3.6258054 0.3596046 23
2.1026254 -3.9428351 0.54865587 11
1.7479821 -3.2833276 0.58913231 46
1.6442988 -3.0924759 0.68080652 28
1.6945134 -3.1909461 0.83411855 27
nan nan nan nan
1.1912204 -2.2612631 -0.68483526 16
1.2875462 -2.4472229 -0.6384111 7
1.4296117 -2.7218547 -0.59761381 10
1.6040131 -3.0577874 -0.54689491 13
1.92563 -3.677135 -0.50965762 12
2.0683582 -3.9547231 -0.39045769 55
2.1157236 -4.0504489 -0.23948936 20
2.0840368 -3.996582 -0.078675449 19
2.0704937 -3.9336946 0.077593401 12
1.9897077 -3.7850184 0.22410259 11
1.9004524 -3.6198285 0.35768715 52
nan nan nan nan
1.8816708 -3.5947189 0.6426329 22
1.6530424 -3.1633232 0.69378155 13
1.7888494 -3.4275789 0.89260584 37
2.2278531 -4.2742 1.2915071 4
1.1732324 -2.2662983 -0.68379998 33
1.2485218 -2.4148283 -0.62761348 11
1.4033691 -2.7178135 -0.59456086 13
1.5956674 -3.0955248 -0.551588 16
1.8790139 -3.6498954 -0.50405163 13
2.0898948 -4.0647502 -0.39987054 19
2.0766535 -4.045939 -0.23833798 30
2.0177724 -3.9362941 -0.07720945 37
2.4638922 -4.7614632 0.093579806 6
3.5731468 -6.9169188 0.40801117 2
1.8845495 -3.652812 0.3596046 52
2.103049 -4.0815721 0.56376767 1
nan nan nan nan
1.6766703 -3.2638481 0.71324408 13
1.7364111 -3.3845005 0.87820899 13
2.2297943 -4.353652 1.3106596 19
1.1643133 -2.2860796 -0.68742341 23
1.2598672 -2.4769013 -0.64156049 10
1.3892813 -2.7360554 -0.59646893 11
1.5867169 -3.1289427 -0.5556553 15
1.8655285 -3.6835282 -0.50697654 16
1.9972452 -3.948734 -0.38714582 34
2.062377 -4.0845833 -0.23980337 22
1.9988247 -3.9638739 -0.077488683 21
1.8763963 -3.6874061 0.072218053 13
2.0649195 -4.0631447 0.23886132 9
1.8936462 -3.7309666 0.36605412 42
2.301312 -4.542026 0.62518978 15
1.6847683 -3.3294969 0.5910095 5
1.6496737 -3.2643831 0.71095431 10
1.7112923 -3.390723 0.87685931 41
1.703676 -3.3814988 1.0145707 37
1.1440016 -2.2855148 -0.68483526 18
1.2373164 -2.475178 -0.63886106 16
1.387287 -2.7788222 -0.60371965 11
1.5812472 -3.1714916 -0.56128693 15
1.8273839 -3.671582 -0.50356412 7
1.9651951 -3.95366 -0.38627425 48
1.9412812 -3.9106848 -0.22881283 61
1.9160542 -3.866642 -0.07532458 35
1.9657825 -3.929002 0.076685868 18
1.849741 -3.7019126 0.21688022 46
nan nan nan nan
1.8870839 -3.7882156 0.51965094 3
1.8855524 -3.790112 0.67047822 7
nan nan nan nan
1.7377993 -3.5038447 0.90295362 9
1.5631475 -3.1558523 0.9436543 26
1.1352417 -2.3071158 -0.68897635 27
1.2341913 -2.5115263 -0.64605951 19
1.368718 -2.7902024 -0.6041013 21
1.542556 -3.1487484 -0.55534244 17
1.8276495 -3.735646 -0.51063257 10
1.970771 -4.0353141 -0.39289808 55
2.0154948 -4.1323771 -0.24095476 22
1.9439822 -3.9910562 -0.077488683 37
1.9797715 -4.0269742 0.078326404 12
1.8194505 -3.7057719 0.21635687 17
2.3841064 -4.8622699 0.47377861 11
1.8457555 -3.7709863 0.51550734 1
1.8694569 -3.8244793 0.67423266 3
1.6045086 -3.286818 0.71095431 11
1.825979 -3.7471306 0.96234071 12
1.5613663 -3.2083778 0.95607764 3
1.1283563 -2.3341167 -0.69467032 27
1.2208641 -2.528856 -0.64830899 21
1.341535 -2.7837722 -0.60066676 20
1.5488056 -3.2181795 -0.56566709 15
1.7869067 -3.7178986 -0.50648904 25
1.9218671 -4.0058618 -0.38871458 26
1.9667475 -4.1049194 -0.23854731 24
2.0861018 -4.3598876 -0.084364928 10
1.8498542 -3.8300185 0.07424254 10
1.971414 -4.0871639 0.23781461 22
2.3232999 -4.8231506 0.46837494 24
1.7264794 -3.5905664 0.4891836 1
1.7640435 -3.6736121 0.64544868 13
1.606142 -3.3492758 0.72202128 3
3.0711439 -6.4157186 1.6421428 14
1.6464128 -3.4440384 1.0228529 46
1.1078905 -2.3332119 -0.69208211 22
1.2056844 -2.5425999 -0.64965874 32
1.3321471 -2.8143642 -0.60524619 16
1.5220797 -3.2199845 -0.56410277 23
1.7727714 -3.7554145 -0.50990134 18
1.9166446 -4.0657072 -0.39324668 48
1.9397436 -4.1221638 -0.23875666 26
1.931443 -4.1101108 -0.079268835 35
1.8547843 -3.9096875 0.075534016 50
1.9223093 -4.0575089 0.23530249 9
1.7834288 -3.7694666 0.36483395 8
1.7903807 -3.7910049 0.51477611 18
nan nan nan nan
2.0704193 -4.3958817 0.94450456 56
1.9358792 -4.1158171 1.0500716 8
1.6642011 -3.5446327 1.0492525 6
1.0874925 -2.3321352 -0.68949395 19
1.1879042 -2.5509553 -0.64965874 27
1.3154434 -2.828707 -0.60639101 21
1.5175995 -3.267894 -0.57067299 16
1.7698865 -3.8181276 -0.51672608 9
1.9216933 -4.1513114 -0.40021914 14
1.8479468 -3.9974899 -0.2308016 35
1.9496213 -4.2251749 -0.081223503 12
1.928659 -4.137908 0.079687685 12
1.8744192 -4.0270424 0.23279037 13
1.7461559 -3.7583356 0.3625679 15
1.6860001 -3.633837 0.49186471 3
1.6982771 -3.665323 0.63981706 22
5.028738 -10.873219 2.3286331 10
2.0288451 -4.392837 1.117107 14
1.6133349 -3.497988 1.0321704 18
1.0732021 -2.3429961 -0.69052929 24
1.1615965 -2.5394881 -0.64470977 15
1.3038172 -2.8556807 -0.6102072 26
1.4873729 -3.2622325 -0.56785715 16
1.7323408 -3.8047934 -0.51331371 13
1.8291919 -4.0249586 -0.38679719 12
1.9347236 -4.2630968 -0.24535099 18
1.8977036 -4.1873488 -0.080246165 12
1.9080456 -4.1694551 0.080036737 34
1.6802294 -3.6767178 0.21185598 35
1.722188 -3.7737589 0.3629165 22
1.6498924 -3.6220341 0.48869613 47
1.7454418 -3.8371196 0.66766238 55
1.6417934 -3.6142821 0.7716316 7
1.6867007 -3.7200365 0.94299495 10
nan nan nan nan
1.0647411 -2.3680511 -0.69570565 15
1.1526197 -2.5670912 -0.64965874 22
1.2918781 -2.8826292 -0.61402339 20
1.4451958 -3.2292638 -0.56034833 23
1.7227447 -3.8548536 -0.5184322 13
1.8067293 -4.0503674 -0.38801736 24
1.8529037 -4.1597352 -0.23865199 22
1.8594849 -4.180397 -0.079862215 21
1.9354297 -4.3085375 0.082445174 27
2.1678791 -4.8327699 0.27758995 10
1.642858 -3.6675014 0.35158628 18
1.6415819 -3.6715202 0.49381462 11
nan nan nan nan
1.6772803 -3.7619317 0.80063456 45
1.7129815 -3.8492274 0.97268844 15
2.2609944 -5.0878325 1.4918331 3
1.0536425 -2.3877983 -0.69932908 12
1.1315268 -2.5679421 -0.6478591 10
1.2946434 -2.9436944 -0.6250903 15
1.4289711 -3.2537436 -0.56285131 33
1.6949935 -3.8649685 -0.51818854 16
1.879073 -4.2928567 -0.4099806 20
1.8294176 -4.18538 -0.2393847 24
1.7726595 -4.0613203 -0.077349067 14
1.691542 -3.8370521 0.07319539 27
1.7647257 -4.0087466 0.22954552 24
1.6011781 -3.6424022 0.34810004 28
1.5656619 -3.5683689 0.47845906 21
2.2410634 -5.1149831 0.8844806 6
1.653338 -3.7789452 0.80177945 17
nan nan nan nan
2.1142261 -4.848495 1.4172932 17
1.0423199 -2.4075055 -0.70295256 11
1.1290385 -2.6115537 -0.65685713 11
1.2725056 -2.9490557 -0.62432706 20
1.4116929 -3.2763391 -0.56504136 44
1.666401 -3.8730607 -0.51770103 19
1.6658814 -3.8793116 -0.36936605 24
1.7733912 -4.1356382 -0.23582584 12
1.6387885 -3.8272688 -0.072671816 37
1.6821778 -3.8891456 0.073963299 17
1.6218675 -3.7551045 0.2143681 8
1.5891244 -3.6845932 0.35106334 32
1.5603337 -3.6247954 0.48455253 34
1.65924 -3.8601277 0.66547227 1
1.6199466 -3.7741587 0.79834485 13
1.7135546 -3.9999504 1.0046314 4
1.9633169 -4.5896077 1.3375769 16
1.0232215 -2.4093893 -0.70139962 14
1.1168653 -2.6337247 -0.66045636 12
1.2472951 -2.9470196 -0.62203735 12
1.4156997 -3.3497992 -0.57599175 15
1.6493553 -3.9083753 -0.52086961 18
1.66196 -3.9459317 -0.37459537 39
1.6453676 -3.9122615 -0.22242783 21
1.6886817 -4.0211444 -0.076127395 8
nan nan nan nan
1.7257234 -4.0734544 0.23184831 16
1.5897547 -3.7579858 0.35698992 15
1.5427111 -3.6538885 0.48698995 33
nan nan nan nan
4.8987451 -11.636595 2.4541855 32
nan nan nan nan
nan nan nan nan
1.0056332 -2.4146907 -0.70088202 21
1.1059338 -2.6594515 -0.66495538 15
1.2123922 -2.9212031 -0.61478662 17
1.3847166 -3.3413522 -0.5728631 17
1.6288607 -3.9363034 -0.5230633 27
1.6982558 -4.1121259 -0.38923752 19
1.6530401 -4.0085888 -0.22724274 20
1.6392502 -3.9810615 -0.075150065 35
1.6407716 -3.9436402 0.074556686 11
1.7393874 -4.1868453 0.23760527 30
1.557373 -3.7542706 0.35559544 26
1.5171652 -3.6645694 0.48698995 32
nan nan nan nan
4.8705721 -11.799356 2.4812803 7
1.6575395 -4.0234852 1.0046314 27
1.4860172 -3.612504 1.0466642 9
0.99021149 -2.4252295 -0.70191729 21
1.0851333 -2.6616938 -0.66360563 18
1.2126857 -2.9805136 -0.62547189 21
1.3747393 -3.3838797 -0.57849473 13
1.6065643 -3.9604552 -0.52476943 19
1.6500673 -4.0758648 -0.38470542 16
1.6257631 -4.0218835 -0.22734742 39
1.5717493 -3.8941283 -0.073300108 28
1.5928087 -3.9050057 0.073614255 30
1.5669786 -3.8474383 0.2177176 11
1.6061809 -3.9496126 0.37302658 11
1.5430548 -3.8019886 0.5038079 26
1.5728427 -3.8812144 0.66328222 1
2.0729692 -5.1230536 1.0742546 10
1.8081853 -4.4776669 1.1148576 8
1.5308371 -3.7965841 1.0968752 19
0.97899854 -2.4464316 -0.70605838 20
1.0672479 -2.6710143 -0.66405559 11
1.2085735 -3.0308504 -0.63424915 20
1.3635038 -3.4245939 -0.58381349 22
1.5891426 -3.9973998 -0.52818179 24
1.6178986 -4.0780258 -0.38383389 18
1.7521141 -4.4230795 -0.24932852 10
1.6533771 -4.1802163 -0.078466021 21
1.6620065 -4.1574168 0.078151874 8
1.5067608 -3.774811 0.21300736 24
1.5999607 -4.0144029 0.37808162 21
1.5311476 -3.8495595 0.50868267 23
1.4458207 -3.6405823 0.62041914 60
2.0726137 -5.2268262 1.0929539 1
1.4972278 -3.7834935 0.93939567 7
1.4950663 -3.7838218 1.0901459 11
0.96330577 -2.4568036 -0.70709366 24
1.0499961 -2.682029 -0.66495538 15
1.1809552 -3.0227561 -0.63081461 26
1.3424345 -3.441391 -0.58506501 13
1.5583152 -4.0009985 -0.52720684 17
1.5749388 -4.0499482 -0.38017333 36
1.5802891 -4.0721197 -0.22891749 11
1.5085552 -3.8933182 -0.072881252 37
1.5913707 -4.0627871 0.076162301 40
1.4905554 -3.8112793 0.21447276 13
1.5494295 -3.9679408 0.37267792 10
1.5453188 -3.9655833 0.5225758 7
1.4067601 -3.6156096 0.61447465 31
4.7866201 -12.321503 2.5694342 49
1.4601642 -3.7645273 0.93219721 16
2.4079413 -6.2209196 1.7874043 13
0.95097899 -2.4760931 -0.71071708 10
1.0270602 -2.6783769 -0.66225594 39
1.157545 -3.0233905 -0.62928808 17
1.3210945 -3.4559844 -0.5860036 18
1.5459107 -4.0525837 -0.53256911 16
1.6019391 -4.2060747 -0.39376962 29
1.5390465 -4.0473127 -0.22692874 22
1.4969463 -3.9448864 -0.073649161 36
1.5471973 -4.0305867 0.075359493 11
1.4831629 -3.8698258 0.21719423 11
1.4910859 -3.8986416 0.36518255 17
1.5232476 -3.988991 0.52428192 17
nan nan nan nan
1.8144305 -4.7689972 0.99182522 2
1.5321128 -4.0333157 0.99608326 13
1.7804927 -4.6945829 1.3453414 27
0.9327423 -2.4788923 -0.70968187 13
1.0101762 -2.6889541 -0.66315573 31
1.1391661 -3.0387514 -0.63081461 20
1.3066295 -3.4910233 -0.59038377 18
1.5252384 -4.0816073 -0.53500646 16
1.5697527 -4.2096882 -0.3930724 23
1.5051787 -4.0429845 -0.22609136 18
1.4805102 -3.9831004 -0.074172728 33
1.5112815 -4.0206995 0.074975535 33
1.4933026 -3.9791923 0.22274184 9
1.4756993 -3.9385521 0.36797154 30
1.4543456 -3.8898244 0.50990134 15
1.4894136 -3.9899855 0.67454553 3
19.981712 -53.614609 11.121875 60
1.4475381 -3.892312 0.95874143 12
1.356987 -3.6546831 1.0445937 9
0.91941983 -2.4962206 -0.71278769 13
1.0001225 -2.719718 -0.6690045 15
1.1355077 -3.0945506 -0.64073664 33
1.2801871 -3.4944959 -0.58944511 16
1.5062528 -4.1182561 -0.53841883 17
1.5348607 -4.2055717 -0.39167792 38
1.5596523 -4.2804585 -0.23875666 18
1.5429038 -4.241396 -0.078780167 21
1.627488 -4.4233823 0.082270645 8
1.6720867 -4.5519528 0.25414345 9
1.4879558 -4.0572515 0.37808162 18
1.4967386 -4.0900302 0.53476268 28
1.7367442 -4.7535868 0.8015703 16
nan nan nan nan
4.5189271 -12.415649 3.0503364 11
1.3281405 -3.6549888 1.0420054 22
0.90786576 -2.5189352 -0.71744639 11
0.98243058 -2.7303011 -0.66990429 14
1.1145399 -3.1042502 -0.64111823 22
1.2637588 -3.5256624 -0.59319955 16
1.4841542 -4.1473613 -0.54085618 11
1.4907815 -4.1727681 -0.38766876 20
1.4961991 -4.1971779 -0.23352307 41
1.527336 -4.2916269 -0.079513162 3
1.5505066 -4.3066959 0.079897113 5
1.6362152 -4.552238 0.25351539 11
1.4118161 -3.9343936 0.36570549 35
1.5865912 -4.4311762 0.57790446 23
1.692212 -4.7339735 0.79625154 42
2.6962199 -7.5551696 1.5592911 2
4.4820571 -12.580128 3.0831792 17
1.3808893 -3.8844228 1.1046398 16
0.89090079 -2.5270338 -0.71796405 12
0.96916825 -2.7536368 -0.67395335 19
1.0933839 -3.1117647 -0.64111823 35
1.2515006 -3.567735 -0.59883118 18
1.449262 -4.1407585 -0.53866255 14
1.484616 -4.2489038 -0.39376962 29
1.5267992 -4.3769884 -0.24294353 20
1.5032535 -4.3191824 -0.079827309 26
1.4978966 -4.2511392 0.078675449 12
1.4421535 -4.0997829 0.22776611 12
1.3869547 -3.9516735 0.36640272 27
1.4900935 -4.2526579 0.55328691 33
1.6240764 -4.6428299 0.77904367 24
1.5856575 -4.5431738 0.93534577 4
2.5526047 -7.3259645 1.7910604 25
1.3785354 -3.9630675 1.12431 6
0.87178934 -2.5275605 -0.71641117 22
0.95928502 -2.7859659 -0.68025202 17
1.069082 -3.1118953 -0.63959181 24
1.2284855 -3.5819905 -0.59976977 19
1.4377612 -4.1993575 -0.54499972 14
1.4485723 -4.238173 -0.39185223 57
1.456882 -4.2722282 -0.23655853 28
1.3816653 -4.0586143 -0.074835919 45
1.4532007 -4.218008 0.077872641 12
1.3621792 -3.9605463 0.21949703 42
1.3406138 -3.9044905 0.36117339 37
1.4494313 -4.2310314 0.54914331 26
1.3953885 -4.0802417 0.68299294 19
2.5194843 -7.3798194 1.5157868 6
2.5133665 -7.3745275 1.7987087 19
1.2438622 -3.6580064 1.0352762 28
0.85103738 -2.5244322 -0.71382296 14
0.94975698 -2.8221467 -0.68745047 13
1.0553778 -3.1414323 -0.64417118 30
1.2141249 -3.6202354 -0.60477573 13
1.4071501 -4.2055278 -0.54451227 14
1.4265237 -4.2708592 -0.39394394 36
1.4764138 -4.4279385 -0.24461828 30
1.3577155 -4.0814428 -0.075080253 14
1.5074586 -4.4741549 0.082410261 19
1.3154513 -3.9110415 0.21625218 12
1.3158586 -3.9213104 0.36187065 32
1.4496032 -4.3273849 0.56035525 51
1.3732204 -4.1065059 0.68580878 12
1.3793415 -4.1344023 0.84719193 12
4.3399005 -13.031034 3.1709104 3
1.2530646 -3.769047 1.0642639 16
0.84592736 -2.5668621 -0.72417569 13
0.9268716 -2.8174391 -0.68475103 25
1.0383189 -3.1636467 -0.64722413 37
1.1845162 -3.6154833 -0.60258561 16
1.3914493 -4.2546301 -0.54963076 13
1.4289545 -4.3770652 -0.40283385 45
1.6211226 -4.9774752 -0.2743451 15
1.3478329 -4.14574 -0.076092489 26
1.396156 -4.2414422 0.077942446 17
1.4277753 -4.3451591 0.23969871 42
1.3164594 -4.0134749 0.36954033 28
nan nan nan nan
1.372121 -4.2004905 0.69988787 10
1.3347349 -4.0932994 0.83688831 31
1.488609 -4.573319 1.1103585 27
1.1980819 -3.689508 1.0394174 23
0.83094615 -2.5818999 -0.7267639 13
0.91194838 -2.8386838 -0.68835026 27
1.0197581 -3.1799884 -0.64913225 37
1.1755371 -3.6723769 -0.61072022 13
1.3605052 -4.2604585 -0.54914331 13
1.4128847 -4.4324932 -0.40701729 42
1.3667762 -4.2956152 -0.23624454 44
1.333982 -4.2026982 -0.076965116 29
1.3562322 -4.2165813 0.077314161 20
1.2583494 -3.9192989 0.21572883 45
1.4731607 -4.5993881 0.42253101 10
1.3341841 -4.1730061 0.53793132 47
1.3819344 -4.3301721 0.71991152 30
1.4931403 -4.6899276 0.95671636 15
2.3396049 -7.361989 1.7834121 8
1.1857919 -3.7380891 1.0508054 37
0.81649995 -2.6006818 -0.73038733 13
0.89277732 -2.848856 -0.68925005 27
0.99173433 -3.1723876 -0.6460793 26
1.1521165 -3.6922092 -0.61259741 16
1.3276224 -4.2625036 -0.54816836 13
1.398875 -4.4995666 -0.41224664 29
1.3056715 -4.2101369 -0.23101093 52
1.3819294 -4.4642911 -0.081572548 15
1.3300737 -4.2416744 0.077593401 17
1.2612058 -4.0294394 0.22127645 8
1.2791969 -4.0944414 0.37529263 37
1.2698922 -4.0746484 0.5240382 7
1.3407673 -4.3100061 0.71490556 25
2.1517618 -6.9298048 1.4104601 7
1.2593904 -4.0634098 0.98213637 9
1.2211266 -3.9497027 1.1077455 34
0.79775846 -2.6044717 -0.72986972 7
0.87799466 -2.8717918 -0.69329923 27
0.96839851 -3.1734312 -0.64493442 33
1.1309868 -3.7131939 -0.61478752 19
1.3249545 -4.3609376 -0.55962408 15
1.3824615 -4.5587959 -0.41677874 30
1.2833488 -4.2399545 -0.23216233 31
1.3276101 -4.3972564 -0.080176361 3
1.2736605 -4.1607604 0.075952873 6
1.234332 -4.0398407 0.22138111 15
1.2517439 -4.1070833 0.37564126 31
1.2554148 -4.1268787 0.52964419 22
1.3900256 -4.5779858 0.75776863 9
1.2326335 -4.06984 0.82658464 18
1.2298639 -4.0683722 0.98123652 16
1.1674278 -3.8691471 1.0828989 41
0.7816714 -2.6153944 -0.73142266 6
0.85619867 -2.8702316 -0.69149959 31
0.95517886 -3.2102218 -0.65104032 30
1.0966011 -3.6925943 -0.61009449 16
1.2963681 -4.3736625 -0.56011152 15
1.362464 -4.6084599 -0.4204393 21
1.2667177 -4.2928696 -0.23456979 24
1.3151615 -4.4656563 -0.081258401 14
1.3235128 -4.43398 0.08076974 12
1.2157937 -4.0809002 0.22316055 33
1.2141049 -4.0830426 0.37267792 40
1.2169783 -4.1031885 0.52550066 31
1.9764911 -6.6768012 1.1028631 12
1.2777755 -4.3247819 0.8765766 7
1.215203 -4.1235909 0.99248409 12
1.1267596 -3.8308694 1.069958 28
0.77095705 -2.6467543 -0.73866957 22
0.83178777 -2.8611689 -0.68790036 13
0.93493104 -3.2243543 -0.65256679 12
1.0653042 -3.6811848 -0.60696578 13
1.2674556 -4.3883276 -0.56084275 17
1.2646271 -4.3900299 -0.39969626 17
1.2532729 -4.3591938 -0.23770994 26
1.2635468 -4.4036102 -0.079966925 7
1.3148682 -4.5199156 0.082165927 11
1.1805919 -4.0662713 0.22190447 28
1.1805801 -4.0741963 0.37110916 13
nan nan nan nan
nan nan nan nan
nan nan nan nan
1.437538 -5.0066938 1.2025884 14
1.1643797 -4.0633521 1.1325922 8
0.75193387 -2.6502137 -0.73815197 10
0.81816465 -2.8894062 -0.69329923 23
0.92093545 -3.2610326 -0.65867269 17
1.057798 -3.7531767 -0.61760336 16
1.2389385 -4.4047127 -0.56181771 12
1.2734861 -4.5366492 -0.41224664 13
1.2141942 -4.3370638 -0.23603518 52
1.2010255 -4.2986937 -0.07790754 16
1.2194988 -4.3038821 0.078082062 17
1.1673925 -4.1282272 0.22483528 5
1.2744079 -4.5156918 0.41050354 16
1.2832718 -4.5592752 0.58156055 11
1.2008951 -4.2751837 0.70332944 34
1.1865312 -4.2325592 0.85444272 11
1.2317386 -4.4026895 1.0554705 8
1.0503187 -3.7643535 1.0471818 34
0.73804241 -2.6721575 -0.74281067 19
0.80625808 -2.9251065 -0.70049763 12
0.89923793 -3.2691185 -0.65905434 13
1.0405934 -3.7907686 -0.62260926 16
1.2123513 -4.4285722 -0.56376767 14
1.2113296 -4.4339561 -0.40213659 10
1.1883224 -4.358716 -0.23676789 22
1.194595 -4.3938079 -0.079478264 16
1.2157133 -4.4046092 0.079757497 9
1.1265367 -4.0898647 0.22232316 44
1.2291299 -4.4745269 0.40597141 18
nan nan nan nan
1.1738523 -4.2908807 0.7045809 25
1.1652211 -4.2710443 0.86054862 36
1.9903576 -7.3106017 1.7492195 14
1.0879849 -4.0044489 1.1118866 23
0.71532214 -2.6603291 -0.73815197 23
0.79137939 -2.9493482 -0.70499665 7
0.87791574 -3.2810063 -0.66019917 15
1.0146135 -3.799849 -0.62292212 19
1.1888232 -4.461658 -0.56693625 19
1.4192801 -5.3415489 -0.48354006 27
1.1839697 -4.4653645 -0.24210617 20
1.1631249 -4.3960376 -0.079373546 19
1.1320395 -4.2159982 0.076197207 12
1.1036428 -4.1188502 0.22347455 33
1.2161433 -4.5482321 0.41189805 25
1.1133976 -4.1756563 0.53061914 8
1.1001854 -4.1348004 0.67767417 24
1.1270536 -4.2447209 0.85367942 18
1.076376 -4.0652981 0.97088879 10
1.0259519 -3.8830719 1.0761696 19
0.70210654 -2.6858175 -0.74384594 10
0.76831037 -2.9453731 -0.70274711 10
0.85449439 -3.2851553 -0.65981752 23
0.99103844 -3.8183122 -0.62479931 21
1.1661073 -4.5025172 -0.57107979 24
1.2349916 -4.7822418 -0.43211815 10
1.1273499 -4.3748827 -0.23676789 50
1.1284226 -4.388557 -0.079094306 14
1.1263179 -4.3147368 0.077837728 16
1.0728471 -4.1187239 0.22305585 16
1.184361 -4.5566115 0.41189805 13
1.1474693 -4.427371 0.56157398 35
1.0589273 -4.0945687 0.66985244 39
1.0610907 -4.111814 0.82543975 16
1.0989586 -4.2708759 1.0181285 27
nan nan nan nan
0.68143684 -2.6831639 -0.74177545 12
0.75251609 -2.9695554 -0.70724612 6
0.84019613 -3.3253024 -0.66668665 16
0.96725529 -3.8366301 -0.6266765 21
1.1433622 -4.5452003 -0.57546705 17
1.2092016 -4.8175912 -0.43455851 10
1.1215086 -4.4814596 -0.24210617 14
1.0861316 -4.3497648 -0.078256592 9
1.1310681 -4.4601164 0.080315977 12
1.1126595 -4.3971868 0.23770994 22
1.1422786 -4.5242019 0.40823749 17
2.1274226 -8.4508905 1.0700129 8
1.0972079 -4.3681674 0.7133413 6
1.0638599 -4.2448087 0.85062653 8
1.0419692 -4.1667166 0.99158424 6
1.0464129 -4.1969328 1.1589917 24
0.67286199 -2.729121 -0.75316346 13
0.73269743 -2.9785213 -0.70814598 11
0.82549745 -3.3633578 -0.67317414 17
0.95004499 -3.8795803 -0.63262105 19
1.1125451 -4.5569286 -0.57595456 14
1.304269 -5.3543854 -0.48214555 20
1.061735 -4.3686624 -0.23561651 22
1.0703355 -4.4174881 -0.07933864 11
1.1059452 -4.4890699 0.080699928 15
1.0407492 -4.2339802 0.2284988 13
1.110667 -4.5320659 0.40823749 11
1.703972 -6.9688253 0.88087165 40
nan nan nan nan
1.0522947 -4.3265305 0.86550963 11
1.1562357 -4.7647481 1.1319537 21
1.0278225 -4.245266 1.1703798 6
0.65382057 -2.7317593 -0.75264585 10
0.71240658 -2.9834397 -0.70814598 12
0.79790527 -3.3518498 -0.6697396 20
0.92111152 -3.8784308 -0.63136959 17
1.0784178 -4.5549259 -0.57473588 22
1.0561718 -4.471406 -0.40196225 31
1.0985526 -4.6617374 -0.25100327 8
1.0138601 -4.3158379 -0.077383965 35
1.0392551 -4.3488669 0.078047164 13
0.99448991 -4.1712017 0.22473061 24
1.1000788 -4.6248064 0.4159072 17
1.7038299 -7.1852942 0.906708 11
0.99640262 -4.2117934 0.68549597 12
1.0022364 -4.2496953 0.84871852 33
0.98726231 -4.1960344 0.99518353 13
1.1248611 -4.7921076 1.318942 12
0.63643724 -2.7457776 -0.755234 18
0.69806421 -3.0188391 -0.71534437 10
0.78993148 -3.424294 -0.68309623 17
0.89112151 -3.8752966 -0.62980521 16
1.04748 -4.5662136 -0.57522333 15
1.0347079 -4.521399 -0.40579712 31
1.0225236 -4.4825444 -0.24095476 16
0.9837057 -4.3228106 -0.077383965 22
1.0323317 -4.4573193 0.079862215 8
0.96596384 -4.1840491 0.22504464 11
1.0736638 -4.6616836 0.41852185 10
1.5798346 -6.8758569 0.86624736 12
0.92963445 -4.0589976 0.65952778 22
1.0057778 -4.4020472 0.87772143 10
0.91853529 -4.029923 0.95424241 16
1.4573365 -6.4144888 1.7625577 6
0.61640638 -2.7463837 -0.75419873 14
0.68506134 -3.0597706 -0.72389257 8
0.76412469 -3.4241104 -0.6819514 12
0.86275786 -3.875639 -0.62886661 17
1.027196 -4.6257377 -0.58180428 14
1.0052725 -4.538238 -0.40666869 22
1.0041227 -4.5480819 -0.24409491 10
0.95178246 -4.3217611 -0.077244349 16
1.1062225 -4.9368086 0.088309184 12
0.96112859 -4.2998438 0.23090626 30
1.0523669 -4.7196259 0.42305395 12
1.8721108 -8.4236708 1.0595322 12
0.9226526 -4.1618161 0.6751712 7
1.6126013 -7.2920384 1.4516749 6
0.94453245 -4.2817225 1.0122797 39
1.0910209 -4.9622474 1.3613882 16
0.59844798 -2.7562838 -0.75575161 31
0.65873367 -3.0416236 -0.71849376 12
0.74328715 -3.4407463 -0.68424112 20
0.84884024 -3.9393539 -0.63825274 17
1.0002956 -4.6580272 -0.58497292 15
1.0849853 -5.0653148 -0.45320985 5
0.96354419 -4.5098882 -0.24168746 24
0.95240504 -4.4730339 -0.079827309 7
0.93777698 -4.3227758 0.07720945 10
0.93099391 -4.3023825 0.2306969 15
1.028633 -4.7697053 0.42688882 12
3.9400542 -18.316319 2.300406 11
0.88642883 -4.1313038 0.66922677 10
nan nan nan nan
1.0849395 -5.0867729 1.2007889 40
0.90205324 -4.2401862 1.16158 4
0.58324605 -2.7773089 -0.76041043 34
0.63881403 -3.0498517 -0.71939355 10
0.73007935 -3.497741 -0.69454479 15
0.82373369 -3.9567866 -0.64012986 16
0.97865552 -4.7133188 -0.59106636 35
0.96764702 -4.6767001 -0.41782463 19
0.92315555 -4.4734731 -0.2393847 24
0.92032397 -4.4715781 -0.079687685 21
0.90921664 -4.3370461 0.077349067 12
0.90870219 -4.3459215 0.23268569 12
0.9993968 -4.7921996 0.4282833 18
1.5203123 -7.3155828 0.91743249 1
1.5130682 -7.2999125 1.1807675 14
1.5468836 -7.4827685 1.4852573 13
0.85752809 -4.1627951 0.98123652 27
0.85843295 -4.1782565 1.1429449 2
0.56729698 -2.7983532 -0.76506913 28
0.61905122 -3.0618775 -0.72119313 28
0.70060235 -3.4777331 -0.68958372 19
0.79492271 -3.9566309 -0.63919127 14
0.93948722 -4.6888938 -0.58716655 28
0.94043469 -4.7106943 -0.42026496 14
0.91413152 -4.5914607 -0.24535099 12
0.88791579 -4.4720106 -0.079582974 16
0.9031108 -4.4628463 0.079478264 9
0.86806726 -4.3012571 0.22996421 24
1.0048375 -4.9924288 0.44554016 11
1.6624165 -8.2894564 1.0380832 10
nan nan nan nan
1.4834696 -7.4375501 1.4741904 25
0.84743834 -4.2642488 1.0037317 28
0.85365385 -4.3073225 1.1765914 5
0.54589462 -2.7927654 -0.76248091 28
0.6021347 -3.0890775 -0.726592 13
0.68117207 -3.5075936 -0.69454479 11
0.778548 -4.0202651 -0.64857739 19
0.90748239 -4.6992364 -0.58765399 21
0.9323681 -4.8462758 -0.43176955 5
0.89635444 -4.6722674 -0.24932852 14
0.8472802 -4.428998 -0.078710355 17
0.84819049 -4.3473554 0.077314161 11
0.84679079 -4.352304 0.23237166 25
0.96502602 -4.9738951 0.44327411 12
1.40785 -7.2834735 0.91085154 1
1.4162322 -7.3474817 1.1851476 26
1.5052538 -7.8313909 1.5501324 24
0.93492615 -4.8825302 1.1477003 16
0.83262146 -4.3606162 1.1895324 15
0.52531207 -2.790813 -0.76092798 37
0.58486825 -3.1161892 -0.73199081 10
0.66171914 -3.5392809 -0.69988745 9
0.75154877 -4.0314279 -0.64951599 17
0.87755573 -4.7210708 -0.58960396 21
0.86405259 -4.6665525 -0.41520998 20
0.87930632 -4.762866 -0.25382942 12
0.82430422 -4.4780722 -0.079478264 29
0.82409626 -4.3865809 0.07790754 26
0.82925624 -4.4268188 0.23603518 16
0.92991233 -4.9785523 0.44309977 16
1.3562422 -7.2892213 0.91036409 7
1.3854411 -7.4678979 1.2029812 38
1.388051 -7.50387 1.4833492 11
0.79523319 -4.3159113 1.0131797 39
0.78226149 -4.2580199 1.160027 15
0.51166528 -2.8267286 -0.76972789 20
0.56309885 -3.1201966 -0.73199081 13
0.63977319 -3.5592725 -0.7029404 15
0.71955329 -4.0151877 -0.64607441 13
0.85260642 -4.7720275 -0.59520996 20
0.84087735 -4.7254338 -0.41991636 9
0.81393743 -4.5879655 -0.2441996 18
0.79511082 -4.495532 -0.079687685 17
0.8179819 -4.5280085 0.080315977 11
0.79125053 -4.3931875 0.23394175 16
nan nan nan nan
1.3060198 -7.3024201 0.91085154 25
1.3246037 -7.4287705 1.1951594 31
0.75801456 -4.2640882 0.84184933 1
0.79973602 -4.5170856 1.0590696 19
0.73404706 -4.1587424 1.1315569 6
0.49522704 -2.8492649 -0.77490425 16
0.54695797 -3.1566939 -0.7396391 30
0.62025046 -3.5946069 -0.70904624 9
0.69887155 -4.062943 -0.65295756 14
0.82329655 -4.801342 -0.59813482 24
0.81926912 -4.7979631 -0.42584294 9
0.80601782 -4.7352996 -0.25173599 2
0.76738703 -4.5226603 -0.080071643 38
0.76311195 -4.3996301 0.077942446 32
0.76702768 -4.435997 0.23593052 28
3.5989535 -20.879164 1.8536284 5
1.2765015 -7.436574 0.92645079 41
1.2837033 -7.50209 1.2054842 15
0.72723681 -4.2634702 0.84070444 8
0.72738999 -4.2824054 1.0028318 10
0.72208846 -4.2647171 1.1589917 24
0.47786346 -2.8678975 -0.7790454 25
0.52810001 -3.1796594 -0.74413812 25
0.59097618 -3.573669 -0.70408523 15
0.68109173 -4.1320424 -0.66328222 15
0.79876781 -4.8618197 -0.60495949 24
1.0057518 -6.1484861 -0.54507202 19
0.77422506 -4.7486963 -0.25215468 4
0.73034155 -4.4943528 -0.079478264 13
0.76583213 -4.6060572 0.081502736 9
0.76412302 -4.6106968 0.24493231 18
1.352796 -8.189312 0.72618169 5
1.2322855 -7.4923158 0.93230057 25
1.2498336 -7.6239319 1.2236305 19
0.70220333 -4.2975068 0.84642875 5
0.68715048 -4.2239056 0.98798507 1
0.70373839 -4.3402114 1.1781443 12
0.45813468 -2.8730712 -0.77956301 23
0.50527722 -3.1794195 -0.74323833 12
0.57030869 -3.6048558 -0.70942789 6
0.6509974 -4.1288915 -0.66203076 17
0.77281815 -4.9182649 -0.61129665 20
0.97819775 -6.2537799 -0.55378759 13
0.73890132 -4.7401719 -0.25142196 8
0.73179239 -4.710773 -0.083213076 1
0.72925824 -4.583643 0.081014074 23
0.7215938 -4.5508227 0.24147813 16
1.2837732 -8.1237755 0.71955782 12
1.2030863 -7.647809 0.95058095 33
1.2837751 -8.1886597 1.3127981 66
0.67460895 -4.3178225 0.8494817 10
0.73191488 -4.7061462 1.0995607 14
0.67016673 -4.324019 1.1724503 26
0.4369022 -2.8685606 -0.77749246 28
0.48774737 -3.2136965 -0.75043678 21
0.54952669 -3.6378677 -0.71515214 10
0.62803799 -4.1724029 -0.66828811 19
0.74435276 -4.9628024 -0.61617148 16
0.9386332 -6.2880449 -0.55622798 9
1.2011958 -8.0759535 -0.42789882 9
0.68716097 -4.6366434 -0.081816882 3
0.70114642 -4.6143236 0.081467837 16
0.70714772 -4.6702847 0.24754909 21
1.1842238 -7.8488455 0.69445693 11
nan nan nan nan
1.1660661 -7.7930222 1.2480342 22
