# .PCD v0.7 - Point Cloud Data file format
VERSION 0.7
FIELDS x y z intensity
SIZE 4 4 4 4
TYPE F F F F
COUNT 1 1 1 1
WIDTH 1391
HEIGHT 1
VIEWPOINT 0 0 0 1 0 0 0
POINTS 1391
DATA ascii
2.0906713 -2.4643629 -0.51185364 6
2.421793 -2.8577013 -0.45993495 11
2.6166036 -3.0919507 -0.35437521 17
2.7296865 -3.2290039 -0.22159046 33
2.6268179 -3.110621 -0.071066193 34
2.7289059 -3.2075875 0.073509537 30
2.9179132 -3.4333897 0.23613985 13
2.7246134 -3.2093458 0.36832017 12
3.4415278 -4.0595465 0.65346348 12
2.6310759 -3.1068525 0.64482296 51
2.5131416 -2.9707448 0.75636691 14
2.5264573 -2.9907167 0.90385336 25
3.3153348 -3.9287293 1.377435 6
1.5314213 -1.8244299 -0.63824779 10
1.6966022 -2.0233657 -0.60961735 12
1.8590605 -2.2202597 -0.56288654 10
2.073416 -2.4788983 -0.51185364 6
2.4119656 -2.8867257 -0.46188486 9
2.597507 -3.1132026 -0.35472387 36
2.6533701 -3.1835439 -0.21719423 33
2.539784 -3.0505078 -0.069286056 35
2.5303857 -3.0166655 0.068727575 11
2.7373779 -3.2669086 0.22336988 1
3.3083014 -3.9524767 0.4509438 16
2.6301644 -3.1467574 0.50356412 8
3.4335182 -4.1122718 0.84850067 9
2.4206641 -2.9022796 0.73461467 10
2.4942923 -2.9948051 0.89980423 22
2.5131304 -3.0206382 1.052876 1
1.5248054 -1.8425183 -0.64083594 10
1.6886435 -2.0426705 -0.61186689 12
1.8439046 -2.2328625 -0.56288654 9
2.0673707 -2.5070293 -0.51466948 8
2.3917539 -2.9034939 -0.46188486 9
2.6180334 -3.181581 -0.36047614 26
2.6734922 -3.2524471 -0.22064841 36
2.554493 -3.1109974 -0.070263386 39
2.6749341 -3.2345891 0.07326521 12
2.6725271 -3.2351258 0.2199157 42
3.8284557 -4.6393361 0.52624637 6
4.3347602 -5.2584844 0.83675498 7
2.378288 -2.8881736 0.59257382 11
2.3928621 -2.9100099 0.73232496 5
3.410202 -4.1516476 1.2403803 15
nan nan nan nan
1.5085641 -1.8483645 -0.63928306 9
1.6820889 -2.0631797 -0.61456633 12
1.8299032 -2.2468839 -0.56326818 10
2.0519445 -2.5222175 -0.51498228 6
2.3837125 -2.9331572 -0.46407849 8
2.587528 -3.188498 -0.35925597 36
2.7116628 -3.3450415 -0.22567266 39
2.6842723 -3.3148003 -0.074451968 22
2.5358584 -3.1081614 0.070019051 11
2.6308236 -3.2280083 0.21824095 9
2.7869103 -3.4244051 0.38627425 12
2.3867288 -2.935822 0.46456599 3
2.3585739 -2.9042952 0.59257382 16
2.418036 -2.9807034 0.74606317 20
4.3481712 -5.3657131 1.5944532 20
4.1074758 -5.075932 1.7496167 31
1.4890029 -1.8493009 -0.63617724 3
1.6756965 -2.0834014 -0.61726576 12
1.8256314 -2.2730637 -0.56670272 11
2.0372014 -2.5392079 -0.51560807 6
2.3631771 -2.9497273 -0.46407849 5
2.590663 -3.237148 -0.36274219 26
2.6333818 -3.2952399 -0.22106709 40
2.6398566 -3.306891 -0.073858589 31
2.4845574 -3.0879583 0.069181338 38
2.5237081 -3.1399817 0.21112327 48
2.4567542 -3.0610523 0.34339362 27
2.3567564 -2.9396093 0.46261609 12
2.3523338 -2.9372423 0.59601539 30
3.9544077 -4.9447441 1.2307181 13
3.3813446 -4.2327056 1.250728 24
3.9900191 -5.00179 1.7144175 19
1.4805344 -1.8659617 -0.63824779 5
1.6571139 -2.0907574 -0.61591601 11
1.8068823 -2.2829905 -0.56593949 11
2.0202041 -2.5552702 -0.51592094 7
2.3358588 -2.9587715 -0.46285981 9
2.561264 -3.2477815 -0.36187065 33
2.6233265 -3.3312597 -0.2222185 28
2.6260164 -3.3382699 -0.074137822 34
2.4946988 -3.1463983 0.070088863 7
2.4242911 -3.0608883 0.20463361 27
2.4211919 -3.0613642 0.3414762 12
2.831589 -3.5841267 0.56084275 30
2.3337026 -2.9571016 0.59664112 27
nan nan nan nan
3.4112387 -4.3333545 1.273223 36
nan nan nan nan
1.4814229 -1.8947711 -0.64445943 12
1.6409109 -2.1010258 -0.61546612 10
1.7868775 -2.2912173 -0.56479466 16
2.0103657 -2.580569 -0.51811105 6
2.3309946 -2.9953728 -0.46602839 6
2.5489602 -3.2801847 -0.36343944 22
2.5840852 -3.3289826 -0.22085775 38
2.6737173 -3.4481783 -0.076162301 29
2.415488 -3.0916834 0.068483248 27
2.5620716 -3.2828434 0.21824095 16
2.382611 -3.0561941 0.33903584 42
2.357125 -3.0278604 0.47114691 6
2.3197584 -2.9830816 0.59851831 12
nan nan nan nan
3.2165103 -4.1466994 1.2115865 38
2.4860001 -3.2083991 1.0875577 11
1.4752345 -1.9142482 -0.64756525 22
1.6297693 -2.1170628 -0.61681581 10
1.7469081 -2.2725058 -0.55716228 6
1.997113 -2.6008084 -0.51936251 6
2.3124425 -3.0147233 -0.46651587 4
2.5223639 -3.2931547 -0.3629165 30
2.5535002 -3.3374245 -0.22022973 38
2.5827935 -3.3793759 -0.07424254 24
2.4841328 -3.2257123 0.071066193 30
2.5634463 -3.3323109 0.2203344 42
2.3672867 -3.0806525 0.33990738 27
nan nan nan nan
2.241194 -2.9239492 0.58350062 34
2.7665839 -3.6133101 0.88459057 7
2.2299359 -2.9166348 0.8476156 11
2.1973705 -2.8771622 0.97005379 1
1.4594976 -1.921424 -0.64653003 23
1.6290851 -2.1470182 -0.62221462 10
1.7227012 -2.2736924 -0.55449098 5
1.719027 -2.2713125 -0.45115703 5
2.2937341 -3.0339606 -0.46700338 1
2.501713 -3.3138642 -0.36326513 30
2.5229232 -3.3456016 -0.21960169 31
2.5434973 -3.3765609 -0.073788777 34
2.6126795 -3.4420781 0.075429298 30
nan nan nan nan
2.5490181 -3.36552 0.36936605 52
2.3697016 -3.1333065 0.4823589 41
2.2493041 -2.9773521 0.5910095 48
2.2185771 -2.9398785 0.71591538 1
2.1567447 -2.8620968 0.82737005 4
2.1307585 -2.8306944 0.94934833 1
1.446048 -1.9315662 -0.64653003 24
1.6128895 -2.1567786 -0.62176478 10
1.7208819 -2.3045404 -0.55907035 12
1.6984042 -2.2769246 -0.44990557 5
1.7055591 -2.2890167 -0.35049626 3
2.4238088 -3.2577181 -0.35524681 3
2.5507343 -3.4320629 -0.22410259 20
2.7189248 -3.6623704 -0.07961788 17
2.587388 -3.4586327 0.075394399 30
2.4270029 -3.2477853 0.21248402 35
2.8567855 -3.8270929 0.41782463 37
2.5055523 -3.3614564 0.51477611 12
2.5104132 -3.3716605 0.66578513 52
2.194484 -2.9505696 0.71477056 46
2.1099877 -2.8411007 0.81702226 15
2.4596992 -3.3156135 1.1061926 22
1.4451445 -1.9587145 -0.65222406 27
1.5966369 -2.1664171 -0.62131482 10
1.7070788 -2.3196607 -0.55983365 10
1.7000169 -2.3126004 -0.45459861 6
1.6989367 -2.3136683 -0.35244617 5
1.671751 -2.2799807 -0.24734798 4
1.695883 -2.3154337 -0.15041354 1
2.5244434 -3.4504771 -0.07462649 10
2.2439685 -3.0436447 0.066004999 10
2.4729636 -3.3579254 0.21855497 20
2.4167733 -3.285229 0.35681561 23
2.4702725 -3.3628678 0.51233876 50
2.2343924 -3.0450974 0.59820545 16
2.1587439 -2.9452329 0.70980954 31
2.1626108 -2.9548326 0.84536612 31
2.1161113 -2.8944778 0.96073633 3
1.4325711 -1.9703181 -0.65274167 54
1.5620061 -2.1507058 -0.61366653 9
1.6827748 -2.3203962 -0.55716228 6
1.6710832 -2.3068149 -0.45115703 3
1.6827428 -2.3254726 -0.35244617 7
1.6627945 -2.3012857 -0.24839386 4
1.6411039 -2.2737732 -0.14695938 6
1.6571165 -2.2984941 -0.04946012 3
2.2790842 -3.1368904 0.067680433 2
2.5045965 -3.4510798 0.22347455 46
nan nan nan nan
2.7179477 -3.7546971 0.56912988 8
2.4411011 -3.3759687 0.6598407 28
nan nan nan nan
2.3938546 -3.3191607 0.94479454 21
2.0890775 -2.899776 0.95763052 7
1.4221563 -1.9849823 -0.65429455 43
1.5378802 -2.1488807 -0.61006731 9
1.6699589 -2.3368797 -0.55830717 10
1.6491995 -2.3103859 -0.44959271 6
1.6595523 -2.3274658 -0.35098374 3
1.6582438 -2.3290684 -0.25013697 6
1.643711 -2.3112166 -0.14863414 6
1.610919 -2.2676215 -0.048552595 5
2.3712082 -3.3120685 0.071101107 2
2.4142203 -3.3758802 0.21750826 19
2.2664385 -3.1727417 0.34112757 29
5.6646085 -7.9414883 1.197732 11
2.4117415 -3.3848841 0.65827632 37
2.7458048 -3.8580155 0.92046267 4
2.0771179 -2.9227889 0.82781988 24
2.1459424 -3.022985 0.99334759 6
1.4127203 -2.0011752 -0.6563651 37
1.5284561 -2.1675274 -0.61231679 10
1.6762096 -2.3805859 -0.56593949 15
1.7955377 -2.5528967 -0.49433297 3
1.6386987 -2.3324978 -0.35000879 3
1.63279 -2.3275397 -0.24874248 3
1.63212 -2.3291783 -0.14905281 6
1.6076627 -2.2968333 -0.04893655 7
1.5999326 -2.2680488 0.048447877 5
nan nan nan nan
2.2407928 -3.1835988 0.34060463 15
2.1173687 -3.0127106 0.45213532 2
2.6241331 -3.7379224 0.72335303 13
2.3750081 -3.3868282 0.80406916 55
2.068958 -2.9547782 0.83276886 2
2.0328851 -2.9064984 0.95038354 11
1.395406 -2.0062313 -0.65481222 40
1.5210699 -2.189348 -0.61546612 10
1.6629062 -2.3970695 -0.56708437 21
1.8924323 -2.7309818 -0.52624559 12
1.6359326 -2.3634677 -0.35293365 1
1.5987797 -2.3123784 -0.24595349 4
1.6135505 -2.3372285 -0.14884347 5
1.5972649 -2.316232 -0.049111072 6
1.5897658 -2.2873731 0.048622403 6
1.5741036 -2.2673705 0.1446566 7
1.5849763 -2.2855854 0.24333882 5
2.0488214 -2.9588737 0.44189829 18
2.5755002 -3.7236583 0.71709567 4
nan nan nan nan
2.3188713 -3.3601406 0.94254494 15
3.1372018 -4.552731 1.4814804 4
1.3813659 -2.0159242 -0.65481222 33
1.5068491 -2.2015219 -0.61591601 11
1.6620642 -2.4310224 -0.57242703 16
1.8771415 -2.7486937 -0.52718419 9
2.1919956 -3.21455 -0.47772786 17
2.299309 -3.3757207 -0.35733855 28
1.5863692 -2.3316443 -0.14779675 6
1.5743134 -2.3174016 -0.048901644 5
1.5809398 -2.3080401 0.048831832 8
1.5721674 -2.2978127 0.14591266 6
1.5611141 -2.2850792 0.24211864 6
1.5418957 -2.2594874 0.33587193 6
nan nan nan nan
nan nan nan nan
nan nan nan nan
3.0627277 -4.5100527 1.4607747 1
1.3827477 -2.047694 -0.66205913 27
1.4929188 -2.2133431 -0.61636597 10
1.6625993 -2.4686203 -0.57853287 10
1.8601116 -2.7650096 -0.52780992 9
2.1767073 -3.2392819 -0.47919029 17
2.3389611 -3.485996 -0.36727428 41
2.3895493 -3.5654259 -0.22493997 41
1.5562782 -2.3247406 -0.048831832 5
1.5569589 -2.3074174 0.048587501 4
1.5527387 -2.3037636 0.14559864 9
1.5510873 -2.303916 0.24299021 8
1.5260841 -2.2701967 0.33587193 6
1.5317475 -2.2812004 0.43520072 6
nan nan nan nan
nan nan nan nan
2.2556524 -3.371999 1.0870401 42
1.3726982 -2.0637317 -0.66412973 33
1.4817442 -2.2302041 -0.61816555 11
1.6377276 -2.4687154 -0.57586157 10
1.8582215 -2.8042746 -0.53281587 8
2.1617093 -3.2659867 -0.48089647 11
2.2914989 -3.467334 -0.36361378 35
2.3723021 -3.593689 -0.22567266 26
2.6463084 -4.0133371 -0.083911166 1
1.5330639 -2.3065732 0.048343167 6
1.5255706 -2.2979083 0.14455192 4
1.5459766 -2.3312929 0.24473332 7
1.5277332 -2.3072779 0.33977175 8
1.5179638 -2.2951334 0.43582645 6
1.5074539 -2.2818384 0.53159386 7
1.5011661 -2.2757735 0.62941307 3
2.2161131 -3.3634665 1.0792755 16
1.3593158 -2.0748804 -0.66464734 27
1.4736077 -2.2519088 -0.62131482 7
1.6204528 -2.4800887 -0.57586157 10
1.8450766 -2.827105 -0.53469306 8
2.1746302 -3.3358755 -0.48893982 13
2.3378839 -3.5917854 -0.37494397 63
2.4266284 -3.7323992 -0.23331371 24
2.6018889 -4.0065584 -0.083387598 3
1.5333525 -2.3423157 0.048866738 1
1.5149566 -2.3168607 0.14507528 7
1.5198582 -2.3270161 0.24316452 5
1.5126727 -2.3195498 0.3400155 6
1.5062166 -2.3122957 0.43707794 7
1.5032649 -2.3104084 0.5357917 6
1.4767486 -2.2731247 0.62581384 6
1.4596156 -2.2493293 0.71848166 6
1.348987 -2.0908127 -0.66671789 7
1.4578509 -2.2621415 -0.62131482 7
1.6115983 -2.5045488 -0.57891452 10
1.8210226 -2.8332698 -0.5334416 8
2.1534333 -3.3543172 -0.48942733 21
2.3052254 -3.5962777 -0.3737238 45
2.5652852 -4.0066004 -0.24932852 25
2.547998 -3.9841926 -0.082549877 38
2.3491256 -3.6437321 0.07567364 42
nan nan nan nan
1.499264 -2.3308671 0.24246727 7
1.4867879 -2.315021 0.33782184 6
1.4900372 -2.3227546 0.43707794 6
1.489217 -2.3241527 0.53655493 8
1.4723955 -2.3014357 0.63076282 7
1.4407561 -2.254581 0.71692878 4
1.3347239 -2.0999465 -0.66671789 24
1.4465972 -2.2785931 -0.62311447 6
1.6008198 -2.5254097 -0.58120424 11
1.8016951 -2.8455994 -0.5334416 8
2.144345 -3.3907077 -0.49259594 12
2.286644 -3.6199095 -0.37459537 41
2.2875676 -3.6269779 -0.22473061 22
2.4909747 -3.9540701 -0.081572548 21
2.2749536 -3.5819886 0.074068017 27
2.5527589 -4.0240569 0.24974722 21
2.0709507 -3.2683377 0.3385129 31
1.4656892 -2.3167 0.33660313 6
1.4689162 -2.3244936 0.43551362 7
1.4660276 -2.3226142 0.53388357 4
1.4695712 -2.3309319 0.63616163 7
1.4397846 -2.2872241 0.72417569 9
1.3179812 -2.1059382 -0.66568261 28
1.437885 -2.3002038 -0.6262638 11
1.586712 -2.5412433 -0.58234906 10
1.7969189 -2.881263 -0.53782177 9
2.1027834 -3.3769488 -0.4884524 18
2.2802572 -3.6662383 -0.37773296 26
2.23964 -3.6051404 -0.22242783 42
2.3810935 -3.838815 -0.078849971 11
2.194309 -3.5075397 0.072218053 35
2.4364047 -3.8990626 0.24095476 19
2.0428102 -3.2742636 0.33764133 50
nan nan nan nan
1.4561915 -2.3394694 0.43645221 1
1.4435591 -2.3227873 0.53159386 7
1.4378462 -2.3162994 0.62941307 6
1.4262189 -2.3002548 0.72521096 5
1.3147671 -2.1329503 -0.67137665 12
1.4221951 -2.3099377 -0.6262638 12
1.5699605 -2.5539315 -0.58273071 11
1.7808944 -2.900471 -0.53907323 9
2.0932403 -3.4131823 -0.49162099 10
2.2608492 -3.6922631 -0.37877885 24
2.3144562 -3.7842586 -0.23247635 24
2.5289993 -4.1399155 -0.084679075 1
2.1708174 -3.5244765 0.072252966 42
2.7021554 -4.3922896 0.2702629 19
2.0110877 -3.2728152 0.33607253 38
2.0388169 -3.3231394 0.47870281 21
2.1478655 -3.5049987 0.65108031 66
2.4598103 -4.0187674 0.91588324 1
1.4124948 -2.3113155 0.62536401 9
1.4020731 -2.2969644 0.72106987 4
1.3008463 -2.1437287 -0.67189431 24
1.4201751 -2.3431416 -0.6325624 9
1.5592077 -2.5765867 -0.58540201 11
1.7595805 -2.9111426 -0.53876036 4
2.0416601 -3.3818281 -0.48504004 19
2.2494168 -3.7318456 -0.38121921 34
2.1798148 -3.6206598 -0.22148579 40
2.526829 -4.2020268 -0.0855866 26
2.1461592 -3.5395458 0.072252966 45
2.2389483 -3.696943 0.22651003 2
2.4202716 -4.0010691 0.40910906 8
2.0340397 -3.3678782 0.48309013 34
2.0876317 -3.4607069 0.64012986 16
2.119627 -3.5179088 0.79834485 1
5.1382732 -8.5413876 2.3012495 2
1.3820233 -2.3000729 0.71899933 9
1.2848583 -2.1510994 -0.67137665 25
1.4087744 -2.3613667 -0.63481188 9
1.5401772 -2.5857227 -0.58502042 11
1.740224 -2.9250536 -0.53907323 8
2.0453808 -3.4420757 -0.49162099 12
2.240591 -3.7765884 -0.38418248 32
2.2685218 -3.8282323 -0.23320904 31
2.4291911 -4.1042671 -0.083247982 24
2.145992 -3.5956528 0.07309068 31
2.6129534 -4.3832693 0.26743674 24
2.3912606 -4.0161567 0.40893474 13
1.8948405 -3.1874716 0.45530388 33
1.9151695 -3.2255125 0.59413815 11
nan nan nan nan
5.1351118 -8.6726322 2.326894 2
1.9087652 -3.227545 1.0047356 6
1.2707886 -2.1616824 -0.67189431 11
1.3833745 -2.3560202 -0.63076282 9
1.531024 -2.611655 -0.58845496 8
1.7117763 -2.9234939 -0.53657025 13
2.0323241 -3.4751203 -0.49430209 22
2.1749921 -3.7250366 -0.37738436 40
2.2638757 -3.8819323 -0.23551181 31
2.385381 -4.0952063 -0.082724407 40
2.6890275 -4.5778432 0.092672281 15
2.110301 -3.596921 0.21855497 9
2.3399966 -3.993216 0.40492558 17
1.8815633 -3.216043 0.45749757 28
2.3032169 -3.9414835 0.72304016 22
2.0178525 -3.4572945 0.77811909 27
1.9298964 -3.3119042 0.88495749 2
3.2437344 -5.5732937 1.7278759 19
1.2653404 -2.1872234 -0.67707068 23
1.3678676 -2.3673079 -0.63121271 18
1.51864 -2.6324835 -0.59074467 11
1.7100624 -2.9678931 -0.5425148 19
2.0060337 -3.4857826 -0.49381462 31
2.1628292 -3.7643154 -0.37982473 40
2.2774785 -3.9686666 -0.23980337 16
2.2642543 -3.9504125 -0.079478264 13
2.685024 -4.6449795 0.093649611 10
2.0731549 -3.5908103 0.21729892 46
2.3220143 -4.0267148 0.40666869 11
1.851142 -3.2153375 0.45554763 42
nan nan nan nan
1.9574895 -3.4083071 0.76399928 7
1.6992855 -2.9635205 0.78867847 15
1.8558348 -3.2404699 1.0005945 7
1.2490841 -2.194325 -0.67655301 10
1.354197 -2.3818817 -0.6325624 9
1.4905338 -2.6259477 -0.58692849 13
1.6990436 -2.9969435 -0.54564345 39
1.98654 -3.5083394 -0.49503332 18
2.14238 -3.7897294 -0.38087061 40
2.2634642 -4.0088177 -0.24126878 54
2.5263882 -4.47996 -0.089775175 24
2.3252897 -4.0882645 0.082096115 13
2.0500093 -3.6086686 0.21750826 28
2.2859802 -4.028964 0.40527418 11
1.9480158 -3.4389038 0.48528376 40
1.7927269 -3.1686339 0.57661748 27
nan nan nan nan
5.2070622 -9.2297449 2.4465678 12
1.854979 -3.2920573 1.0125002 13
1.2393984 -2.2131047 -0.67965883 18
1.3394383 -2.3946791 -0.63346225 4
1.4769509 -2.64486 -0.58883661 12
1.6761552 -3.0052817 -0.54501772 22
1.9774555 -3.5498695 -0.49893317 10
2.2143693 -3.9800713 -0.39847603 17
2.2237847 -4.0035701 -0.24001274 30
2.501842 -4.5097289 -0.090019517 30
1.9793341 -3.5372517 0.070752062 31
2.0052783 -3.5880232 0.21541482 31
2.7200391 -4.8729267 0.48824647 4
1.8089676 -3.2460721 0.45627886 9
1.7542305 -3.1517296 0.57129872 26
1.7322856 -3.1161416 0.69301832 20
2.6023297 -4.687007 1.2376808 24
1.958389 -3.5330279 1.0823812 42
1.2211212 -2.2166271 -0.67810595 25
1.3273847 -2.4125087 -0.63571173 7
1.466478 -2.6686165 -0.59188956 11
1.6537595 -3.0131576 -0.54439199 13
1.9726565 -3.6001468 -0.50405163 13
2.0918376 -3.8224027 -0.38121921 34
2.1591232 -3.9502642 -0.23593052 28
2.4463511 -4.483201 -0.089146897 18
2.1153321 -3.8414199 0.076546252 7
nan nan nan nan
nan nan nan nan
nan nan nan nan
1.995589 -3.6435077 0.65796345 36
1.6492655 -3.0161927 0.66821313 10
2.2529058 -4.1252656 1.085164 16
1.8362396 -3.3665032 1.0275117 6
1.2115288 -2.2350779 -0.68121177 19
1.3146435 -2.4283428 -0.63751131 7
1.4524791 -2.6874251 -0.59379762 10
1.6505115 -3.057657 -0.55033648 15
1.9603519 -3.6362059 -0.50722027 10
2.0839865 -3.8720019 -0.38470542 40
2.1097434 -3.9247801 -0.23352307 45
2.1584988 -4.0205269 -0.079652779 21
2.2313128 -4.1198487 0.081781976 37
2.5951366 -4.7976036 0.28585902 8
2.1459403 -3.972147 0.39498982 11
1.8168103 -3.3685465 0.46992823 6
1.7302817 -3.2121382 0.577869 12
1.6510204 -3.0688434 0.67737198 20
1.7039993 -3.1726246 0.83141911 4
1.8263904 -3.4047761 1.0352762 1
1.1986216 -2.2485957 -0.68276465 18
1.2875853 -2.4185395 -0.6325624 6
1.4373678 -2.7044339 -0.5953241 10
1.6161588 -3.0446782 -0.54595637 17
1.9200418 -3.6217408 -0.5033204 10
2.0503807 -3.8741295 -0.38348526 44
2.1401589 -4.0488901 -0.24001274 18
2.3955083 -4.537725 -0.089565754 28
2.2147169 -4.1582704 0.082235746 30
2.2417345 -4.2143145 0.25016591 16
1.9199888 -3.614017 0.3580358 42
2.101115 -3.9616253 0.55060571 12
1.7503482 -3.3044374 0.59226096 44
1.6414908 -3.1028547 0.68233299 18
1.6909093 -3.2016752 0.83591813 26
2.2081556 -4.1863685 1.2682134 1
1.1882755 -2.2671754 -0.68587047 16
1.282418 -2.4499142 -0.6384111 10
1.4184524 -2.7144029 -0.5953241 12
1.611315 -3.0874088 -0.551588 15
1.9103091 -3.6649826 -0.50746399 19
2.0821433 -4.0014653 -0.39464122 57
2.1302607 -4.0991769 -0.24210617 24
2.3066573 -4.4442954 -0.087401658 28
nan nan nan nan
1.9864043 -3.7980266 0.22462595 12
1.894712 -3.6273329 0.3580358 41
2.1119564 -4.0501237 0.56084275 2
1.7126375 -3.2885439 0.58725506 28
1.6822973 -3.2344193 0.70866466 10
1.7744826 -3.4174819 0.88900661 35
1.9458693 -3.7523599 1.1325922 8
1.1724186 -2.2754159 -0.68587047 28
1.2670667 -2.4622731 -0.63931096 7
1.3931884 -2.7120152 -0.5926528 18
1.5861146 -3.0915523 -0.55033648 12
1.8747188 -3.6587963 -0.50478286 10
2.0940795 -4.0939512 -0.40231091 20
2.0643384 -4.0410256 -0.23781461 34
2.0138466 -3.9472861 -0.077349067 24
1.9697216 -3.8260911 0.075115159 1
3.5014122 -6.8100872 0.40131214 2
1.8738925 -3.6493337 0.35890734 50
2.4467478 -4.7731447 0.65858197 10
1.7040405 -3.3285542 0.59226096 9
1.6069455 -3.1429513 0.68614918 6
1.5574501 -3.0513997 0.79092801 34
1.8125901 -3.5558736 1.0694402 15
1.1547593 -2.2800982 -0.68483526 22
1.2551235 -2.4814925 -0.64201033 11
1.3874942 -2.7479632 -0.59837705 10
1.5876182 -3.1484091 -0.55847108 17
1.8598443 -3.6930709 -0.50770777 15
1.9793279 -3.9354558 -0.38540271 36
2.0262191 -4.0357046 -0.23666322 22
1.9916188 -3.9719744 -0.077558495 40
1.8589962 -3.6738119 0.071869008 26
2.0187609 -3.994735 0.23456979 22
1.8977441 -3.7601552 0.36849448 37
2.2249057 -4.416049 0.60715312 47
2.7559872 -5.4772873 0.97114527 1
nan nan nan nan
1.7507951 -3.4886494 0.90115392 34
1.6241786 -3.2419965 0.97160673 13
1.1422561 -2.2950225 -0.68690574 27
1.2351667 -2.4849591 -0.64066064 16
1.3827245 -2.78548 -0.60448295 16
1.5617642 -3.1502936 -0.55690676 12
1.8392996 -3.716639 -0.50917011 10
1.9650471 -3.97597 -0.38801736 48
1.9253309 -3.9007521 -0.22797546 56
1.942629 -3.9427309 -0.076720782 32
1.9755676 -3.97105 0.077418879 13
1.841337 -3.7061 0.21688022 23
nan nan nan nan
1.8696728 -3.774699 0.51721358 10
1.6343373 -3.3039262 0.58381349 4
1.7341481 -3.5118673 0.76132792 10
2.1969976 -4.4550705 1.1468005 9
1.5636649 -3.1749885 0.94831306 26
1.1359471 -2.3218327 -0.69259977 27
1.2267784 -2.5108182 -0.64515966 15
1.364105 -2.7968297 -0.60486454 27
1.5501132 -3.1824307 -0.5606612 22
1.82112 -3.7454567 -0.5113638 4
1.9581285 -4.0326061 -0.39220083 57
2.0165713 -4.1585045 -0.24221084 16
1.9028587 -3.9309976 -0.076232105 37
1.9767766 -4.0440311 0.078570738 31
1.8075331 -3.7027113 0.21593818 33
2.3346522 -4.788867 0.46610889 30
1.7451178 -3.5859601 0.48967105 7
1.8650914 -3.8375947 0.67579699 1
1.6050427 -3.3083923 0.71477056 12
nan nan nan nan
1.575959 -3.2571261 0.96953619 18
1.1226494 -2.3368669 -0.69467032 23
1.2180526 -2.5388594 -0.65010858 25
1.341153 -2.7992027 -0.60333806 25
1.5460514 -3.2326467 -0.56754434 15
1.7863724 -3.7401662 -0.50892639 18
1.9222088 -4.029994 -0.39063203 44
1.95156 -4.0988927 -0.23791927 24
2.0101826 -4.2277198 -0.081712164 15
1.8489503 -3.8504303 0.074556686 12
1.9657379 -4.1009736 0.23833798 30
1.9837497 -4.1441174 0.40196225 3
1.8296299 -3.8272998 0.52086961 1
1.7431515 -3.652952 0.64106852 16
1.5819066 -3.3195169 0.71477056 2
1.8339481 -3.8536022 0.98528564 13
1.5832825 -3.3328834 0.98868877 37
1.0964155 -2.3236818 -0.68845868 20
1.2011294 -2.5490639 -0.65055853 32
1.3210884 -2.808728 -0.60333806 21
1.5184065 -3.2326336 -0.56566709 22
1.76359 -3.7597346 -0.50990134 21
1.9802346 -4.2273483 -0.4084118 22
1.9068239 -4.0780416 -0.23593052 24
1.9180104 -4.1075706 -0.079129212 43
1.9253783 -4.0842338 0.078815073 27
1.907285 -4.0513511 0.23467445 9
1.7614976 -3.7467668 0.36221924 7
1.8376155 -3.9157705 0.53110665 7
1.7008415 -3.6292586 0.6348111 12
2.0555112 -4.3920369 0.94259644 53
1.9134398 -4.0940528 1.043323 13
nan nan nan nan
1.0817908 -2.3347855 -0.68949395 23
1.1841226 -2.5591559 -0.65100837 23
1.3151156 -2.8461702 -0.60944396 26
1.5029889 -3.2572432 -0.56817007 15
1.749756 -3.7990012 -0.51355743 4
1.9481765 -4.2356386 -0.40788889 15
2.0757599 -4.519258 -0.26063308 14
1.9742938 -4.3062716 -0.082689509 7
1.9210635 -4.1480517 0.079792403 28
1.8285223 -3.9536607 0.22828946 6
1.722771 -3.7318389 0.3596046 30
1.6679741 -3.6181154 0.4891836 13
1.6744468 -3.6371632 0.63418543 15
1.673943 -3.6427624 0.77926397 3
1.9929098 -4.3428755 1.10316 21
2.8288927 -6.1731434 1.8194979 33
1.0706749 -2.3526447 -0.69259977 20
1.1561942 -2.5440927 -0.64515966 21
1.3025128 -2.8713732 -0.6128785 16
1.4639106 -3.2316694 -0.56191266 17
1.7369474 -3.8397615 -0.51745731 15
1.8185315 -4.0276008 -0.38662288 22
1.8775073 -4.1640291 -0.2393847 24
1.8940339 -4.2065601 -0.080525406 19
1.9086118 -4.1977692 0.080490492 30
1.6712401 -3.6808126 0.21185598 9
1.7121391 -3.7761414 0.36274219 13
1.6279417 -3.5971189 0.48479629 29
1.7401285 -3.8503737 0.66922677 18
1.6596079 -3.677335 0.78422499 13
nan nan nan nan
2.2864361 -5.0828056 1.493386 3
1.0589517 -2.3706455 -0.69570565 11
1.1455498 -2.56812 -0.64920878 27
1.2792411 -2.8732228 -0.61135209 23
1.442116 -3.2436154 -0.56222552 37
1.7060708 -3.8427224 -0.51623857 13
1.8000559 -4.0620565 -0.38871458 24
1.8403095 -4.1587706 -0.23833798 20
1.8573468 -4.2032189 -0.080211259 12
1.8874091 -4.2292528 0.080839552 9
1.8503776 -4.1521139 0.23823328 1
1.6176901 -3.6350987 0.34810004 27
1.6019839 -3.6065817 0.48455253 31
1.7043951 -3.8425651 0.66578513 4
1.6656982 -3.7606337 0.79948968 36
1.5790732 -3.5717931 0.90160394 13
2.0503831 -4.6444488 1.3603529 3
1.0516826 -2.3992126 -0.70191729 13
1.1315001 -2.584981 -0.65145832 7
1.2850889 -2.941452 -0.62394547 21
1.4233857 -3.2626572 -0.56378984 41
1.6815807 -3.8599994 -0.5169698 12
1.8797007 -4.3230152 -0.41242099 24
1.8215718 -4.1953335 -0.23969871 16
1.7690942 -4.080317 -0.077628307 34
1.6380413 -3.7404277 0.071275629 30
1.756526 -4.0167069 0.22975488 6
1.5938679 -3.6499553 0.34844866 22
1.5743873 -3.6122184 0.48382133 38
2.2246168 -5.1113868 0.88291621 4
1.6589667 -3.8171849 0.80903018 15
1.6370776 -3.7740231 0.94974339 4
1.9587843 -4.5221524 1.3204948 6
1.0333811 -2.4029467 -0.70088202 12
1.1241912 -2.6178861 -0.65775692 13
1.2691631 -2.9611785 -0.62623513 16
1.4052372 -3.283411 -0.56566709 39
1.6506917 -3.8625181 -0.51575112 13
1.7267494 -4.0483079 -0.38505405 16
1.7014524 -3.9947939 -0.22755675 13
1.6004747 -3.7631752 -0.07138034 27
1.8029156 -4.1963992 0.079722598 16
1.5953634 -3.7186756 0.21206531 9
1.5950228 -3.7232616 0.35437521 41
1.5631784 -3.6559761 0.48820862 40
nan nan nan nan
nan nan nan nan
1.7037759 -4.0041251 1.0046314 18
1.9611621 -4.6157274 1.3437886 18
1.0124944 -2.3992455 -0.69777614 22
1.1199672 -2.6578019 -0.66585517 10
1.2497391 -2.9715586 -0.62661678 16
1.3996818 -3.3329682 -0.57255018 13
1.6427859 -3.9175999 -0.52160084 15
1.6953079 -4.0507774 -0.38418248 18
1.6541989 -3.95837 -0.22483528 31
1.6703135 -4.00282 -0.075708538 16
1.6259328 -3.8566313 0.073055774 23
1.6723052 -3.9724333 0.22588199 15
1.5673267 -3.7285223 0.35385233 38
1.5313454 -3.6500571 0.48601499 39
21.771347 -51.969612 8.9242744 59
4.8897557 -11.689337 2.4629626 42
1.6254289 -3.8933449 0.97403818 45
1.5067412 -3.6143768 1.0492525 15
1.0038452 -2.4258914 -0.70347023 25
1.0984086 -2.6583517 -0.66405559 12
1.2222271 -2.9638762 -0.62318224 21
1.3748758 -3.3390052 -0.57192445 17
1.6229444 -3.9473329 -0.5240382 27
1.6919465 -4.1233411 -0.38993478 17
1.6431829 -4.0104809 -0.22713807 15
1.610526 -3.9366498 -0.07424254 36
1.6043171 -3.8808246 0.073300108 27
1.7786549 -4.3089356 0.24430427 13
1.5458138 -3.7504256 0.35489815 32
1.5201743 -3.6955395 0.490646 41
nan nan nan nan
4.8564544 -11.841256 2.4877679 15
1.6565268 -4.0470748 1.0095805 21
nan nan nan nan
0.98833752 -2.4364207 -0.70450544 30
1.0754335 -2.655118 -0.66135615 22
1.2088633 -2.9905384 -0.62699842 16
1.3729728 -3.4016445 -0.58099771 19
1.5923802 -3.9512019 -0.5230633 14
1.6073132 -3.9942877 -0.37668711 16
1.6769223 -4.1756859 -0.23582584 38
1.5651422 -3.9032526 -0.073404826 31
nan nan nan nan
1.532773 -3.7880347 0.21415874 13
1.884565 -4.6644616 0.44013649 9
1.5574367 -3.8625531 0.5113638 12
1.5330466 -3.807811 0.65014172 18
4.8315172 -12.018776 2.5179157 21
nan nan nan nan
1.5179087 -3.7892873 1.0937693 26
0.97772706 -2.4594181 -0.70916426 20
1.0604662 -2.6716175 -0.66360563 9
1.1675022 -2.9457686 -0.61593145 16
1.3548752 -3.4237688 -0.58318776 13
1.5793397 -3.9991491 -0.52793807 22
1.6137397 -4.0925264 -0.38487977 18
1.6579721 -4.211163 -0.23718657 12
1.5466295 -3.9364181 -0.073823676 16
1.6555104 -4.1664639 0.078256592 10
1.583553 -3.9914553 0.22504464 8
nan nan nan nan
1.5267305 -3.8619876 0.50990134 23
1.4244128 -3.6086917 0.61447465 42
nan nan nan nan
1.4843071 -3.7739265 0.93624634 15
1.4843134 -3.7797513 1.0880753 9
0.95535219 -2.4516163 -0.70502311 13
1.0479094 -2.6933029 -0.66720486 14
1.1689368 -3.0105817 -0.62776166 17
1.3345098 -3.442353 -0.58475208 15
1.5549484 -4.0172114 -0.52891296 22
1.5686175 -4.060946 -0.38087061 34
1.5731944 -4.0791478 -0.22912684 22
1.5047096 -3.9076657 -0.07309068 31
1.6104244 -4.1369228 0.077488683 27
1.4811229 -3.8106697 0.21426344 19
1.5187703 -3.9135971 0.36727428 20
1.5463294 -3.9928756 0.52574438 18
1.3963349 -3.6111782 0.61322314 13
4.7749453 -12.368132 2.5770664 30
1.4565226 -3.78056 0.93534648 16
1.7928852 -4.6608973 1.3380945 6
0.94096899 -2.465445 -0.70709366 11
1.0263058 -2.693269 -0.66540527 37
1.1506819 -3.0260093 -0.62928808 22
1.3160543 -3.4663599 -0.58725506 18
1.5402341 -4.0632372 -0.53354406 11
1.6001459 -4.2301974 -0.39568707 36
1.5199802 -4.0246353 -0.22546332 33
1.4809201 -3.9274311 -0.07326521 30
1.530212 -4.0135331 0.074975535 27
1.4750897 -3.8750484 0.21729892 5
1.4517729 -3.8198099 0.35751286 36
1.515601 -3.9961491 0.52476943 27
nan nan nan nan
nan nan nan nan
1.5071366 -3.9948456 0.98573565 13
1.7684746 -4.6949949 1.3443062 21
0.9271152 -2.4810023 -0.70968187 13
1.0129277 -2.7149749 -0.6690045 21
1.1432278 -3.0707667 -0.63692045 28
1.290446 -3.47176 -0.58662933 15
1.5242615 -4.1073899 -0.53793132 13
1.52837 -4.1272926 -0.38505405 26
1.5680319 -4.2412152 -0.23697723 12
1.5746456 -4.2659693 -0.079373546 16
1.5119456 -4.0503464 0.075464211 27
1.4521855 -3.8964806 0.21792693 9
1.551527 -4.1697021 0.38923752 8
1.4040582 -3.7814572 0.49527705 27
1.749513 -4.719418 0.79719013 10
nan nan nan nan
2.5661712 -6.9484386 1.710078 14
1.3500274 -3.6613774 1.0456289 28
0.92238033 -2.5218863 -0.71951699 12
0.98459119 -2.6963527 -0.66270584 14
1.1257955 -3.0897405 -0.63921016 27
1.2729306 -3.4992478 -0.58975804 16
1.4887729 -4.0992732 -0.53549391 16
1.5124166 -4.1734529 -0.38836598 38
1.5574102 -4.3046455 -0.23990804 14
1.5224071 -4.2147942 -0.078221686 24
1.7938091 -4.9097772 0.091241181 10
1.649435 -4.5219607 0.25225934 4
1.4542029 -3.9932208 0.37180638 32
1.4176245 -3.9012451 0.50965762 13
1.7151755 -4.7278032 0.79656434 24
2.7826052 -7.6826701 1.5882941 1
2.5235605 -6.9826798 1.7141272 21
1.3283677 -3.6816161 1.0487348 31
0.90279937 -2.5228076 -0.71796405 9
0.98147827 -2.7472041 -0.67350352 13
1.1061752 -3.1030724 -0.64035505 26
1.2537692 -3.5229375 -0.59226096 18
1.4760697 -4.1544595 -0.54134369 4
1.4686549 -4.1404619 -0.38435683 28
1.4793415 -4.1798506 -0.23237166 39
1.4669633 -4.1517863 -0.076860398 19
1.5138065 -4.2348828 0.078500926 11
1.4768537 -4.1383419 0.23027822 11
1.4042237 -3.9413404 0.36605412 37
1.581187 -4.4478574 0.57961065 31
1.6768419 -4.7247696 0.79406142 37
2.6364527 -7.4409842 1.5344861 9
4.4671493 -12.628846 3.0926273 17
1.3688577 -3.8784378 1.1020516 9
0.88005942 -2.5144618 -0.71382296 19
0.97256041 -2.7834239 -0.68070197 23
1.0837348 -3.1068227 -0.63959181 31
1.2395052 -3.5593724 -0.59695399 30
1.4489846 -4.1702881 -0.54207492 17
1.4403666 -4.1524963 -0.38453114 22
1.5149033 -4.3747797 -0.24262951 18
1.6136049 -4.6703544 -0.086249799 20
1.528523 -4.3696666 0.080804639 34
1.4341642 -4.1068163 0.22797546 35
1.3629068 -3.9115367 0.36239356 42
1.479136 -4.2522779 0.5527994 43
1.641403 -4.7267437 0.79249716 34
1.6036257 -4.6283822 0.95213693 30
2.5283318 -7.3096371 1.7856616 23
1.4048504 -4.0684443 1.1532978 4
0.86980689 -2.5404985 -0.71951699 22
0.95800358 -2.8028874 -0.68385124 13
1.0632859 -3.1180291 -0.64035505 33
1.2292675 -3.6109488 -0.60415 9
1.4256752 -4.1950903 -0.54402483 14
1.4586849 -4.3020802 -0.39743021 31
1.508018 -4.455246 -0.24650237 22
1.3730928 -4.0636334 -0.074870825 42
1.4818041 -4.3329287 0.079932027 11
nan nan nan nan
1.3336793 -3.9131799 0.3616963 41
1.4391881 -4.23243 0.54889959 33
1.3848566 -4.0796556 0.68236721 39
nan nan nan nan
1.6433791 -4.8607411 1.1845924 3
1.2683017 -3.7578311 1.0627111 11
0.85572791 -2.5575008 -0.72262281 13
0.94149959 -2.818749 -0.68610078 20
1.0483195 -3.1458645 -0.64455283 33
1.2015343 -3.6119449 -0.60289848 15
1.4007324 -4.2181287 -0.54573095 16
1.4054315 -4.2421803 -0.39098063 38
1.4649625 -4.429637 -0.24451362 8
1.3534669 -4.0997043 -0.075359493 22
1.4718015 -4.4038587 0.081048973 19
1.3084195 -3.9218228 0.21667089 35
1.3201784 -3.9639821 0.36553118 26
1.4728252 -4.4326406 0.5735172 26
1.3980082 -4.2148452 0.70332944 4
2.4387701 -7.3655343 1.5081544 9
2.5177133 -7.6217847 1.8531468 2
nan nan nan nan
0.84085315 -2.5725939 -0.72521096 18
0.92179805 -2.8252532 -0.68610078 20
1.0348388 -3.1792421 -0.64989549 26
1.179341 -3.6296387 -0.6044628 12
1.3724751 -4.2315817 -0.54621845 13
1.4311428 -4.4203496 -0.40649435 38
1.4094477 -4.3637328 -0.24032672 16
1.3462898 -4.1756659 -0.076581158 26
1.3516554 -4.1402884 0.076022685 25
1.4183915 -4.3524323 0.23990804 34
1.3091142 -4.0242581 0.37023759 15
1.3480905 -4.1539278 0.53622514 27
1.4075122 -4.3447723 0.72335303 48
nan nan nan nan
1.4744368 -4.5676699 1.108109 29
1.1902475 -3.6961019 1.0404526 24
0.82933378 -2.5986457 -0.730905 13
0.90855813 -2.8520443 -0.69104964 27
1.0078204 -3.1693738 -0.64646095 33
1.17672 -3.7072461 -0.61603898 19
1.3506899 -4.2656627 -0.54938704 14
1.4278687 -4.517622 -0.41451269 31
1.3484643 -4.2741809 -0.2348838 46
1.4972019 -4.7572002 -0.087052606 15
1.4218802 -4.458025 0.081677265 15
1.2536162 -3.9375865 0.21656621 17
1.4480467 -4.559299 0.41852185 8
1.3641771 -4.3030362 0.55426186 17
1.3534704 -4.2770362 0.71052545 39
1.4940878 -4.7328782 0.96473032 15
nan nan nan nan
1.2259227 -3.8976166 1.0948045 45
0.81162637 -2.6042306 -0.730905 10
0.88970309 -2.8600235 -0.69149959 27
0.98217833 -3.1650822 -0.64417118 37
1.1513944 -3.7172575 -0.6163519 19
1.3339367 -4.3145843 -0.55450553 13
1.3857266 -4.4932098 -0.41137511 36
1.3015519 -4.2281332 -0.23184831 37
1.3796239 -4.4901142 -0.081991412 12
1.3919113 -4.4716616 0.08174707 16
1.2462448 -4.0110917 0.22012506 11
1.2741603 -4.1085291 0.37633851 51
1.3563967 -4.3845186 0.56352389 5
1.2670448 -4.1032987 0.68017709 10
2.1505435 -6.977447 1.4192374 8
1.2490221 -4.0625315 0.98123652 16
1.2162527 -3.9633324 1.1108514 50
0.79286379 -2.607985 -0.73038733 11
0.86801744 -2.8605704 -0.69014984 21
0.9606275 -3.1737409 -0.64455283 45
1.1128477 -3.6836035 -0.60946876 18
1.3118058 -4.3503995 -0.55791789 17
1.3956425 -4.6401472 -0.42392552 35
1.2714278 -4.2352033 -0.23174362 43
1.3161018 -4.392365 -0.080036737 12
1.2613115 -4.1540718 0.075778343 7
1.2297971 -4.0579224 0.2222185 28
1.2402545 -4.1001611 0.37476969 45
1.2638248 -4.1886311 0.53720009 10
1.3779265 -4.5754538 0.75683004 9
1.2218469 -4.0648923 0.82505816 21
1.2273459 -4.0935521 0.98663539 12
1.1542152 -3.8569798 1.0787579 31
0.78177422 -2.6375353 -0.73711663 11
0.85134262 -2.8777728 -0.69284928 45
0.95122647 -3.2236788 -0.65333003 19
1.0815235 -3.6723337 -0.60634005 13
1.2853221 -4.3727827 -0.55962408 15
1.2860659 -4.3837972 -0.39969626 21
1.2519262 -4.2784805 -0.23362774 33
1.3044649 -4.4667096 -0.081223503 3
1.4224294 -4.8051209 0.087471463 16
1.2444477 -4.2119799 0.23017356 9
1.220053 -4.1373854 0.37738436 25
1.2048644 -4.0964174 0.52428192 7
1.3403862 -4.5660076 0.75370133 4
1.1967508 -4.0846276 0.82734787 15
1.2344587 -4.221518 1.0154291 4
1.1332103 -3.885344 1.0844518 28
0.76709449 -2.6559207 -0.74074018 13
0.81665808 -2.8330889 -0.68070197 22
0.9357754 -3.2527196 -0.65790945 22
1.0739465 -3.7403679 -0.6163519 19
1.2525769 -4.3740158 -0.55864912 15
1.259263 -4.4060783 -0.40091643 19
1.2518098 -4.3886976 -0.23917533 20
1.2453446 -4.3776145 -0.07944335 9
1.3669528 -4.73592 0.086040363 8
1.1892111 -4.1282306 0.2251493 15
1.2929225 -4.500062 0.409632 10
1.3060844 -4.5548573 0.58180428 1
1.2571006 -4.3927088 0.72366595 18
1.1843709 -4.1495185 0.83879644 46
1.3688565 -4.805408 1.1535491 24
1.0988138 -3.8650947 1.0766873 17
0.74952173 -2.6629403 -0.74125779 11
0.81263798 -2.8929894 -0.69374907 17
0.91304433 -3.2591734 -0.65790945 24
1.0557863 -3.7763104 -0.62104493 18
1.2337399 -4.4247217 -0.56401139 15
1.2327449 -4.4301176 -0.40231091 15
1.2104527 -4.3588414 -0.2370819 38
1.1928706 -4.307189 -0.078012258 14
1.2056125 -4.2891016 0.077767923 8
1.1630591 -4.1460481 0.22567266 15
1.2730041 -4.5471311 0.41311821 20
1.0991572 -3.9367392 0.501858 5
1.1701993 -4.1996708 0.69050181 48
1.1732448 -4.2219992 0.85177141 22
nan nan nan nan
1.0460391 -3.7795787 1.0508054 15
0.72942716 -2.6645088 -0.74022251 24
0.80475444 -2.9457269 -0.70499665 13
0.89491636 -3.282515 -0.66134399 17
1.0365103 -3.8123612 -0.62573791 21
1.2059382 -4.4447222 -0.56547379 15
1.2908274 -4.7674737 -0.43211815 15
1.1880813 -4.4001708 -0.23886132 16
1.1726568 -4.3520975 -0.078675449 16
1.2679811 -4.6349573 0.083876267 11
1.117591 -4.0964589 0.22253251 38
1.2037963 -4.4215546 0.40091643 17
nan nan nan nan
1.1607815 -4.2842031 0.70301658 18
1.1688511 -4.3229518 0.8704707 55
1.6762782 -6.2125654 1.4855769 1
1.0651464 -3.9585929 1.0984281 23
0.70782548 -2.6583352 -0.73711663 23
0.78417015 -2.9512732 -0.70499665 7
0.87442166 -3.3002217 -0.6636337 16
1.0028013 -3.792768 -0.62135774 21
1.1834884 -4.4856629 -0.56961739 24
1.4025913 -5.327414 -0.48197123 23
1.1659549 -4.4411988 -0.24064074 24
1.1817722 -4.5110621 -0.081398018 17
1.144858 -4.3057165 0.077767923 11
1.0956243 -4.1292572 0.22389325 33
1.2019666 -4.5396338 0.41085216 16
1.1751496 -4.4509082 0.56523001 8
1.092092 -4.1451173 0.67892563 43
1.1061957 -4.2075887 0.84566551 13
1.0978088 -4.184597 0.99878269 13
1.014994 -3.8799603 1.0746168 24
0.69215375 -2.6744335 -0.74022251 10
0.76062411 -2.9453549 -0.70229727 11
0.8504681 -3.3003933 -0.66248888 17
0.98089629 -3.8148115 -0.62386072 19
1.1462282 -4.4707408 -0.56669247 24
1.2310504 -4.8120546 -0.43455851 5
1.1169263 -4.3754945 -0.23666322 44
1.1433449 -4.4920721 -0.080909356 15
1.1280403 -4.3618088 0.078640543 12
1.0639986 -4.1230822 0.22316055 28
1.1722307 -4.5556326 0.41154939 15
1.1413708 -4.4453449 0.56352389 11
1.0324761 -4.0299864 0.65890205 24
1.0976887 -4.2970028 0.86207509 8
1.0772322 -4.2261496 1.006881 36
nan nan nan nan
0.68194515 -2.7109323 -0.74902231 13
0.74814856 -2.9807055 -0.70949566 8
0.82931286 -3.3138688 -0.66401535 16
0.96141922 -3.8503141 -0.62855375 19
1.128728 -4.530447 -0.57327342 19
1.1982672 -4.8203225 -0.43455851 7
1.1118176 -4.4859314 -0.24221084 16
1.0402557 -4.2066264 -0.075638726 8
1.1189971 -4.4549136 0.080176361 12
1.0512116 -4.1943417 0.22661473 26
1.1378108 -4.5499763 0.41032922 12
2.128412 -8.5365934 1.0802499 18
1.1030312 -4.4339051 0.72366595 10
1.8563651 -7.4788275 1.4978507 3
0.99316156 -4.0101762 0.95379257 12
1.0452236 -4.2330556 1.1683092 24
0.66529393 -2.7250104 -0.75161052 7
0.72732145 -2.9858558 -0.70949566 11
0.822501 -3.3842993 -0.67699033 22
0.94310212 -3.8894048 -0.63387251 14
1.0994043 -4.547864 -0.57449216 14
1.1328214 -4.6968651 -0.42270535 7
1.2027471 -4.998271 -0.26942554 15
1.0589105 -4.4140725 -0.07923393 16
1.0791687 -4.4235735 0.079478264 12
1.0372801 -4.2615585 0.22985955 11
1.1097776 -4.573298 0.41172373 22
nan nan nan nan
nan nan nan nan
0.9726094 -4.0387859 0.80750376 48
1.0302424 -4.2879705 1.0181285 15
1.0163863 -4.2400723 1.1683092 27
0.64847893 -2.7389879 -0.75419873 18
0.70869839 -3.0003436 -0.71174514 10
0.80186188 -3.4053862 -0.68004328 17
0.91118032 -3.8787467 -0.63105673 16
1.0676273 -4.5554285 -0.57449216 17
1.042395 -4.4582705 -0.40056777 48
1.0604105 -4.5496459 -0.24482764 12
1.0063304 -4.3278661 -0.077558495 21
1.0364463 -4.3844762 0.078640543 11
0.98475325 -4.1755629 0.22483528 26
1.0737166 -4.5634799 0.41015494 13
1.6876278 -7.1952338 0.90743923 1
0.97755611 -4.177671 0.67955142 12
0.99883944 -4.2787237 0.85406113 25
0.99630362 -4.2779775 1.0140795 28
1.1065956 -4.7666154 1.3111774 4
0.62804562 -2.7377999 -0.75264585 20
0.69034314 -3.0166161 -0.71444458 12
0.77822697 -3.4088516 -0.67966169 19
0.88212597 -3.8733029 -0.62917954 17
1.0432693 -4.5956802 -0.57863569 22
1.0253268 -4.5276213 -0.40614575 24
1.0254563 -4.5392251 -0.24388559 14
0.96642727 -4.2918673 -0.076790586 14
0.99719644 -4.3504972 0.07790754 5
0.97055548 -4.2444735 0.22818479 20
1.0790237 -4.7340398 0.42479706 8
1.5629095 -6.8736162 0.86551613 1
0.939484 -4.1418462 0.67266828 15
nan nan nan nan
0.9505493 -4.2144914 0.99743301 18
0.90577573 -4.0257964 1.105675 12
0.61149132 -2.7514405 -0.755234 22
0.67696434 -3.0535884 -0.72209293 8
0.75822204 -3.4314544 -0.68309623 15
0.855914 -3.8832245 -0.62980521 16
1.0256044 -4.6647158 -0.58643532 15
1.0000907 -4.5638623 -0.4087604 18
0.97625506 -4.4662738 -0.23959403 18
0.96275073 -4.4155731 -0.078884877 11
0.96333474 -4.3417354 0.077628307 8
0.96895415 -4.3779001 0.23498847 18
1.0592321 -4.7976952 0.4298521 16
4.0194993 -18.266529 2.2965062 16
0.91478115 -4.1675982 0.67579699 10
1.594385 -7.2819753 1.4490036 2
0.93813896 -4.2990866 1.015879 30
1.0284432 -4.7247891 1.2956481 21
0.59470367 -2.7669747 -0.75833982 29
0.65195334 -3.0410912 -0.7180438 18
0.74081141 -3.4673829 -0.68920213 17
0.84031117 -3.9432013 -0.6385656 17
0.99590266 -4.6853547 -0.5881415 12
1.0553224 -4.9820013 -0.44554016 5
0.96941048 -4.588274 -0.24576966 14
0.93190122 -4.4221869 -0.078884877 6
0.93006361 -4.3346686 0.077383965 11
0.91955793 -4.2966714 0.23027822 16
1.0294557 -4.8225098 0.43142092 23
3.898901 -18.32715 2.3006496 5
0.8791036 -4.1429658 0.67079103 10
nan nan nan nan
nan nan nan nan
0.88924867 -4.2270975 1.1574388 6
0.57890677 -2.7880826 -0.76299858 37
0.63426363 -3.0627425 -0.72209293 11
0.71817356 -3.4801612 -0.6907286 20
0.81355935 -3.952841 -0.63919127 16
0.96676141 -4.7096934 -0.59033519 40
0.95703351 -4.6788831 -0.41782463 14
0.91899085 -4.50491 -0.24095476 16
0.91097271 -4.4775739 -0.079757497 21
0.91114372 -4.3958821 0.078361303 13
0.89681768 -4.3381925 0.23216233 30
0.98691183 -4.7866492 0.42758605 12
1.7014606 -8.2815304 1.0380832 8
1.4703306 -7.1756058 1.1601181 28
nan nan nan nan
0.84846991 -4.1666403 0.98168647 25
0.8597163 -4.2332029 1.1574388 1
0.56018764 -2.7958446 -0.76403385 30
0.61515766 -3.0785618 -0.72479236 20
0.69654334 -3.4985683 -0.69339991 12
0.79209876 -3.9894254 -0.64419717 14
0.92884618 -4.6910133 -0.58716655 21
0.95442432 -4.8379183 -0.43142092 15
0.90988022 -4.6248779 -0.24702574 16
0.86544681 -4.4112201 -0.078466021 34
0.89533561 -4.4766488 0.079687685 8
0.85478938 -4.2855878 0.22902218 16
0.98689902 -4.9614754 0.44257683 4
1.6547946 -8.3496771 1.0451516 18
1.4680758 -7.4279323 1.1992267 38
1.4810175 -7.5140929 1.4886919 25
0.84114057 -4.2833705 1.0077808 16
0.84536386 -4.3168316 1.1786621 24
0.53882378 -2.7902033 -0.76144564 31
0.5988093 -3.1095715 -0.73109102 11
0.67543089 -3.5206985 -0.6968345 8
0.76422799 -3.994858 -0.64419717 21
0.89644593 -4.6993332 -0.58741027 19
0.8726424 -4.5919647 -0.40893474 4
0.92479616 -4.8803349 -0.26031908 12
0.84131366 -4.4525232 -0.079094306 16
0.83832455 -4.3492684 0.077314161 15
0.84369934 -4.3895183 0.23425576 18
0.96686411 -5.044559 0.449375 16
1.3805249 -7.230103 0.90378314 10
1.4039907 -7.3739634 1.1889021 31
1.4915085 -7.8560033 1.5543302 29
0.81338942 -4.3006272 1.0104802 13
0.79336745 -4.2068262 1.147086 2
0.52109665 -2.8033936 -0.76403385 30
0.57744086 -3.1155922 -0.73154086 10
0.65760785 -3.56201 -0.70408523 7
0.74132705 -4.0272946 -0.64857739 14
0.86648339 -4.7210975 -0.58936024 21
0.85596985 -4.6822205 -0.41643015 19
0.83841348 -4.5997982 -0.24503697 16
0.81986248 -4.5114098 -0.080036737 22
0.82654315 -4.4552889 0.079094306 23
0.81921011 -4.428689 0.23603518 33
1.3085371 -7.0947809 0.6311819 7
1.3483087 -7.339138 0.91621375 20
1.3389534 -7.3097486 1.177013 26
nan nan nan nan
0.78648502 -4.3234563 1.0145293 31
0.78052729 -4.303503 1.1719327 30
0.5069496 -2.8373907 -0.7723161 10
0.5570429 -3.1272221 -0.7333405 27
0.63512534 -3.5800457 -0.70675659 10
0.71800971 -4.0596046 -0.65295756 17
0.84281051 -4.7798142 -0.59594113 18
0.84960574 -4.8331485 -0.42932916 10
0.80972463 -4.6252127 -0.24608369 22
0.78903449 -4.5209632 -0.080106542 22
0.80419546 -4.5101666 0.079966925 16
0.78093171 -4.3930049 0.23383708 18
1.2554983 -7.0841246 0.62943876 1
1.304975 -7.3933339 0.92181975 43
1.3351324 -7.5873952 1.220189 40
1.3240083 -7.547328 1.4894551 4
0.79027373 -4.5187507 1.0590696 8
nan nan nan nan
0.49104649 -2.8637094 -0.77852774 26
0.54110807 -3.1656103 -0.74143875 22
0.60975218 -3.57848 -0.70561171 15
0.69432962 -4.0877676 -0.656712 17
0.81306207 -4.8071122 -0.59862226 16
0.81054354 -4.8075275 -0.4265402 4
1.172135 -6.9744854 -0.37064329 5
0.75349247 -4.5026946 -0.079687685 29
0.76942551 -4.4918838 0.079548068 11
0.7590794 -4.4454689 0.23634921 24
1.3178954 -7.7507229 0.68783307 1
1.2440052 -7.339416 0.91402018 56
1.2851019 -7.6060462 1.2217534 26
0.72016734 -4.2805982 0.84375745 6
3.2040431 -19.105629 4.4724774 14
0.73417741 -4.3919768 1.1931559 37
0.4712289 -2.8650794 -0.77801007 13
0.52175468 -3.1826816 -0.74458802 31
0.58317441 -3.5729616 -0.70370364 12
0.67243665 -4.1334596 -0.66328222 15
0.79271388 -4.8889556 -0.60812807 18
0.99795181 -6.1820502 -0.54786098 19
0.75983614 -4.7227011 -0.25068927 4
0.77728409 -4.8473282 -0.085691318 11
0.75877428 -4.6234374 0.081781976 12
0.7299608 -4.4624863 0.23697723 21
1.1442392 -7.0181718 0.6221177 2
1.2283592 -7.5673795 0.94131887 23
1.2272381 -7.5855823 1.2170602 10
0.69320166 -4.2989683 0.84642875 8
0.75644875 -4.7121339 1.1018103 4
0.69067913 -4.3168769 1.171415 20
0.45271677 -2.8778412 -0.78059822 28
0.5004285 -3.1920221 -0.74593776 13
0.56548148 -3.6235003 -0.71286243 10
0.64447397 -4.1439095 -0.66422081 15
0.76373237 -4.9277186 -0.61227161 20
0.95902222 -6.2164335 -0.55030131 26
0.72866839 -4.7397346 -0.25131726 4
0.7594738 -4.9573979 -0.087541275 3
0.7193467 -4.5831852 0.080979168 16
0.73397535 -4.6924262 0.24890982 18
1.2428201 -7.9728932 0.70596153 1
1.1831084 -7.6248112 0.94741231 55
1.1990037 -7.7540436 1.2427155 38
0.66377026 -4.3075833 0.84719193 10
0.72471571 -4.7250047 1.1036099 13
0.65994108 -4.3177743 1.1703798 12
0.43060645 -2.8675587 -0.7769748 26
0.47986206 -3.2070017 -0.74863714 18
0.54277349 -3.6448364 -0.71629703 12
0.61581826 -4.1502614 -0.66453367 22
0.73598939 -4.9780965 -0.6178776 16
0.93585098 -6.3529105 -0.5618059 15
1.0605794 -7.2346401 -0.38320392 2
0.71357524 -4.8854098 -0.086179987 11
0.68022263 -4.5406318 0.080141447 17
0.7011987 -4.6974354 0.24890982 33
1.1540064 -7.7586856 0.68626434 17
1.1757747 -7.9431486 0.98592305 42
1.1457057 -7.7680879 1.2436541 21
0.6356796 -4.3257093 0.84986329 3
0.69620699 -4.7548947 1.1094587 14
0.67379129 -4.6243196 1.2521666 9
0.41522673 -2.9030056 -0.78577471 27
0.4541623 -3.1871226 -0.74323833 25
0.52126306 -3.6717718 -0.7208764 6
0.59419352 -4.2012987 -0.67204249 15
0.70232427 -4.9909763 -0.61885256 20
0.9053064 -6.4579444 -0.57052147 18
1.0265032 -7.3504848 -0.38896087 2
0.98243946 -7.0709896 -0.12461019 2
0.68974024 -4.8282394 0.085132837 17
0.68750006 -4.8306265 0.25571349 14
1.121044 -7.9164782 0.69951195 7
1.0645571 -7.5460486 0.93571293 7
1.1092995 -7.8930759 1.2624264 35
2.9802933 -21.313839 4.1832967 52
0.68369645 -4.9082575 1.1441011 4
0.67150629 -4.8392854 1.3091067 19
0.39675984 -2.9153357 -0.78836286 25
0.43847892 -3.2345548 -0.75358605 20
0.49587891 -3.6772668 -0.72125804 10
0.56879294 -4.2347116 -0.67673558 16
0.67807555 -5.0684419 -0.62787092 18
0.86922312 -6.5232048 -0.57575083 18
1.1347151 -8.5612783 -0.4526014 21
0.93166888 -7.0576878 -0.12426113 15
0.67591965 -4.9795699 0.08771579 9
0.94598466 -6.9966493 0.37001523 16
1.0681959 -7.9318237 0.7002092 32
1.0988293 -8.2025776 1.0161467 20
1.0836903 -8.1218843 1.2977805 8
2.9000623 -21.822113 4.2790828 33
0.59503818 -4.4955091 1.0469223 4
0.64350557 -4.887908 1.3210124 19
0.37639731 -2.9180346 -0.78836286 13
0.41489366 -3.2298059 -0.75178647 27
0.47033924 -3.6766624 -0.72049481 9
0.53970581 -4.2365255 -0.67642272 16
0.6336931 -5.0021553 -0.61909634 16
0.83363611 -6.6081834 -0.58272326 12
0.93427044 -7.4372616 -0.39283374 2
0.88906723 -7.1175957 -0.12520356 21
0.89748508 -6.9673648 0.12262061 19
0.92781758 -7.2327256 0.38215721 10
1.0097708 -7.9153709 0.69811749 13
1.0452231 -8.2275887 1.0183402 8
1.0174735 -8.0428429 1.2840142 7
2.8084147 -22.324907 4.373724 56
0.56024808 -4.4724832 1.0406237 4
0.60615468 -4.8595858 1.3122126 27
0.35839921 -2.9358697 -0.79250389 15
0.39407542 -3.2422278 -0.75403601 28
0.44795704 -3.7071433 -0.72583747 12
0.51129586 -4.2499962 -0.67798704 16
0.62371004 -5.2073951 -0.64395767 4
0.7841841 -6.586144 -0.58028293 12
0.87926948 -7.4178195 -0.391473 11
0.85770583 -7.2684541 -0.12775162 16
0.84954667 -6.9794154 0.12272533 19
0.89916742 -7.4194565 0.39168233 21
1.007661 -8.3512964 0.73594308 2
3.9392118 -32.840195 4.0611744 13
0.96130002 -8.0497503 1.2840142 5
2.718971 -22.869879 4.4767609 50
0.53427207 -4.5207968 1.0509714 14
0.57447088 -4.8828855 1.317389 12
0.33899808 -2.9478962 -0.79509211 15
0.3703227 -3.2352192 -0.75178647 30
0.42317536 -3.7199335 -0.72774553 18
0.47961259 -4.2357969 -0.6751712 18
0.59111959 -5.2451572 -0.64810121 16
0.74749905 -6.6746187 -0.58760399 18
0.83719766 -7.5111151 -0.39607856 11
0.80738342 -7.2782397 -0.12782143 16
0.80512786 -7.022923 0.12338851 19
0.84802729 -7.4315066 0.39199635 10
5.1801863 -45.607426 4.0157881 24
3.633482 -32.190308 3.9775717 25
3.6011286 -32.054279 5.1088371 30
2.6172764 -23.407293 4.5782714 37
0.51410335 -4.6270676 1.0748162 35
0.53336227 -4.8234119 1.3003069 16
0.31923884 -2.9578741 -0.79716271 22
0.35084942 -3.2667897 -0.75853503 25
0.401986 -3.7676973 -0.73652273 10
0.45816356 -4.3156509 -0.6873731 20
0.55761504 -5.2787671 -0.6517573 4
0.713359 -6.7985654 -0.59806269 18
0.77810353 -7.4532099 -0.39272904 11
0.76316303 -7.3473473 -0.12893838 16
0.7693398 -7.1516428 0.12555261 21
0.81185609 -7.5842032 0.39974207 15
4.7633204 -44.719246 3.9345586 22
3.4086628 -32.21489 3.9775717 77
3.3859503 -32.161148 5.1219778 30
3.3619351 -32.09441 6.272655 27
nan nan nan nan
0.4937081 -4.769371 1.2847778 16
0.29993874 -2.9734852 -0.80078614 21
0.33153653 -3.3040614 -0.76663327 12
