# .PCD v0.7 - Point Cloud Data file format
VERSION 0.7
FIELDS x y z intensity
SIZE 4 4 4 4
TYPE F F F F
COUNT 1 1 1 1
WIDTH 1424
HEIGHT 1
VIEWPOINT 0 0 0 1 0 0 0
POINTS 1424
DATA ascii
2.585336 13.65636 0.72841191 13
5.7743688 30.414452 2.708452 9
5.7814336 30.336084 3.7918432 36
5.7941585 30.316534 4.8885775 13
5.8054185 30.289434 5.9948373 36
5.8412738 30.361921 7.1381474 17
5.8258057 30.196293 8.2402811 17
0.53748018 2.7471683 -0.75005764 28
0.59090185 3.011848 -0.70859587 30
0.65848899 3.3439922 -0.66248888 15
0.75194812 3.8080854 -0.61478752 18
0.87255049 4.4067097 -0.55158067 11
1.0640903 5.3544378 -0.47761348 5
1.0976049 5.5079947 -0.29433745 45
1.0955616 5.4827628 -0.097593859 25
2.6982665 13.765912 0.24485727 8
2.6833026 13.651699 0.72914463 9
5.9907846 30.394905 2.7103693 9
5.9946194 30.302773 3.7928181 36
6.0072036 30.283094 4.8898292 13
6.0423989 30.377176 6.0204058 24
7.0511546 35.319653 8.3150911 27
6.0383835 30.164352 8.2428694 17
0.55357134 2.7282033 -0.74591655 12
0.61230117 3.0095592 -0.70904577 28
0.68064177 3.3335428 -0.66134399 15
0.77376276 3.7795196 -0.61103308 27
0.89327538 4.3478518 -0.54499972 14
1.0938077 5.3098011 -0.47430155 5
1.136031 5.5001979 -0.29433745 35
1.13477 5.4747825 -0.097593859 31
2.7851431 13.701668 0.24405445 34
2.7741561 13.611106 0.72799325 9
6.2076221 30.375765 2.712461 29
6.211596 30.287413 3.7962303 24
6.2240291 30.267509 4.8942094 27
6.2596183 30.33316 6.0204058 36
7.3263841 35.408875 8.3479338 28
6.2539253 30.146053 8.2495985 17
0.57069355 2.7128291 -0.74281067 28
0.62979972 2.9860327 -0.70454675 26
0.69739741 3.2979779 -0.65523815 20
0.79832661 3.7622924 -0.60915589 30
0.92112905 4.3298602 -0.54353732 14
1.1146444 5.2260418 -0.4675034 2
1.1774504 5.5016928 -0.29486081 47
1.1725414 5.4647722 -0.097558953 40
2.9396474 13.961711 0.24904583 24
2.877264 13.618262 0.72945863 9
6.4318457 30.363701 2.7154243 59
6.4253645 30.254959 3.7976928 24
6.4421058 30.229923 4.8954606 13
6.4757433 30.309839 6.0246034 49
nan nan nan nan
6.4739504 30.121304 8.2552929 17
0.58961874 2.7087789 -0.74281067 29
0.64813799 2.9701395 -0.70184731 41
0.72265893 3.3005741 -0.65676457 19
0.8220318 3.7450504 -0.60727865 22
0.944511 4.292304 -0.53963745 19
1.1343633 5.1422534 -0.46070525 5
1.2162623 5.4952884 -0.29496548 45
1.2123966 5.4642615 -0.097698569 42
3.1353288 14.379921 0.25689942 16
2.9718409 13.595893 0.72935396 13
6.6462264 30.329735 2.71647 59
6.6476669 30.235346 3.801105 36
6.658946 30.21122 4.8998408 13
6.6922569 30.2869 6.0291829 24
6.6977153 30.236452 7.1498451 89
6.6891079 30.098005 8.2615042 17
0.60851526 2.7045965 -0.74281067 33
0.66242635 2.9370275 -0.69509882 38
0.73861426 3.2668548 -0.65104032 27
0.84095514 3.7104707 -0.60258561 18
0.97357172 4.2817349 -0.53915 14
1.1618203 5.0973005 -0.45739332 2
1.2527498 5.4829888 -0.29475614 37
nan nan nan nan
3.1668055 14.063668 0.25162879 25
3.0845461 13.664968 0.73416889 6
6.8608718 30.296202 2.7176902 9
6.8568492 30.204882 3.803055 24
6.8732142 30.203714 4.9060984 27
6.8773179 30.124599 6.0062857 36
8.3171492 36.343761 8.6075277 30
6.8959699 30.061193 8.2640924 17
0.61729962 2.6589921 -0.73142266 27
0.67931098 2.9191642 -0.69194949 31
0.76006269 3.2558832 -0.64989549 28
0.86548656 3.6987391 -0.60164702 16
0.98773319 4.2112322 -0.53110665 22
1.1914457 5.0638523 -0.45512727 5
1.2937484 5.4857721 -0.29538417 15
2.1506362 9.0978374 -0.16317999 6
3.3025014 14.202879 0.2545259 22
3.192111 13.69562 0.73699504 16
8.2835264 35.456146 3.1855423 12
7.0711613 30.171741 3.8050051 12
7.0911222 30.185766 4.9111042 13
7.093461 30.124865 6.0158262 24
nan nan nan nan
7.1079082 30.021715 8.2666807 17
0.62819785 2.6226795 -0.72262281 49
0.70012891 2.9162455 -0.69239938 42
0.77909893 3.2352278 -0.64684254 33
0.87738466 3.6349998 -0.59226096 16
1.0189781 4.2119508 -0.5320816 13
1.2122039 4.9953895 -0.44972363 5
1.5137391 6.2237697 -0.33568287 8
2.187103 8.9718618 -0.16119042 3
3.3264661 13.866411 0.24890622 18
3.2666285 13.585617 0.73228478 19
8.528038 35.385834 3.1844964 12
7.2881575 30.148653 3.8084173 24
7.3007555 30.131683 4.9104786 13
7.3133283 30.114674 6.0238404 36
nan nan nan nan
7.3301411 30.023912 8.2811747 18
0.64556485 2.6144793 -0.72158754 58
0.71438384 2.8866949 -0.68655062 35
0.79693651 3.2106557 -0.64302635 28
0.89606398 3.6019485 -0.58788079 22
1.0397141 4.1700644 -0.52769434 13
1.2412484 4.9636102 -0.44763187 2
1.5304472 6.1064968 -0.32992589 2
2.2073028 8.7876415 -0.15815371 12
3.3982282 13.741905 0.24709117 27
3.3844571 13.655533 0.73730898 9
3.5615337 14.337845 1.2925197 2
7.5051618 30.12401 3.8118296 36
7.5128508 30.087646 4.9117298 27
7.5300632 30.089546 6.0291829 24
nan nan nan nan
7.54004 29.973879 8.2816925 18
0.65951598 2.5930586 -0.71692878 38
0.73500073 2.8835258 -0.68700057 27
0.81495398 3.1878955 -0.63959181 41
0.91481513 3.5707283 -0.58381349 27
1.0688013 4.162704 -0.52769434 13
1.2559973 4.877646 -0.44065943 2
1.6034839 6.2136312 -0.33631086 5
2.2440648 8.6771545 -0.15644337 3
3.4980373 13.733348 0.24737041 24
3.085505 12.087278 0.65378082 8
3.5499511 13.876398 1.2531252 10
7.7221904 30.097797 3.8152421 24
7.732543 30.072731 4.9179873 13
7.7448292 30.055258 6.032999 36
7.7698479 30.065414 7.1691904 54
7.7549262 29.942953 8.2879038 18
0.67466742 2.577178 -0.71382296 31
0.75115752 2.8632448 -0.68340135 20
0.82919753 3.1517501 -0.63348591 27
0.93166196 3.5336938 -0.57880759 33
1.0821147 4.095645 -0.52013838 16
1.2606096 4.761127 -0.43089798 5
1.5473893 5.8277926 -0.31600451 2
2.2706518 8.5337343 -0.15413967 3
3.6288126 13.842063 0.24977884 33
3.1144979 11.854886 0.64237159 8
3.6223915 13.758794 1.2447582 18
7.93822 30.066181 3.818167 36
7.9534326 30.060024 4.9248705 13
7.9574986 30.011837 6.0352888 36
7.971314 30.00053 7.166491 36
7.9761987 29.934755 8.3008451 18
0.68661696 2.5500197 -0.70761132 31
0.7559002 2.8014867 -0.66990429 31
0.85012072 3.1441371 -0.63310426 22
0.95156252 3.5120165 -0.57630467 36
1.1044358 4.0650029 -0.51721358 16
1.3095195 4.8098826 -0.43612733 2
1.5996357 5.8633704 -0.31851667 5
2.2921772 8.3788004 -0.15162651 3
3.7312725 13.847935 0.25033733 21
3.1888666 11.810276 0.64111555 14
3.716789 13.727403 1.2442354 18
8.1499538 30.038277 3.8215792 36
8.168211 30.043316 4.9311275 27
8.1771555 29.993437 6.0429211 37
8.1877537 29.970467 7.1727901 36
8.1848888 29.898397 8.3060217 18
0.71065187 2.5694928 -0.71434063 27
0.77807319 2.8075449 -0.67260373 16
0.86101013 3.098403 -0.6250903 26
0.96651804 3.4710348 -0.57067299 30
1.128879 4.0459189 -0.51575112 16
1.336328 4.7797508 -0.43420991 5
1.6912106 6.0328326 -0.32835582 2
2.3015718 8.1935863 -0.14855488 3
3.8609426 13.941033 0.25250143 31
3.2893932 11.853161 0.64467436 8
3.8144193 13.717139 1.2456299 15
8.3701239 30.01889 3.8264539 24
8.37988 29.993172 4.9323792 13
8.3932838 29.98057 6.0516982 37
10.685899 38.092888 9.133913 35
8.4059591 29.885164 8.3184452 18
0.72012448 2.5347362 -0.70605838 27
0.7987203 2.8057933 -0.67350352 13
0.8740012 3.0641513 -0.61936599 33
0.98143697 3.4339859 -0.56566709 28
1.1483479 4.0074067 -0.51185131 19
1.3454711 4.6860442 -0.4265402 9
1.7123538 5.9520831 -0.32458761 2
2.3249071 8.0601158 -0.14642569 6
3.3662729 11.84092 0.21487403 18
3.4000988 11.936141 0.65043133 8
3.8810833 13.58864 1.2363913 17
8.5873718 30.007025 3.8323038 12
8.591466 29.962019 4.9367595 13
8.6121616 29.955198 6.0585675 37
11.036825 38.313221 9.204998 36
8.6177721 29.856945 8.3267269 18
0.72871298 2.5001004 -0.69777614 31
0.8085146 2.7684908 -0.66585517 20
0.89702821 3.063627 -0.62051088 35
1.0092794 3.4403191 -0.56785715 24
1.1711204 3.9842608 -0.50990134 16
1.3787163 4.6784482 -0.42671451 19
1.7238897 5.8384619 -0.31904003 8
2.3746114 8.0268469 -0.14611155 6
3.4914289 11.963023 0.21752679 14
3.4385009 11.758755 0.6420576 8
3.9723682 13.558084 1.2360427 17
8.8044834 29.973007 3.835716 24
8.8149319 29.950579 4.9448938 28
8.829174 29.941084 6.0677261 25
11.425564 38.646374 9.3039761 38
8.8183079 29.770126 8.3194799 36
0.74670285 2.496803 -0.69829381 30
0.82558531 2.755312 -0.66405559 22
0.91726488 3.0535295 -0.61974764 35
1.0275798 3.4142733 -0.5647285 20
1.1891646 3.9436784 -0.50575781 24
1.413074 4.6744304 -0.42723745 23
1.7443451 5.7593822 -0.31537652 2
2.4242043 7.9890242 -0.14572759 12
3.5501952 11.855983 0.21602589 16
3.6570988 12.189763 0.66696948 6
3.6327541 12.085624 1.1040889 2
9.0203924 29.933617 3.8386409 12
9.0358019 29.928022 4.9514642 14
9.0396929 29.884352 6.0688715 37
nan nan nan nan
9.0377207 29.746655 8.3303499 55
0.76581371 2.4970706 -0.69984674 31
0.84193772 2.7401676 -0.66180605 13
0.94260567 3.060185 -0.62241894 37
1.043236 3.3805909 -0.56034833 27
1.2154951 3.9314871 -0.50527036 18
1.4350563 4.6301956 -0.42409983 23
1.76615 5.6879334 -0.31213167 7
2.3575568 7.5785608 -0.1385372 8
3.6129272 11.765913 0.21483912 36
3.6487393 11.860407 0.65032667 8
3.7581236 12.193247 1.1162907 10
9.2390976 29.902161 3.8427844 12
9.2596922 29.91328 4.959599 14
9.2608833 29.861773 6.0772672 37
9.3004799 29.915567 7.2326264 74
9.2647038 29.745548 8.34795 55
0.77743465 2.4732335 -0.69467032 37
0.85577911 2.7174942 -0.65775692 19
0.95980823 3.0404253 -0.61974764 40
1.0638317 3.3638086 -0.55878401 27
1.2399127 3.9134443 -0.50405163 16
1.460109 4.5972772 -0.42200807 23
1.7955215 5.6431093 -0.31035227 2
2.449883 7.6857591 -0.14080602 18
3.7051861 11.772831 0.21543251 30
3.802321 12.059414 0.66267794 9
3.7081306 11.739245 1.0770707 14
9.4524364 29.852066 3.8447344 49
9.4808588 29.887442 4.9661694 28
9.4893637 29.860003 6.0902419 25
12.575469 39.475563 9.5649195 41
9.4873972 29.727995 8.3614082 56
0.79113036 2.4567122 -0.6915645 30
0.86695319 2.6873434 -0.65190822 23
0.97134596 3.003762 -0.61364174 26
1.0812018 3.3375075 -0.5556553 30
1.2549481 3.8669298 -0.49917686 22
1.4958643 4.5983405 -0.42305395 19
1.8051668 5.5392871 -0.30532798 15
2.4426577 7.4821744 -0.13738534 11
3.8750281 12.01884 0.22042391 25
3.8354616 11.874827 0.65399015 20
3.7709756 11.654308 1.071667 18
9.6771488 29.83633 3.8513153 73
9.6923323 29.82992 4.9677334 14
9.7079239 29.824762 6.0967293 38
12.900339 39.538723 9.6018114 41
9.7001228 29.677561 8.3660669 37
0.80039626 2.427279 -0.68483526 27
0.87957948 2.6627214 -0.64740914 46
0.98674005 2.9801335 -0.6102072 35
1.0982583 3.3111279 -0.55252659 39
1.2756562 3.8392351 -0.49673948 16
1.5090437 4.531076 -0.41782463 23
1.8418982 5.5208659 -0.30501398 2
2.4694796 7.3890762 -0.13598914 20
3.9588411 11.991493 0.22042391 21
3.84427 11.624005 0.64163888 8
3.8566325 11.640938 1.0728872 18
9.8977079 29.805729 3.8561902 49
9.9140511 29.802767 4.9746165 14
9.9264412 29.78793 6.1032171 38
13.192109 39.495754 9.6135092 42
9.9205599 29.64942 8.3774548 37
0.8247357 2.4435968 -0.69104689 25
0.88628864 2.6214406 -0.63886106 27
1.0056295 2.9675944 -0.60906237 23
1.1200759 3.2996392 -0.55190086 28
1.3011481 3.8264778 -0.496252 21
1.5380712 4.5128865 -0.41712737 19
1.8591039 5.445497 -0.30155981 2
2.4873605 7.2732654 -0.13417409 17
4.0411806 11.959774 0.22035408 31
3.9374936 11.632828 0.64362764 8
3.932689 11.598634 1.0714927 18
10.117046 29.769733 3.8605773 49
10.135241 29.772097 4.9811869 28
10.149364 29.762499 6.1123753 25
10.191383 29.817558 7.2749171 19
10.154831 29.659864 8.4002314 19
0.83610022 2.4213452 -0.68638813 37
0.91412342 2.6428144 -0.64560956 24
1.0198922 2.941952 -0.60524619 26
1.1411406 3.2861412 -0.55096221 26
1.3147867 3.7798026 -0.4913772 22
1.5577313 4.4681749 -0.41398975 18
1.8746847 5.3682766 -0.29800096 2
2.5077012 7.1688967 -0.13256848 16
4.1369905 11.967179 0.22101727 25
4.071547 11.757928 0.65210611 17
4.0357666 11.634896 1.0774193 18
10.340277 29.74338 3.8664272 49
10.367528 29.771502 4.9930758 14
10.371772 29.733555 6.1211529 38
10.374219 29.673941 7.2573714 18
10.380164 29.641123 8.4152422 19
0.85256255 2.4155982 -0.68638813 34
0.93988574 2.6585784 -0.65100837 27
1.0333357 2.9164369 -0.60143 33
1.1595181 3.2671282 -0.54908502 26
1.3325057 3.7483208 -0.4884524 19
1.5774103 4.4274392 -0.41120079 13
1.8870153 5.287673 -0.29423279 2
2.5099962 7.0217338 -0.13016005 19
4.1943703 11.870866 0.21976072 36
4.1521525 11.731824 0.65221077 23
4.1235242 11.631568 1.0796853 18
10.567749 29.743387 3.8756893 37
10.581859 29.733744 4.9987078 28
10.594358 29.719595 6.1329832 39
10.598269 29.66503 7.2726684 38
10.635724 29.720743 8.4582062 78
0.86809444 2.4059527 -0.68535286 30
0.94782567 2.6226285 -0.64380997 27
1.0616953 2.9313021 -0.60600942 23
1.1789303 3.2496686 -0.5475207 16
1.3579633 3.7370608 -0.48820862 15
1.5898714 4.3657722 -0.40649435 15
1.9074608 5.2293377 -0.29172066 2
2.5212164 6.9007344 -0.12824029 19
4.2784953 11.845057 0.21983051 25
4.2291927 11.689406 0.65147805 23
4.1903667 11.563163 1.0760248 16
10.830707 29.821884 3.8956757 61
10.801337 29.692558 5.0043392 29
10.817714 29.68918 6.1421423 39
10.850552 29.714798 7.3032618 57
10.857539 29.685688 8.469595 58
0.88687378 2.4052715 -0.68690574 39
0.97353715 2.6360567 -0.64875889 32
1.0678234 2.8851535 -0.5979954 31
1.1947223 3.222837 -0.54439199 27
1.3674364 3.6828268 -0.4823589 24
1.6070528 4.3212347 -0.40335676 20
1.9313645 5.1822071 -0.28983656 2
2.5259697 6.7668133 -0.12607619 16
4.3735495 11.848667 0.22045881 25
4.3093176 11.655847 0.65126866 17
4.3014393 11.615835 1.0836946 18
11.051055 29.779051 3.9000633 75
11.025558 29.662722 5.0121608 14
11.040459 29.655256 6.150919 26
14.679537 39.366962 9.6998901 43
8.1080303 21.697462 6.206481 16
0.89751542 2.3827507 -0.68224704 28
0.9857257 2.6127861 -0.64470977 30
1.0978454 2.9053662 -0.60371965 27
1.2152319 3.2109356 -0.54376626 15
1.3952243 3.6787593 -0.48309013 20
1.6336418 4.3005981 -0.40248519 24
1.9467057 5.1166735 -0.28690574 2
2.5816982 6.7714357 -0.12649503 16
4.469614 11.85979 0.22122671 42
4.3899622 11.629983 0.65147805 20
4.3697395 11.551978 1.0805569 26
11.26336 29.729122 3.9034755 75
11.253157 29.655315 5.023737 29
11.260495 29.61232 6.1581697 13
4.2205606 11.081563 2.7376547 6
8.0882187 21.203159 6.0806952 24
0.91717988 2.3856022 -0.68483526 40
0.99228323 2.5769188 -0.63751131 33
1.1124493 2.882978 -0.60066676 17
1.2276511 3.1765771 -0.53938609 16
1.4101195 3.6411622 -0.47943404 23
1.6715517 4.3095222 -0.40440264 20
1.9614055 5.0489688 -0.28387025 9
2.5846581 6.639575 -0.12436585 13
nan nan nan nan
4.5421653 11.783549 0.66184056 6
4.462616 11.559142 1.0840431 20
11.492106 29.705307 3.9107873 75
11.484167 29.638662 5.0343747 29
11.497509 29.611679 6.1745791 13
4.1939955 10.78484 2.6715188 34
8.0474463 20.66194 5.9414501 22
0.9285782 2.3645928 -0.6806941 40
1.0099845 2.5679386 -0.63706142 39
1.1203156 2.8440886 -0.59417921 27
1.2329443 3.1236126 -0.53187722 19
1.4311281 3.620152 -0.47797161 24
1.7045327 4.3051562 -0.4050999 15
1.9739158 4.9753962 -0.28052074 7
2.5711341 6.4708424 -0.12153856 23
3.7850363 9.633523 0.18066731 1
4.5956392 11.672691 0.65744436 8
4.6124563 11.697435 1.1000798 14
13.759058 34.840237 4.5993495 15
11.703958 29.575928 5.037816 14
4.3871756 11.069446 2.3145132 29
4.1821918 10.536135 2.6170807 34
8.0201683 20.164032 5.8146291 28
0.93428332 2.3311543 -0.67292953 30
1.0300653 2.5662503 -0.6384111 24
1.1303827 2.810499 -0.58883661 32
1.2731714 3.1607373 -0.53969896 15
1.4422562 3.5750952 -0.47334057 26
1.708424 4.2284951 -0.39899898 17
2.0063565 4.9559393 -0.28020674 4
2.5741732 6.3489561 -0.11958389 23
3.9603481 9.8715868 0.18565871 5
4.6643596 11.608817 0.65566492 2
4.6508679 11.557744 1.0899696 19
14.033998 34.805325 4.6078801 15
4.4727788 11.076089 1.8919187 24
4.4709678 11.054931 2.3179479 6
4.1459026 10.235751 2.5495954 36
4.1868038 10.316016 2.9831486 32
0.95565337 2.3370922 -0.67655301 56
1.0390937 2.5373564 -0.63301229 23
1.1442721 2.7900243 -0.58616525 23
1.2886523 3.1373804 -0.53719604 15
1.4611342 3.5502541 -0.47139066 28
1.7082906 4.1446257 -0.39220083 25
2.091862 5.0677075 -0.28732443 14
2.6337202 6.3677878 -0.12028199 18
4.2485471 10.384834 0.19585089 5
4.776588 11.658117 0.66027045 9
4.7450686 11.558167 1.0931073 19
8.8944998 21.633219 2.8719733 40
4.5570989 11.067304 1.8956732 7
4.2455325 10.290244 2.163774 28
4.2068424 10.181344 2.5432968 44
4.2281137 10.217663 2.9629607 46
0.97153938 2.330533 -0.67655301 74
1.0420761 2.4960566 -0.62446415 32
1.1553869 2.7620454 -0.58196747 30
1.3021265 3.1082661 -0.53375447 19
1.4883363 3.5475488 -0.47236562 26
1.7232864 4.0995378 -0.38906324 23
2.1008422 4.9903932 -0.28376558 21
2.6544716 6.2962775 -0.11926974 13
4.1792483 10.015355 0.18942842 5
5.018044 12.007792 0.68204224 6
4.8743939 11.646906 1.1046119 17
9.006918 21.479067 2.8597863 72
4.48663 10.683712 1.8352894 19
4.3291783 10.293683 2.1706433 28
4.2157712 10.004467 2.5064046 16
4.543458 10.766347 3.1311929 15
0.98551857 2.3183599 -0.67500007 38
1.05566 2.4797554 -0.62221462 30
1.1754131 2.7557173 -0.58234906 33
1.3191402 3.0881994 -0.53187722 17
1.5029187 3.5133448 -0.46919701 16
1.755004 4.0947323 -0.38976046 23
2.1261775 4.9535804 -0.28250951 21
2.677042 6.2279892 -0.11832731 10
4.4040861 10.350266 0.19633958 10
5.1957006 12.192957 0.69460285 6
4.9461966 11.590605 1.1025201 17
9.1504068 21.40106 2.8578362 16
4.5393357 10.601284 1.826529 22
4.4489074 10.375079 2.1943038 24
4.588594 10.680246 2.6836662 36
4.0588489 9.433609 2.7517643 29
1.0039831 2.3167415 -0.67655301 46
1.0737209 2.4741135 -0.62266457 28
1.189926 2.7366416 -0.58005941 28
1.3375133 3.0716705 -0.53062576 17
1.5202688 3.4863901 -0.46700338 15
1.805958 4.1356425 -0.3948155 17
2.1326888 4.8745737 -0.278846 28
2.679529 6.1157365 -0.11654717 7
4.2924123 9.8954878 0.18827656 12
5.336401 12.284619 0.70192993 6
5.1326995 11.798782 1.1257036 15
9.3487663 21.449482 2.8729482 8
4.6219282 10.58925 1.8299706 18
4.3277998 9.9012327 2.1004255 18
4.5095897 10.302434 2.5963852 24
4.089694 9.325429 2.7284706 27
1.0068638 2.2796342 -0.66775316 34
1.0917556 2.4683394 -0.62311447 24
1.2045494 2.7195039 -0.57815129 27
1.347176 3.0372157 -0.52624559 19
1.5453775 3.4775057 -0.4672471 27
1.829116 4.1101918 -0.39359534 23
2.1641934 4.8562956 -0.27863666 33
2.6944408 6.0347977 -0.1153604 15
4.3119831 9.7581263 0.18621717 10
5.2331986 11.826107 0.67775071 18
5.2407913 11.820945 1.1312815 11
4.6824322 10.546622 1.4168531 32
4.6698246 10.503393 1.8205845 28
4.4623189 10.017838 2.1317184 11
4.6163344 10.349007 2.6161809 22
4.5233932 10.126395 2.9717603 24
1.0263202 2.2815368 -0.67034137 33
1.1061318 2.4555199 -0.62176478 28
1.2243146 2.7128172 -0.57853287 28
1.3528916 2.9935348 -0.5203011 15
1.5657384 3.459672 -0.46627215 16
1.8447143 4.070425 -0.39098063 21
2.186482 4.8156095 -0.27717125 28
2.7131059 5.9671688 -0.11441798 17
4.214983 9.3612843 0.17920132 8
5.3279467 11.816595 0.67932075 18
5.2629151 11.656074 1.1189054 17
4.7060399 10.403348 1.401985 26
4.8074307 10.612686 1.8453012 19
4.6901822 10.339447 2.206897 38
4.7358356 10.425576 2.643625 40
4.5827756 10.069953 2.9645135 16
1.0357847 2.2602663 -0.66620022 48
1.1199954 2.4406536 -0.61996514 36
1.2476692 2.7151251 -0.58082259 27
1.3839699 3.0075858 -0.52436841 23
1.5965019 3.463079 -0.46822205 22
1.8747566 4.0610657 -0.39132929 21
2.1940701 4.7462254 -0.27403107 27
2.7168851 5.8664265 -0.11284725 12
4.3152795 9.4123564 0.18073712 7
5.5132604 12.008757 0.69250941 12
4.891252 10.634352 1.02408 1
4.7360473 10.282726 1.3900418 37
4.6867867 10.161769 1.7724028 12
4.7021308 10.176353 2.1790388 31
nan nan nan nan
7.7682586 16.765938 4.9512086 13
1.0511448 2.2531641 -0.66620022 39
1.1316348 2.4223797 -0.61726576 41
1.2516145 2.6743417 -0.57395351 30
1.398227 2.9835408 -0.52186543 27
1.6141324 3.4395528 -0.46651587 20
1.8869543 4.0136209 -0.38801736 24
2.2169409 4.7091093 -0.27277502 27
2.7610147 5.856843 -0.11302178 15
4.3893409 9.4001217 0.18108617 10
5.5394316 11.846947 0.68539172 9
4.9652143 10.60442 1.0244286 22
4.8625197 10.366228 1.4058849 35
4.6828747 9.9696703 1.7445574 13
5.0027575 10.636213 2.2847471 14
4.7845778 10.15395 2.5914364 34
7.7647591 16.456215 4.8756332 4
1.0701661 2.2527499 -0.66827077 40
1.1635854 2.4460969 -0.62536401 46
1.2727882 2.6708553 -0.57509834 43
1.4156189 2.9665751 -0.52061397 26
1.6423868 3.4371552 -0.46773461 13
1.9149288 4.0003495 -0.38801736 18
2.2376766 4.668303 -0.27130961 22
2.7109795 5.6481318 -0.10935678 16
4.2968612 9.0369549 0.17466368 12
5.6572056 11.881921 0.68968332 15
5.132586 10.765529 1.0434285 12
4.8902779 10.238885 1.3932104 14
4.7088909 9.8458519 1.728601 6
3.4267068 7.1552978 1.5421184 21
4.8283796 10.064074 2.5770395 30
4.4613204 9.28652 2.7605641 29
1.0732507 2.219137 -0.66050619 34
1.1661946 2.4080975 -0.6177156 31
1.2802631 2.638942 -0.57013732 24
1.435432 2.9548435 -0.5203011 32
1.6469598 3.3842616 -0.46212861 19
1.9262269 3.9528532 -0.38470542 22
2.2553232 4.6220522 -0.26953021 24
2.7144437 5.553133 -0.10789078 7
4.4896612 9.2749252 0.17986451 15
5.7278233 11.816976 0.68821788 15
5.0701637 10.446231 1.0158873 11
4.8843856 10.045608 1.3715178 14
4.9297018 10.125325 1.783666 13
3.6594152 7.5029159 1.6226398 43
4.7445841 9.7149296 2.496057 30
7.6958804 15.737055 4.6939425 28
1.0882494 2.209667 -0.65998858 48
1.1894301 2.4119253 -0.62086499 31
1.2995244 2.6317 -0.57051897 27
1.4398984 2.9108548 -0.51435655 27
1.6740706 3.3797965 -0.46310353 23
1.9387267 3.9089658 -0.38174215 22
2.2954497 4.6201048 -0.27036759 20
2.7228618 5.4731741 -0.10670401 16
4.5569544 9.2487364 0.17996921 17
5.1094646 10.351857 0.60500371 23
5.1341929 10.38825 1.0137956 15
5.2211804 10.550346 1.4453706 4
4.7984748 9.6791897 1.7110804 9
3.6741698 7.4015698 1.6062301 15
4.7888713 9.6344528 2.4839098 18
4.4853773 9.0080881 2.6963768 9
1.1079774 2.2106512 -0.66257679 59
1.1940023 2.3791788 -0.61456633 28
1.3139139 2.6135631 -0.56861085 38
1.4717313 2.9236689 -0.51842386 35
1.6869034 3.3467553 -0.4601787 27
1.9605827 3.8846633 -0.38069627 30
2.3024161 4.5540595 -0.26743674 27
2.7980356 5.5271802 -0.1081351 21
4.4194856 8.8101492 0.17204583 13
5.1565032 10.265964 0.60207289 5
5.2307572 10.400214 1.018502 30
5.0125132 9.9489632 1.3678616 14
4.8321218 9.5784349 1.6991913 12
3.4690487 6.8675504 1.495561 7
4.7460718 9.3834162 2.4276719 48
7.655642 15.109703 4.538651 11
1.1225049 2.2011418 -0.66205913 65
1.203492 2.3569012 -0.6109671 41
1.3343534 2.6098037 -0.56975567 24
1.4762937 2.8836923 -0.51310509 26
1.6984512 3.311934 -0.45701009 16
1.9721835 3.8407512 -0.37773296 28
2.3187492 4.5098619 -0.265762 22
2.8228204 5.4808455 -0.10761154 16
4.4884443 8.7976723 0.17239487 13
5.1808367 10.141692 0.59683931 20
nan nan nan nan
4.9615331 9.6831779 1.3359319 13
4.9044218 9.5593815 1.7016943 22
nan nan nan nan
4.8658519 9.4557543 2.455116 14
4.906456 9.5224028 2.8703032 27
1.1205653 2.1608653 -0.65222406 37
1.2311826 2.3711374 -0.61681581 30
1.3416698 2.5795238 -0.56517625 37
1.511901 2.9031 -0.51842386 22
1.7172841 3.2932556 -0.45603511 24
1.9943348 3.8180599 -0.37686142 22
2.3427703 4.4794068 -0.26492465 20
2.8146026 5.374702 -0.1059012 14
4.4143353 8.5052185 0.16726387 9
5.2478247 10.09819 0.59642065 5
5.1676488 9.931201 0.97945625 1
5.0528693 9.6940718 1.3422691 9
nan nan nan nan
3.8034527 7.2784271 1.5963081 15
3.6656008 7.0027146 1.8248031 36
4.9468126 9.4382944 2.8552918 44
1.1365238 2.1546986 -0.65274167 39
1.2431546 2.353869 -0.61456633 39
1.3596469 2.5700936 -0.56517625 31
1.516414 2.8627982 -0.51310509 13
1.7346529 3.2706642 -0.45457271 37
2.0059855 3.775892 -0.37407246 18
2.3721097 4.4594159 -0.26471528 13
2.8247983 5.3037367 -0.10488896 23
4.0441685 7.660727 0.15120766 8
5.1193924 9.6851997 0.57412547 14
5.2461753 9.9124908 0.98119932 5
5.518374 10.40922 1.4465892 16
5.0966849 9.6016426 1.721718 9
3.7380748 7.0332637 1.5482242 29
3.6814315 6.9150276 1.8086065 21
5.0516596 9.4768343 2.8775504 8
1.1414936 2.1279852 -0.64704764 33
1.254025 2.334832 -0.61186689 39
1.365463 2.5380633 -0.56021523 32
1.5279305 2.8364904 -0.51028925 26
1.7499039 3.2444978 -0.45262277 17
2.0322988 3.7617946 -0.37407246 15
2.4003356 4.4374752 -0.26440126 9
2.8303297 5.2258601 -0.1037371 22
4.4796877 8.3440905 0.16530919 11
5.5140781 10.257908 0.61034197 8
5.3870187 10.008958 0.99444705 5
3.6720076 6.8111162 0.95009351 18
5.0904036 9.4302406 1.6973141 7
3.68347 6.8152828 1.5058646 32
5.4255686 10.021842 2.6310277 8
5.1904211 9.575511 2.9184437 16
1.172048 2.1487961 -0.65584749 31
1.2609543 2.3089173 -0.60736787 31
1.3840911 2.5301912 -0.56059688 25
1.5258706 2.7859063 -0.5030933 26
1.7830116 3.2513483 -0.45530388 17
2.0326107 3.7003665 -0.36936605 18
2.4081547 4.3786097 -0.26188916 15
2.8918207 5.2515182 -0.10464463 22
4.0750418 7.4648542 0.14845017 9
5.5041351 10.070195 0.6014449 20
3.8269045 6.9928842 0.6974203 8
nan nan nan nan
3.9148455 7.1328721 1.2887073 1
3.6401947 6.6242242 1.4692293 13
3.6451206 6.6222386 1.7451704 29
4.9158678 8.9197989 2.7289882 15
1.1819644 2.1323202 -0.65325934 30
1.2756958 2.2985771 -0.60691798 30
1.3926964 2.5052679 -0.55716228 29
1.5390341 2.7650993 -0.50121611 26
1.8012364 3.2322001 -0.45432895 26
2.0587223 3.6881845 -0.36954033 20
2.4242618 4.337708 -0.26042375 8
2.9314055 5.2386928 -0.10478425 23
4.3440275 7.8303862 0.15630375 8
5.5871005 10.058685 0.60301495 8
5.4383187 9.7787638 0.97893327 10
5.2281318 9.3853903 1.3191139 13
5.2391853 9.3936625 1.7035716 31
3.6717963 6.5752974 1.4638867 11
3.6625276 6.5479498 1.7321233 46
5.2049079 9.2940273 2.8542566 25
1.2015637 2.1324317 -0.65584749 40
1.2830939 2.2743394 -0.60286885 31
1.4004939 2.4783914 -0.5533461 27
1.5728915 2.7800765 -0.50590914 22
1.8149518 3.2040012 -0.45213532 26
2.0863888 3.677187 -0.36988899 16
2.4485686 4.310257 -0.25979573 8
2.9520912 5.1902876 -0.10422577 20
4.1009579 7.272099 0.14572759 14
5.5570207 9.842041 0.59233844 8
5.4966459 9.723218 0.9771902 14
3.772567 6.6625633 0.94010019 23
5.211113 9.1918879 1.6735362 4
3.6226356 6.3821797 1.4264882 18
3.7235591 6.5493279 1.7393217 23
5.2658386 9.2507505 2.852186 19
1.2097001 2.1122572 -0.65222406 45
1.2970008 2.261946 -0.60196906 29
1.435362 2.4991982 -0.56021523 19
1.5991546 2.7810152 -0.5080992 26
1.8273712 3.1740489 -0.44969791 30
2.1073885 3.6559963 -0.36919171 16
2.4486392 4.2411685 -0.25665554 21
2.956228 5.1141524 -0.10310882 22
4.0899773 7.1357241 0.14356351 19
5.7150693 9.958909 0.60175884 8
5.5187387 9.6051369 0.96917188 24
2.5862563 4.4940119 0.63664556 6
4.1400437 7.1852474 1.313424 17
3.6661191 6.3550348 1.4261066 11
3.7758467 6.5373325 1.7429209 19
5.3496404 9.2472067 2.8625388 19
1.2224734 2.1004212 -0.65118873 45
1.3255154 2.2747245 -0.60781777 30
1.4315633 2.4537599 -0.55220127 33
1.6180475 2.7700655 -0.5080992 18
1.8494842 3.1612151 -0.44969791 30
2.0996273 3.5844634 -0.36343944 22
2.473408 4.2175126 -0.25623688 14
2.9776797 5.0692496 -0.10262015 20
4.1233573 7.0817995 0.14303991 26
4.2336874 7.2625422 0.44056413 8
5.5283971 9.4683027 0.95923609 1
2.570704 4.39747 0.62543356 13
3.887517 6.6420383 1.2189375 35
3.9963493 6.8170638 1.5360124 20
3.8174517 6.5040884 1.7411213 29
5.4584613 9.2888603 2.8868678 6
1.2416576 2.1003661 -0.65377688 40
1.3439459 2.2706804 -0.60916752 22
1.4616748 2.4656596 -0.55716228 24
1.6071002 2.7077408 -0.49871314 26
1.8729887 3.1519651 -0.45018539 30
2.1229606 3.5683751 -0.36326513 26
2.4823437 4.1658278 -0.25414345 4
3.0028958 5.0334086 -0.10230601 20
4.1166949 6.9581833 0.14112017 30
4.2140522 7.1142383 0.43334177 8
2.5895393 4.3664908 0.44414565 12
2.5478745 4.2911129 0.61275911 13
5.4988236 9.2463722 1.7038844 4
4.0737925 6.8419991 1.5478426 20
3.8656263 6.4846487 1.7429209 23
3.8473716 6.4463496 2.0115416 8
1.2539369 2.0885532 -0.65274167 40
1.3443114 2.2364266 -0.60241896 10
1.4885492 2.4724734 -0.56097847 39
1.6254927 2.6967397 -0.49871314 30
1.8738854 3.1051521 -0.44531062 22
2.1338046 3.5316744 -0.36099908 29
2.4951336 4.1232014 -0.25257334 6
3.0381234 5.0145617 -0.10234091 20
4.1454239 6.8991475 0.14049187 26
2.6119947 4.3419404 0.26555267 6
2.4403389 4.0517912 0.41381544 12
2.548322 4.2260718 0.60593444 23
5.9374523 9.8309822 1.8190202 33
3.7972338 6.2798667 1.4264882 22
3.9399529 6.5081978 1.756418 27
4.1905589 6.9139862 2.1663156 12
1.2641015 2.0733719 -0.65067112 39
1.3666103 2.2388678 -0.60556829 27
1.4787194 2.4187334 -0.55105644 29
1.6510299 2.6974065 -0.50090319 28
1.8830677 3.0716856 -0.44238573 30
2.1573665 3.5149937 -0.36082479 29
2.5060749 4.0767579 -0.25079393 14
3.0636222 4.9779038 -0.10202677 22
4.17979 6.8502855 0.14007302 19
2.6133769 4.2780414 0.26272655 11
2.3687422 3.8715017 0.39708155 12
2.5497668 4.1624737 0.59935349 12
4.471673 7.291398 1.3547227 28
4.1122565 6.6948433 1.5272354 20
3.9516058 6.4257541 1.7415712 44
4.251071 6.9019156 2.1720095 9
1.2656795 2.0429242 -0.64394182 33
1.3887594 2.2389674 -0.60826772 40
1.4887385 2.3964157 -0.54838508 27
1.6671613 2.6804898 -0.49996459 27
1.9165454 3.0766661 -0.44506687 26
2.1750834 3.4876316 -0.3596046 22
2.5044992 4.0095959 -0.24775843 20
3.08008 4.9253354 -0.10139848 18
4.237133 6.8337975 0.14035226 13
2.4395719 3.9300315 0.24242018 16
2.3427348 3.7681584 0.38819164 17
2.5322824 4.0682836 0.58838522 11
4.2656832 6.845118 1.277444 59
4.1881247 6.7102127 1.537539 76
4.0511851 6.4832482 1.764966 19
5.4707475 8.7414474 2.7631524 20
1.2771784 2.0289102 -0.64238888 35
1.3974724 2.2174318 -0.60511833 15
1.48908 2.3591394 -0.54227924 15
1.6862972 2.668493 -0.49996459 32
1.9263048 3.0447571 -0.44238573 24
2.1914535 3.458514 -0.35821009 31
2.5302901 3.9886401 -0.24754909 18
3.112246 4.9003363 -0.10132867 22
2.72014 4.3178377 0.089077078 10
2.4665663 3.9107842 0.2423155 13
2.3785582 3.7668729 0.38976046 27
2.6058931 4.1205239 0.59862226 25
4.3304067 6.8394532 1.282137 31
3.9363544 6.2098894 1.4291594 28
4.0880742 6.4392867 1.7609171 21
4.2684236 6.715589 2.1321514 24
1.2965144 2.0280828 -0.64497709 27
1.4003129 2.1879253 -0.59971952 37
1.5256447 2.3800895 -0.54952991 18
1.6899505 2.6333797 -0.49558446 18
1.9410748 3.0212152 -0.44092333 16
2.190748 3.4045942 -0.35420093 17
2.5483401 3.9557672 -0.24660707 8
3.1387968 4.8667245 -0.10108434 15
2.5249825 3.9466913 0.081781976 17
2.3785427 3.7135129 0.23111561 15
2.3381159 3.6461918 0.37895316 13
2.5916874 4.0354195 0.58887273 11
4.1782708 6.4983439 1.2236305 14
4.0561218 6.3011146 1.456636 24
4.168828 6.466279 1.7762136 42
5.9882703 9.27775 2.9588194 26
1.3116925 2.0206029 -0.64549476 30
1.4113047 2.1715608 -0.59791994 28
1.5540047 2.3874798 -0.55372775 27
1.715843 2.6331024 -0.49777454 23
1.9480191 2.9859769 -0.43775472 17
2.2166429 3.3925529 -0.35454956 15
2.5310678 3.8693516 -0.2423155 18
2.6687438 4.0751638 -0.085028127 11
2.5481167 3.9222603 0.081642359 11
2.4131215 3.7102115 0.23195298 16
2.3461211 3.6030643 0.37616417 21
2.5352173 3.8875322 0.56986111 25
6.5345473 10.008697 1.8931701 10
nan nan nan nan
4.0473642 6.1826673 1.7060289 14
5.7786303 8.817234 2.8247511 40
1.32683 2.0130093 -0.64601237 31
1.4307239 2.1681612 -0.59971952 38
1.5468205 2.340539 -0.54533213 23
1.7559837 2.6540079 -0.5040319 16
1.9666252 2.9689941 -0.43726721 17
2.2391717 3.3753345 -0.35437521 17
2.530395 3.8099935 -0.23969871 14
2.5952671 3.903235 -0.081816882 24
2.536901 3.8459504 0.080420688 12
2.4224575 3.6682734 0.23038292 16
2.3789098 3.5982323 0.37738436 37
2.560102 3.8664296 0.56937367 13
6.3139367 9.5248737 1.809947 4
4.1654162 6.2765837 1.4642683 11
4.2026134 6.3230481 1.7528187 36
6.8278327 10.261168 3.302531 18
1.3333305 1.9924586 -0.64238888 35
1.4219646 2.1225016 -0.5898217 25
1.56381 2.3315866 -0.54571378 30
1.7557431 2.6138091 -0.49871314 16
2.0072429 2.984844 -0.44165453 12
2.2365017 3.3220029 -0.35036606 26
2.5361753 3.7628708 -0.23781461 14
2.5479524 3.7760768 -0.079513162 13
2.3867676 3.5639639 0.074870825 31
2.3623664 3.5235355 0.22232316 30
2.3662188 3.5252903 0.37145776 18
2.514396 3.7418156 0.55353063 22
4.0752654 6.0577803 1.1563637 12
4.2003574 6.2343254 1.4612154 23
4.2161331 6.2506747 1.7406714 36
6.173173 9.141778 2.9557135 10
1.3349234 1.9657567 -0.63669485 40
1.4626733 2.1514516 -0.60061932 30
1.580748 2.3225119 -0.54609537 31
1.7630291 2.5874147 -0.49589729 22
2.0303512 2.9763856 -0.44238573 13
2.2658074 3.3165727 -0.35141194 15
2.5921745 3.7900302 -0.24064074 12
2.5510027 3.7256453 -0.078815073 11
2.4339502 3.5827918 0.075603828 12
2.3969154 3.5243051 0.22336988 23
2.3710911 3.4811099 0.36849448 31
2.4894795 3.6508112 0.54256237 17
6.6368122 9.7219086 1.8643861 6
4.44101 6.4980879 1.5299066 14
4.1969743 6.1341171 1.7159268 44
6.3630147 9.2860022 3.0162773 26
1.3479315 1.9568598 -0.63669485 47
1.4636346 2.1224523 -0.59522051 38
1.5742078 2.2793884 -0.538463 38
1.768244 2.5574803 -0.49245578 30
2.0420401 2.9490821 -0.44043583 15
2.2826531 3.2928865 -0.3505404 8
2.5570626 3.6832476 -0.23498847 20
2.6659667 3.8358262 -0.081537649 1
2.4945977 3.6188281 0.076720782 12
2.3811429 3.4503758 0.21970637 30
2.3618801 3.4173577 0.36343944 18
2.5594521 3.6990783 0.5523119 17
3.1416352 4.5354085 0.87384307 3
4.2591004 6.1394658 1.4524381 23
4.5364971 6.5320263 1.8360506 19
6.222518 8.9463634 2.9199965 42
1.357471 1.9408319 -0.6346243 30
1.4676075 2.0959613 -0.59072149 33
1.6085125 2.2937849 -0.5445689 37
1.7864997 2.5447617 -0.49245578 32
2.0459652 2.9100356 -0.43677977 17
2.285516 3.2471411 -0.34740278 6
2.5695453 3.6452656 -0.2337324 20
3.2663748 4.6286693 -0.098885335 6
2.4837351 3.54846 0.075603828 11
2.3759725 3.3907213 0.21698491 26
2.3782625 3.3889532 0.36221924 16
2.527658 3.5978296 0.53988123 12
2.9694545 4.2219748 0.81752664 7
4.2350907 6.0125284 1.4295411 11
4.4899106 6.3672109 1.7987087 55
nan nan nan nan
1.3836286 1.9483945 -0.64031839 41
1.4836973 2.0869937 -0.59117138 36
1.6180533 2.2726202 -0.54227924 37
1.8149816 2.5463908 -0.49527156 23
2.0477827 2.8698268 -0.43287995 19
2.3034971 3.2246211 -0.34670553 9
2.5891211 3.6191165 -0.23320904 22
2.5650675 3.5815296 -0.076895304 11
2.4418776 3.4360559 0.073579341 30
2.3770185 3.3410842 0.21489146 16
2.4111106 3.3852499 0.36361378 21
2.5521855 3.5780332 0.53963745 13
3.0053298 4.2086558 0.8190909 13
4.3911338 6.1425285 1.4677029 30
4.4979572 6.2850008 1.7843119 12
6.3236108 8.8229589 2.9086087 32
1.379125 1.9136115 -0.63203615 36
1.5039322 2.0844865 -0.59342092 30
1.6346346 2.2631452 -0.54266083 29
1.8206975 2.5179698 -0.49214289 25
2.0735896 2.8634999 -0.43409866 19
2.3095815 3.1858778 -0.34426519 19
2.6172154 3.6062584 -0.23352307 20
2.8474813 3.9177856 -0.084539458 15
2.4839189 3.4453092 0.074137822 27
2.4230828 3.3572171 0.21698491 9
2.3763275 3.2875977 0.35489815 18
2.6044109 3.5991757 0.54548723 13
2.9597404 4.0857186 0.79906738 12
4.6056862 6.3485007 1.5245639 12
7.6485591 10.531208 3.0048964 30
nan nan nan nan
1.3898374 1.9010614 -0.63100088 36
1.5226889 2.0804925 -0.59522051 30
1.6573582 2.2611787 -0.54495054 29
1.8358948 2.5020127 -0.49151716 31
2.0895069 2.8445194 -0.43336743 12
2.3205903 3.155637 -0.34269637 17
2.6731212 3.6297119 -0.23624454 16
2.79339 3.7888634 -0.082165927 10
2.5102746 3.4311111 0.074207634 16
2.4134173 3.2951021 0.21405408 28
2.4116101 3.289021 0.35681561 21
2.6059744 3.5489061 0.54061246 18
2.8606613 3.8914714 0.76496464 18
nan nan nan nan
4.5749393 6.2098355 1.7807126 12
3.5348685 4.7910781 1.5953608 5
1.3846602 1.8664869 -0.62271863 30
1.5220728 2.0494723 -0.5893718 28
1.6762254 2.2545717 -0.54609537 31
1.8387295 2.4704423 -0.48776269 23
2.0879593 2.8012149 -0.42898014 16
2.3294556 3.1217952 -0.34077895 16
2.6511481 3.5490294 -0.23216233 31
2.9503405 3.9438024 -0.085970551 15
2.5204606 3.3962815 0.073823676 15
2.3845718 3.2096608 0.20955318 23
2.413105 3.2433317 0.35367799 16
2.6099138 3.50402 0.53646892 20
2.8764563 3.8576567 0.7621488 18
4.7891026 6.4133868 1.5558566 19
4.6310148 6.1949134 1.7856616 2
3.5604534 4.7576261 1.5922549 15
1.3787475 1.8323208 -0.61443645 61
1.5395044 2.0437346 -0.59072149 25
1.683648 2.2318435 -0.54342401 49
1.8440272 2.4417818 -0.48463401 31
2.1002812 2.7770691 -0.42751768 17
2.3379657 3.0879827 -0.33886153 17
2.6396694 3.482682 -0.22902218 18
2.6030056 3.4293373 -0.075150065 6
2.3901401 3.1741297 0.069355868 15
2.4129326 3.2009094 0.21007656 16
2.4147217 3.199796 0.35071471 35
2.5864365 3.4223673 0.52671933 15
2.9664831 3.9209747 0.77873087 13
4.7436528 6.2608695 1.5268538 52
4.6729732 6.1608801 1.7852117 8
nan nan nan nan
1.3941691 1.8254784 -0.61547172 37
1.5422534 2.0171847 -0.58622253 30
1.6956073 2.2153587 -0.54227924 45
1.8470323 2.4097102 -0.4808796 25
2.114784 2.7560391 -0.42654276 28
2.3449023 3.0526247 -0.33676979 14
2.6754832 3.4779508 -0.22996421 22
2.5951622 3.3698866 -0.07424254 15
2.4207411 3.1684878 0.069600195 24
2.3848033 3.1169393 0.20568034 16
2.4290767 3.1713626 0.34949452 17
2.5679898 3.3490915 0.51818854 13
2.9439356 3.833843 0.76559031 33
4.7788677 6.2167063 1.5241823 28
4.728941 6.1450963 1.7901605 4
7.2665019 9.428936 3.1896861 1
1.4151621 1.8263904 -0.61909521 25
1.5610759 2.0125279 -0.58802211 30
1.696964 2.1845632 -0.53769976 24
1.8856366 2.4248261 -0.48651123 25
2.1259136 2.7298722 -0.42483655 16
2.3581114 3.0247676 -0.33554959 13
2.7009275 3.4607623 -0.23006889 9
2.5354726 3.2440927 -0.071869008 3
2.499717 3.2237787 0.071205825 23
2.4959087 3.2153864 0.21332137 8
2.3973684 3.085104 0.34182483 22
2.53459 3.2569988 0.50673276 25
2.9694154 3.8116388 0.7652775 25
4.8606668 6.2303352 1.5360124 4
7.3685021 9.4346533 2.7637486 2
7.2440948 9.2653589 3.1513808 1
1.4222245 1.808624 -0.61650699 43
1.5850804 2.0135553 -0.59162134 24
1.7231104 2.1865408 -0.54113436 32
1.8870311 2.3911123 -0.48244393 18
2.1375351 2.7056193 -0.42337415 27
2.3606303 2.9847915 -0.33293492 32
2.7219031 3.4366496 -0.22975488 16
2.5617878 3.2310123 -0.071973726 18
2.4628172 3.1308074 0.06953039 25
2.4187407 3.0703628 0.20484295 15
2.3860707 3.0256314 0.33711842 16
2.5806372 3.2688279 0.5113638 22
2.9941645 3.7871933 0.76465172 16
4.9795856 6.2916956 1.5596728 49
7.3676281 9.298974 2.7390041 2
7.2345676 9.117939 3.1187694 1
1.4414135 1.8082153 -0.61961281 52
1.5862449 1.9877664 -0.58712232 38
1.7440821 2.1824298 -0.54304242 37
1.8905081 2.3631194 -0.47931525 22
2.1430235 2.6758885 -0.42093676 26
2.3958509 2.9873054 -0.33502665 19
2.6996198 3.3624561 -0.22598669 18
2.8424771 3.5365942 -0.079199016 11
2.4940469 3.1264768 0.069809623 8
2.4564996 3.0761032 0.20630836 22
2.3948882 2.9957335 0.33554959 19
2.5767746 3.2186434 0.50624532 20
2.9994509 3.7425892 0.75964588 13
5.2079482 6.491293 1.6176788 6
7.3538623 9.1528969 2.7106602 2
7.3045678 9.0818005 3.1229107 5
1.4637198 1.8101258 -0.62375391 37
1.5939529 1.9690706 -0.58487278 28
1.7568033 2.1671505 -0.54227924 41
1.9144281 2.3590667 -0.48119247 26
2.1604009 2.6593215 -0.42069301 19
2.3940167 2.9426856 -0.33188906 19
2.7230301 3.3435259 -0.22598669 22
2.6510246 3.2516341 -0.073230296 15
2.5070064 3.098109 0.069565296 23
2.6375761 3.2559764 0.21960169 6
2.4835088 3.0625072 0.34496242 10
2.5941765 3.194412 0.50527036 18
2.9532325 3.6326573 0.74149948 16
5.1254969 6.2979364 1.5783721 22
3.5924473 4.407918 1.3128145 8
3.6246636 4.4426956 1.5363499 3
1.4824462 1.8073322 -0.62634212 40
1.6076598 1.9578955 -0.58487278 39
1.7731369 2.1563492 -0.54266083 40
1.9258291 2.3395436 -0.47994098 30
2.1536655 2.6135347 -0.41581824 15
2.4106965 2.9212916 -0.33136615 13
2.73104 3.3059576 -0.22473061 18
2.8163898 3.4056418 -0.077139638 21
2.4384961 2.9707868 0.067087047 21
2.4370782 2.9658918 0.20117943 27
2.493439 3.0312452 0.34339362 14
2.6025293 3.1593702 0.50258923 21
2.8666682 3.4763141 0.7136541 13
5.2805729 6.3967514 1.6123362 6
7.4759707 9.0433245 2.7088609 18
7.4208007 8.9670229 3.1187694 33
1.480201 1.7791178 -0.62013048 40
1.6212894 1.9466242 -0.58487278 39
1.7692845 2.1213036 -0.53693652 45
1.9484444 2.3336241 -0.48150533 23
2.1807692 2.6090987 -0.4175244 11
2.397783 2.8646672 -0.32683402 18
2.7360947 3.2653785 -0.22326522 15
2.7784121 3.3123572 -0.075464211 13
2.7086768 3.2533627 0.073893487 16
2.4500523 2.9396 0.20055141 15
2.5796373 3.0917852 0.35228351 8
2.6563447 3.1792068 0.50868267 18
3.0999851 3.7062261 0.7652775 16
7.6000905 9.0767231 2.3011565 23
7.5664682 9.0237637 2.7187586 22
7.4111843 8.8291779 3.0887468 26
1.4938322 1.7702162 -0.62064809 28
1.6235225 1.9218591 -0.58082366 30
1.7853189 2.1103988 -0.53731817 28
1.963412 2.3184571 -0.48119247 18
2.2027822 2.5983531 -0.41825563 12
2.4107809 2.8406844 -0.32596248 13
2.7562377 3.2431531 -0.22305585 22
2.6407926 3.1040187 -0.071136013 31
2.4694142 2.9242291 0.066807814 15
2.4653556 2.9163241 0.20013271 7
2.5239339 2.9824488 0.34182483 14
2.6566565 3.1348395 0.50453913 27
3.0197167 3.5594683 0.73930937 16
7.6848779 9.0488825 2.3076441 44
9.7293463 11.444079 3.4678457 15
3.7544796 4.4099402 1.551879 11
1.5124344 1.7670835 -0.6232363 12
1.6432389 1.917878 -0.58307314 39
1.7970862 2.095217 -0.53655493 24
1.948264 2.2690697 -0.47368363 41
2.2182813 2.5799 -0.41776815 8
2.4188559 2.810194 -0.32439366 19
2.7443526 3.1849775 -0.2203344 17
2.5500486 2.9553051 -0.068134196 17
2.4580498 2.8708956 0.0659701 22
2.4773521 2.8903754 0.19950469 10
2.5369077 2.9556844 0.34077895 10
2.7193298 3.1648653 0.51233876 13
3.2177725 3.7410085 0.78154671 10
7.7004566 8.9399738 2.2935243 12
3.6293828 4.2091336 1.283121 15
7.3857856 8.5565157 3.0287006 33
1.5244275 1.7567477 -0.6232363 10
1.6511436 1.9007638 -0.58127356 27
1.8181123 2.0900259 -0.538463 23
1.9666519 2.2583923 -0.47430936 35
2.2175274 2.5437927 -0.41435578 12
2.4371057 2.791738 -0.32421938 16
2.7822921 3.1837878 -0.22159046 15
2.6451561 3.0236664 -0.070123769 12
2.5081871 2.8883934 0.066772908 18
2.4712627 2.8428638 0.19741124 25
2.4588745 2.8256238 0.32770559 13
2.7296226 3.1323333 0.51014513 11
3.2178416 3.6886799 0.7752893 15
7.8786454 9.0219183 2.3282516 2
7.8997664 9.0333767 2.7704976 2
nan nan nan nan
1.5251679 1.7330103 -0.61857754 12
1.6566439 1.8804169 -0.57857412 29
1.80928 2.0507827 -0.53159386 30
1.9980623 2.2623749 -0.47806379 22
2.173435 2.4583511 -0.4029001 12
2.4591761 2.7776403 -0.32456797 15
2.8190219 3.1807292 -0.22274184 20
2.5759547 2.9034107 -0.067750245 33
2.4939282 2.8317947 0.065865383 29
2.4368961 2.7641168 0.19311969 20
2.5062268 2.8397589 0.33136615 23
2.681751 3.0343664 0.49722698 18
3.1833048 3.5980701 0.76089734 13
3.1265917 3.5302413 0.91664648 2
8.5820169 9.6763554 2.9860003 2
10.094119 11.369277 4.073812 3
1.5256523 1.709349 -0.61391884 22
1.6801184 1.8804312 -0.58217335 27
1.8314087 2.0468793 -0.53388357 37
1.9966758 2.2292409 -0.47399649 25
2.2223501 2.4785883 -0.40874982 16
2.4625347 2.7426145 -0.32247624 12
2.8077805 3.1238356 -0.22012506 19
2.5466728 2.8303547 -0.066458762 38
2.5176334 2.8187892 0.0659701 16
2.4840899 2.7783041 0.1953178 5
2.5246623 2.8207083 0.33119181 16
2.6591451 2.9667904 0.4891836 26
3.1186373 3.4757798 0.73962224 19
9.0835247 10.113101 2.642323 2
8.6975803 9.6698141 3.0026469 2
nan nan nan nan
1.5401412 1.7015208 -0.61495411 18
1.6905884 1.8657677 -0.58127356 31
1.8430145 2.0311368 -0.53312039 36
1.9922667 2.193315 -0.46930346 26
2.2422695 2.4659514 -0.4092373 13
2.4910131 2.735667 -0.32369643 18
2.8483586 3.1248212 -0.22159046 15
2.5663714 2.8125052 -0.066458762 26
2.561414 2.8278229 0.066598386 11
2.554405 2.8171194 0.19929534 7
2.4907277 2.7440045 0.32421938 28
2.7665818 3.0436347 0.50502658 11
4.9974136 5.4920878 1.1760744 5
8.7652225 9.6227303 2.5301273 2
2.9496408 3.233669 1.0104802 36
7.3677988 8.0687733 2.9277611 16
1.5585138 1.6978437 -0.61754227 31
1.696979 1.8467458 -0.57902408 25
1.8558201 2.0167758 -0.53273875 29
2.003515 2.1749942 -0.46836486 16
2.2540476 2.4444001 -0.40826234 11
2.5082238 2.7171848 -0.32352212 16
2.8484113 3.0813949 -0.2199157 19
2.5832264 2.7915859 -0.066388957 34
2.5919168 2.8216522 0.066877626 5
2.6091607 2.837441 0.20201682 13
2.4679947 2.6811051 0.31881571 15
2.700309 2.9293733 0.4891836 27
3.0771091 3.3346317 0.71866006 10
3.1385574 3.3976517 0.89909208 16
nan nan nan nan
3.2420714 3.5011203 1.2785661 25
1.5690125 1.6855079 -0.6170246 27
1.6992021 1.8234483 -0.57542485 23
1.8601297 1.9940488 -0.53006744 41
1.9899598 2.1309881 -0.46179458 19
2.2615671 2.4184549 -0.40655616 15
2.5189626 2.6908808 -0.32247624 21
2.814692 3.0036402 -0.21572883 26
2.7983303 2.9820051 -0.07138034 13
2.5824437 2.7732129 0.066144623 16
2.6175191 2.8079276 0.20117943 11
2.5695858 2.7526522 0.3294487 14
2.6659722 2.8529096 0.47943404 23
4.9444633 5.2856178 1.1463519 7
3.2762871 3.4974449 0.93152958 17
7.4502053 7.9447722 2.514503 12
nan nan nan nan
1.5764722 1.6705729 -0.61547172 26
1.708899 1.809006 -0.57452506 31
1.8659114 1.9724559 -0.52777767 36
1.9993567 2.1113057 -0.46054313 9
2.2684166 2.3929203 -0.40485001 15
2.5308268 2.6660056 -0.32160467 19
2.836967 2.9853659 -0.2158335 24
2.8681812 3.0150468 -0.072636917 13
2.5674179 2.7187696 0.065272003 13
2.5080855 2.6531551 0.19134027 25
2.534853 2.6786604 0.32265055 20
2.617552 2.7621837 0.4672471 14
4.9445362 5.2122755 1.1379044 7
3.1810496 3.3497844 0.89794719 45
3.3532307 3.5261657 1.1234057 22
3.832159 4.0255709 1.4892448 30
1.5827534 1.6539444 -0.61340117 24
1.7147454 1.7899961 -0.57227552 27
1.8646863 1.943797 -0.5235799 27
2.0208888 2.1044199 -0.46210748 11
2.2891941 2.3813186 -0.40558121 23
2.5383248 2.6367879 -0.32021019 31
2.9353518 3.0460229 -0.22169513 36
2.9280343 3.0352471 -0.073614255 10
2.5655899 2.6791153 0.064748429 30
2.5403681 2.6499987 0.19238698 17
2.5438366 2.6508346 0.32143039 11
2.599633 2.705198 0.46066615 18
3.1607618 3.2856679 0.72210157 1
nan nan nan nan
3.874218 4.0174794 1.2885197 7
3.1463668 3.2592967 1.2138613 33
1.5834984 1.6317631 -0.60926002 30
1.7272 1.7779813 -0.57227552 29
1.8782099 1.9307326 -0.5235799 10
2.0203705 2.0746937 -0.45866591 9
2.2946765 2.3539085 -0.4036313 12
2.5413616 2.6033204 -0.31829277 10
2.8755832 2.9426062 -0.21562417 24
2.792536 2.8546321 -0.069704913 33
2.5898046 2.6668758 0.064888045 24
2.5699453 2.6436546 0.19322437 40
2.8290691 2.9071634 0.35489815 10
2.7417586 2.813513 0.4823589 16
3.1560354 3.2352417 0.71584421 13
3.2179084 3.2952106 0.89527589 23
3.6964331 3.7799513 1.2205845 14
3.0866072 3.153043 1.1822854 15
1.5948509 1.6206694 -0.60926002 26
1.7327336 1.7589377 -0.57002604 30
1.8875071 1.91338 -0.52243507 29
2.0084331 2.0338328 -0.45272139 10
2.3068676 2.3335962 -0.4029001 9
2.5384479 2.5642769 -0.31567809 27
2.8932428 2.9196231 -0.21541482 21
2.8405619 2.8634615 -0.07040301 33
2.6013434 2.641608 0.064713523 30
2.5504801 2.5872467 0.19039823 30
2.6547704 2.6902213 0.33066887 18
2.7250566 2.7575908 0.47602168 28
3.1563187 3.1906583 0.71083826 57
3.2228763 3.25453 0.89031488 7
3.4126189 3.4413311 1.1189066 4
3.201093 3.224647 1.2174848 45
1.6115856 1.6149648 -0.61133063 26
1.7532337 1.755071 -0.57272542 33
1.9147037 1.9140359 -0.52625126 39
2.0407543 2.0379076 -0.45678869 9
2.2964015 2.290796 -0.39826906 5
2.5675802 2.5577419 -0.3170726 18
2.8427694 2.8289125 -0.21018122 57
2.7895739 2.7730708 -0.068657771 15
2.6041787 2.6078179 0.064329572 14
2.5826006 2.583503 0.19144495 51
2.7467718 2.7448556 0.33973309 12
2.748456 2.7427068 0.47675291 16
3.3743746 3.3637919 0.75463998 16
3.4277556 3.4134295 0.94030684 17
3.0842006 3.0670221 1.0041816 46
3.0604336 3.0402021 1.1558858 19
1.6310656 1.6118218 -0.61443645 15
1.7640568 1.7414193 -0.57227552 27
1.9154364 1.8882178 -0.52281672 29
2.0507092 2.0194526 -0.45585006 9
2.3066766 2.269141 -0.3972941 5
2.5811102 2.5355656 -0.31654966 13
2.9565339 2.9013245 -0.21708956 17
2.7031953 2.6499374 -0.066074811 33
2.6308582 2.5980041 0.064539 11
2.6091051 2.5738258 0.19207297 32
2.689235 2.6500955 0.33032027 20
2.7307496 2.6872509 0.47041571 31
2.9822104 2.9316347 0.66234362 12
3.2357833 3.1775773 0.88153762 20
3.2015405 3.1395631 1.0352248 25
nan nan nan nan
1.6284429 1.5869128 -0.60926002 40
1.7733785 1.7263429 -0.57137573 14
1.9229411 1.8693259 -0.52129018 29
2.066175 2.0064631 -0.45616296 9
2.3224621 2.2529819 -0.3972941 5
1.9862684 1.9241564 -0.24194433 7
2.8949077 2.8014452 -0.21112327 47
2.8007033 2.7074444 -0.067994572 16
2.6632566 2.5935264 0.064888045 23
2.6885686 2.6154344 0.19657388 23
2.6119375 2.5382252 0.31864139 16
2.7494435 2.6681211 0.47041571 27
nan nan nan nan
3.2071161 3.1057427 0.8677994 26
3.7739191 3.649528 1.2120364 19
3.6930871 3.5676205 1.3758821 46
1.6297307 1.5661362 -0.6056366 27
1.7839808 1.7125715 -0.57092583 28
1.9359446 1.8558556 -0.52129018 24
2.0715721 1.9837918 -0.45428574 9
2.3295276 2.2284799 -0.39583167 15
2.5643969 2.4497349 -0.31027445 22
3.0328777 2.8942332 -0.21970637 14
2.7109816 2.5843418 -0.065376714 6
2.6524525 2.5471673 0.064189956 30
