# .PCD v0.7 - Point Cloud Data file format
VERSION 0.7
FIELDS x y z intensity
SIZE 4 4 4 4
TYPE F F F F
COUNT 1 1 1 1
WIDTH 1437
HEIGHT 1
VIEWPOINT 0 0 0 1 0 0 0
POINTS 1437
DATA ascii
2.1403513 -0.69007713 -0.51918709 9
2.3614326 -0.76272196 -0.48236516 9
2.6105413 -0.84469163 -0.43457499 9
2.9796679 -0.96642822 -0.38461968 6
3.3975112 -1.1039183 -0.3125405 3
3.925611 -1.2777811 -0.21635687 5
4.4846172 -1.4632003 -0.082340457 5
5.2020869 -1.6752164 0.09539485 9
nan nan nan nan
6.5744019 -2.1260085 0.60451221 1
6.5057778 -2.1075802 0.83967984 1
6.4765959 -2.1018746 1.0784594 1
6.4335237 -2.0928617 1.3150556 1
4.9785695 -1.62244 1.208887 33
nan nan nan nan
1.9651662 -0.64725417 -0.55439043 12
2.1300526 -0.70279819 -0.51783735 9
2.3616421 -0.78103846 -0.48351002 10
2.6120811 -0.8653807 -0.43582645 9
2.9805567 -0.98918861 -0.38559461 6
3.4067361 -1.1332703 -0.3141093 3
3.9146998 -1.3045243 -0.21625218 5
4.4707599 -1.4924254 -0.082270645 3
5.2035589 -1.7158766 0.095639192 13
nan nan nan nan
nan nan nan nan
nan nan nan nan
nan nan nan nan
6.4526591 -2.1477649 1.3219248 1
4.9578791 -1.6540735 1.2066375 57
6.304719 -2.1070826 1.7811928 2
1.9642608 -0.66219193 -0.5554257 12
2.1269407 -0.71827501 -0.51828724 10
2.3524127 -0.79624772 -0.48274681 9
2.6246841 -0.88993841 -0.43895519 9
2.9698193 -1.008696 -0.38510716 6
3.4081719 -1.1602364 -0.31498083 3
3.9357431 -1.3421363 -0.21792693 5
4.4640169 -1.5248935 -0.082340457 3
5.2141895 -1.7598355 0.096058048 19
nan nan nan nan
nan nan nan nan
nan nan nan nan
nan nan nan nan
nan nan nan nan
4.953588 -1.6911641 1.2084371 80
nan nan nan nan
1.9559376 -0.67462903 -0.55439043 11
2.1366096 -0.73819727 -0.52188647 9
2.3467965 -0.81265122 -0.48274681 9
2.6240058 -0.91018242 -0.43989375 9
2.9739554 -1.0333135 -0.38656959 8
3.4037523 -1.1853119 -0.31532949 4
3.9262772 -1.3695799 -0.21792693 5
4.4645886 -1.5599785 -0.082549877 3
5.2131176 -1.8001103 0.096267477 14
nan nan nan nan
6.3518672 -2.2007725 0.5881269 12
6.2839398 -2.1821525 0.81676841 7
6.2501812 -2.1740975 1.0481111 1
6.3033905 -2.1963065 1.2975012 1
4.9674172 -1.7347 1.2147357 87
nan nan nan nan
1.9457145 -0.68633956 -0.55283749 12
2.1369162 -0.75504321 -0.52323622 9
2.3503191 -0.83229172 -0.4846549 7
2.6064174 -0.92451686 -0.43801656 7
2.9704103 -1.0553793 -0.38705707 8
3.4029019 -1.2117189 -0.31602672 3
3.9504819 -1.4090345 -0.21981104 5
4.457356 -1.5924546 -0.082619689 3
5.1872244 -1.8317996 0.096023142 16
5.1855946 -1.8342785 0.28826648 1
nan nan nan nan
nan nan nan nan
6.2236843 -2.2137067 1.0462338 1
6.212079 -2.2132435 1.2818549 4
4.9606915 -1.7713023 1.2160854 84
6.010005 -2.1495268 1.7102764 6
1.9554142 -0.70514917 -0.55697864 12
2.131593 -0.76994318 -0.52323622 9
2.3426056 -0.84801143 -0.48427325 9
2.609185 -0.9460572 -0.43958092 9
2.9704335 -1.0788014 -0.38803205 8
3.3908305 -1.2334912 -0.31567809 3
3.9292898 -1.4324749 -0.21918301 5
4.4649138 -1.6303928 -0.082968742 3
5.1837139 -1.8713635 0.096197665 19
5.1538801 -1.863644 0.28721976 42
5.1216073 -1.8550071 0.4765676 50
nan nan nan nan
5.0644846 -1.8413198 0.85350657 57
5.0010862 -1.8212351 1.0345664 27
4.9613352 -1.8097018 1.2192347 87
6.0638003 -2.2166359 1.7299466 2
1.9431928 -0.71611106 -0.55490804 12
2.1206813 -0.78278124 -0.52188647 9
2.3515108 -0.86938357 -0.4873262 10
2.6008325 -0.96310925 -0.43926802 9
2.9628298 -1.0995125 -0.38803205 8
3.3970773 -1.2626868 -0.3170726 4
3.9344223 -1.464762 -0.22002037 5
4.460917 -1.6643195 -0.083108358 5
5.1764851 -1.9086797 0.096302375 21
5.1410756 -1.898682 0.28721976 43
5.1290855 -1.8983241 0.47848502 53
5.0534701 -1.873347 0.66175061 60
5.0536861 -1.8764374 0.85381943 76
4.9900894 -1.8567892 1.034948 93
4.9504066 -1.8449746 1.2196847 82
nan nan nan nan
1.9527382 -0.73476404 -0.55904913 12
2.115304 -0.79719794 -0.52188647 10
2.3325274 -0.88092333 -0.4846549 9
2.5958929 -0.98194182 -0.43958092 9
2.955277 -1.1196544 -0.38803205 8
3.3884039 -1.2857805 -0.3170726 3
3.9185002 -1.490064 -0.21970637 3
4.4569602 -1.6974927 -0.083247982 5
5.1780047 -1.9504107 0.096581623 8
5.0996647 -1.9239517 0.28564969 24
5.1067271 -1.9296712 0.47761348 50
5.05512 -1.9142047 0.66370046 60
5.0293813 -1.9074699 0.85194218 67
4.9828415 -1.8928038 1.0360929 70
4.9377337 -1.8786281 1.2196847 82
4.8972502 -1.8671403 1.4043522 84
1.940348 -0.74560708 -0.55697864 12
2.1224179 -0.81684566 -0.5250358 10
2.3356366 -0.90031058 -0.48656297 10
2.6094198 -1.0074145 -0.44302243 7
2.9547937 -1.1431235 -0.38900697 5
3.3719134 -1.306525 -0.31637534 4
3.9213009 -1.5217597 -0.22043908 5
4.4599104 -1.7343643 -0.083527215 3
5.1720743 -1.9884812 0.096721239 14
5.0939059 -1.9614899 0.28606835 5
5.0931311 -1.9652756 0.47761348 42
5.0493803 -1.9514319 0.66467547 57
5.0125966 -1.9402332 0.85131645 58
4.9878097 -1.9346436 1.0399091 69
4.9353971 -1.9172881 1.2223842 82
4.8844275 -1.9004315 1.4043522 91
1.9279015 -0.75631279 -0.55490804 12
2.120291 -0.83306813 -0.52593559 9
2.3254805 -0.91556239 -0.4857997 10
2.5947936 -1.0231627 -0.44177097 6
2.9615121 -1.1695571 -0.39095688 6
3.3664155 -1.3314991 -0.31672394 4
3.9251647 -1.5556678 -0.22127645 5
4.4551282 -1.7684089 -0.083666839 5
5.1558518 -2.0247097 0.096686333 11
5.1317825 -2.0183594 0.28899917 21
5.082994 -2.0022445 0.47796208 35
5.0445189 -1.991158 0.66589415 53
5.0132809 -1.9818623 0.85381943 60
4.976007 -1.9701405 1.0402907 67
4.9309492 -1.9552879 1.2246336 75
4.8599315 -1.9310544 1.4012463 79
1.9279549 -0.77190763 -0.55646098 11
2.1162322 -0.84857547 -0.52638549 10
2.3264823 -0.93429661 -0.4873262 10
2.5914345 -1.0422754 -0.4423967 7
2.953275 -1.1902037 -0.39095688 5
3.3718185 -1.3609341 -0.31811845 4
3.9255953 -1.5868405 -0.22190447 5
4.4686217 -1.8099781 -0.0841555 3
5.1475201 -2.0619881 0.096791051 14
5.1216326 -2.0547307 0.28920853 43
5.0781355 -2.0413973 0.47883365 49
5.0308485 -2.0254488 0.66589415 65
5.0051708 -2.0181565 0.85475802 63
4.962132 -2.0048313 1.0402907 67
4.9280176 -1.9940504 1.2273331 71
4.8699498 -1.9735223 1.4079756 79
1.9333872 -0.78939432 -0.5595668 8
2.1067998 -0.86148524 -0.52548569 10
2.3289864 -0.95423728 -0.4892343 10
2.5950599 -1.0648408 -0.44427395 7
2.9304163 -1.2042419 -0.38900697 5
3.3659201 -1.3859577 -0.31846708 4
3.905189 -1.6104001 -0.22138111 5
4.4635916 -1.8434062 -0.084295124 5
5.2329564 -2.1387267 0.098675907 3
nan nan nan nan
5.0844007 -2.084228 0.48075107 20
5.0184221 -2.0612752 0.66613787 60
5.0128818 -2.0620675 0.85851246 69
4.9610772 -2.0437956 1.042962 78
4.9085722 -2.026175 1.2259834 82
4.8739066 -2.014853 1.413152 87
1.9403129 -0.80807161 -0.56319028 12
2.1043313 -0.87767267 -0.52638549 9
2.3168335 -0.96820229 -0.48808944 10
2.5912073 -1.0844569 -0.44489968 7
2.9329226 -1.2292746 -0.39046943 4
3.378206 -1.4186796 -0.32055882 4
3.8993742 -1.6399468 -0.22169513 5
4.4745717 -1.8846136 -0.084748887 1
5.2382007 -2.183671 0.099059857 1
6.2775483 -2.6208074 0.35651258 4
nan nan nan nan
nan nan nan nan
nan nan nan nan
nan nan nan nan
4.9050841 -2.0649302 1.2286828 63
4.8739634 -2.0548339 1.4172932 87
1.9203988 -0.81555653 -0.55904913 12
2.0981529 -0.89234215 -0.52638549 10
2.3100176 -0.98435313 -0.48808944 10
2.5872068 -1.1040709 -0.44552541 7
2.9315708 -1.2528405 -0.39144436 6
3.3737142 -1.4445821 -0.32108176 3
3.9135294 -1.6781493 -0.22316055 5
4.4741678 -1.9213291 -0.084993221 3
5.2669964 -2.2389627 0.099897578 1
6.3050408 -2.6841266 0.35912937 7
nan nan nan nan
9.1294394 -3.8996866 1.2189373 1
9.2153044 -3.9420717 1.5874972 1
nan nan nan nan
6.1333313 -2.6325514 1.5409149 100
nan nan nan nan
1.9182041 -0.83047861 -0.5600844 12
2.0990236 -0.91006887 -0.52818507 9
2.3120928 -1.0043671 -0.48999751 10
2.5830588 -1.123682 -0.44615117 7
2.9445918 -1.2827899 -0.39436921 6
3.3653729 -1.4688966 -0.32125604 4
3.9035485 -1.7062297 -0.22326522 5
4.4643087 -1.9541211 -0.085063025 3
5.2732544 -2.2852199 0.10031643 1
6.2916455 -2.7304637 0.3594434 21
nan nan nan nan
8.8908672 -3.8713956 1.1906636 1
8.8688745 -3.8673446 1.5324322 1
8.9383783 -3.9032238 1.8958783 1
6.1273012 -2.6807735 1.5440642 100
nan nan nan nan
1.9141271 -0.8446297 -0.56060207 11
2.0961838 -0.92627585 -0.52908486 9
2.3140006 -1.0244577 -0.4919056 10
2.5715394 -1.1400863 -0.44552541 9
2.939193 -1.3049266 -0.39485672 6
3.3586771 -1.4939748 -0.32160467 6
3.906137 -1.7399412 -0.22410259 5
4.4761252 -1.9966447 -0.085551701 3
5.2718062 -2.3284419 0.10059568 1
6.3418388 -2.8050208 0.3634209 7
nan nan nan nan
8.6458883 -3.8367476 1.161415 1
8.5708857 -3.8088365 1.4855019 1
8.6597977 -3.8537793 1.8424517 1
6.1262355 -2.73142 1.5485631 100
nan nan nan nan
1.9169937 -0.86193323 -0.56319028 12
2.0896661 -0.94088727 -0.52908486 9
2.313951 -1.0438166 -0.4934321 10
2.5707188 -1.1612641 -0.4467769 9
2.9300113 -1.3254142 -0.39485672 8
3.3590536 -1.5223207 -0.32265055 4
3.9048076 -1.772121 -0.22473061 3
4.473 -2.0328093 -0.085761122 3
5.2736578 -2.3733954 0.10094472 1
6.336669 -2.8557916 0.36425829 9
nan nan nan nan
8.4126902 -3.8037791 1.1336287 1
8.4361153 -3.8196926 1.4667298 1
8.410965 -3.8136127 1.7951311 1
6.1105657 -2.7757344 1.549463 100
8.4406519 -3.8395121 2.484663 2
1.9179548 -0.87851316 -0.56526077 12
2.0848181 -0.95626533 -0.52953482 7
2.2941196 -1.0542071 -0.49076074 10
2.5661376 -1.1808341 -0.44740263 7
2.9170811 -1.3441755 -0.39436921 5
3.3703229 -1.5551667 -0.32474229 3
3.9068441 -1.8060429 -0.22556801 1
4.4514408 -2.0606267 -0.085621506 3
5.2860446 -2.4234886 0.1015032 1
6.3220234 -2.9024601 0.36457232 7
nan nan nan nan
7.789124 -3.5875392 1.0529512 1
8.1581144 -3.7626686 1.4229281 1
8.2344189 -3.8030918 1.7630752 1
6.1039119 -2.822989 1.5526123 100
8.2734146 -3.8333726 2.4432518 2
1.9082737 -0.89024812 -0.56422555 12
2.0780914 -0.9707967 -0.52953482 9
2.2957823 -1.0739576 -0.49266884 10
2.5651958 -1.2016256 -0.44865409 7
2.914814 -1.3678809 -0.3953442 8
3.3413515 -1.5701842 -0.32299918 4
3.8962674 -1.8334441 -0.22567266 5
4.4586515 -2.1018853 -0.086040363 3
5.2857337 -2.4670248 0.10181734 1
6.3346887 -2.9606466 0.36645639 7
nan nan nan nan
7.5973716 -3.5621033 1.0302836 1
7.6066098 -3.5712943 1.3309445 1
7.612524 -3.5805588 1.6352333 1
6.1016846 -2.8738368 1.5571113 100
8.072403 -3.8071926 2.3914881 2
1.8986796 -0.90155941 -0.56319028 12
2.078475 -0.98826647 -0.53133446 9
2.293546 -1.0924915 -0.49381369 10
2.5603104 -1.2212055 -0.44927984 7
2.9197659 -1.3945339 -0.3972941 8
3.3233967 -1.5894531 -0.32230192 3
3.8941798 -1.8657782 -0.2263007 5
4.4694829 -2.1442955 -0.086529031 3
5.2810245 -2.5098743 0.10206167 1
6.3246865 -3.0099485 0.36708444 7
nan nan nan nan
7.4200482 -3.542361 1.0095657 1
7.4246588 -3.5493371 1.3034122 1
7.4339137 -3.5585446 1.6020325 1
6.0942831 -2.9211991 1.5602607 100
7.3908315 -3.5490267 2.1968563 2
1.8992963 -0.91815567 -0.56526077 12
2.0697708 -1.0019037 -0.5308845 9
2.2860568 -1.1080779 -0.49381369 9
2.5448303 -1.2351544 -0.44802836 7
2.9063885 -1.4131474 -0.3968066 8
3.3337157 -1.6230817 -0.32439366 4
3.8975472 -1.9001188 -0.22724274 7
4.4795599 -2.1877315 -0.087017693 3
5.2764201 -2.5518572 0.10230601 1
6.3274202 -3.0642459 0.36844519 7
7.6291909 -3.7012458 0.74186963 1
7.2261372 -3.5103824 0.98641062 1
7.2440076 -3.5237527 1.2758796 1
7.2447572 -3.5303741 1.5665419 1
6.0912542 -2.9722195 1.5647596 100
7.2241716 -3.5297091 2.1544099 3
1.8999368 -0.93447292 -0.56733137 12
2.0541623 -1.0116639 -0.52863503 9
2.2870684 -1.1283536 -0.49572179 9
2.5467718 -1.2581398 -0.44990557 7
2.9002612 -1.4346582 -0.3972941 8
3.3580079 -1.6640085 -0.32787988 4
3.8770306 -1.9237313 -0.22682405 5
4.4771004 -2.2244003 -0.087262027 3
5.2782116 -2.5983462 0.10268996 1
6.3255796 -3.1180582 0.36959657 21
7.10357 -3.506176 0.69306242 1
7.0537591 -3.4877167 0.96618026 1
7.0793777 -3.5049982 1.251163 1
7.078083 -3.5089729 1.5356308 1
6.0808282 -3.0198722 1.5674591 100
7.0540514 -3.5078018 2.1109281 3
1.9002767 -0.95117283 -0.56940192 12
2.054018 -1.0294726 -0.53043461 9
2.2756264 -1.1425309 -0.49495855 9
2.541456 -1.2776634 -0.4505313 7
2.8937209 -1.4566557 -0.39778158 8
3.3463089 -1.6874111 -0.32787988 4
3.9009466 -1.9696555 -0.22902218 5
4.4632473 -2.2565041 -0.08729694 3
5.2849731 -2.647671 0.10317863 1
6.3232951 -3.1719935 0.37074795 38
6.9542904 -3.4930825 0.68086064 1
6.9015632 -3.4726338 0.94863105 1
6.8942008 -3.4734542 1.2226919 1
6.9166918 -3.4893277 1.5058646 1
6.066555 -3.0657663 1.5692587 100
6.9018345 -3.4924173 2.072623 3
1.8867043 -0.96090913 -0.56733137 11
2.0571973 -1.049099 -0.53313404 10
2.2675946 -1.1583898 -0.49495855 10
2.5430264 -1.3007724 -0.45240852 7
2.8799474 -1.4750123 -0.3972941 6
3.3379929 -1.7125504 -0.32822853 4
3.9030895 -2.0050542 -0.22996421 5
4.458055 -2.2930965 -0.087506369 3
5.3073363 -2.7053897 0.10398144 1
6.315228 -3.2233248 0.37158534 35
6.8552213 -3.5034659 0.67353958 1
6.8559475 -3.5098755 0.94570619 1
6.7924366 -3.4818513 1.2089256 1
6.7524338 -3.4658115 1.4753352 1
6.0727334 -3.1223009 1.5764571 100
6.7415943 -3.4706604 2.0317297 3
1.874804 -0.97139096 -0.56577843 12
2.049823 -1.0634353 -0.53313404 9
2.2646785 -1.1769083 -0.49610341 9
2.5356355 -1.3194059 -0.45272139 5
2.8836637 -1.5024198 -0.39924401 8
3.3471515 -1.746874 -0.33032027 4
3.8943071 -2.0350292 -0.23027822 5
4.4631991 -2.335288 -0.087925225 3
5.277669 -2.7368524 0.10377201 3
6.3085246 -3.2756178 0.37252739 47
6.9932289 -3.6357918 0.68957621 1
6.9562826 -3.6227548 0.96301162 1
6.9150934 -3.6059079 1.2352067 1
6.7350349 -3.5165021 1.4768617 2
6.0697823 -3.1745543 1.581406 100
6.6076717 -3.460283 1.9986008 2
1.8782312 -0.98986 -0.56888431 12
2.0457959 -1.0795386 -0.53403383 9
2.2737641 -1.2018644 -0.49991959 10
2.524617 -1.3361517 -0.45240852 7
2.890645 -1.5318098 -0.40168139 6
3.3348744 -1.7701988 -0.33032027 3
3.8923507 -2.0687282 -0.23101093 5
4.4538479 -2.3701475 -0.088064842 5
5.2778897 -2.7838931 0.10415597 1
6.3031635 -3.3289065 0.37357411 47
6.8126826 -3.6025639 0.67423683 1
6.7834687 -3.593178 0.94253755 1
6.8199468 -3.6170738 1.2226919 1
6.6513677 -3.5321286 1.4638867 1
6.0681181 -3.2278342 1.5868049 100
nan nan nan nan
1.8797885 -1.0075113 -0.57147247 12
2.0399268 -1.094716 -0.53448373 9
2.2705059 -1.2204975 -0.50106448 10
2.5221851 -1.357489 -0.45366001 7
2.8728905 -1.5481859 -0.40070644 8
3.3469806 -1.806687 -0.3327606 3
3.8742995 -2.0939522 -0.2308016 3
4.4582977 -2.4126041 -0.088483699 5
5.27771 -2.8310692 0.10453992 1
6.2956057 -3.3813348 0.37451613 35
6.5066061 -3.499053 0.64634699 1
6.6533589 -3.5839629 0.92791325 1
6.6658702 -3.5952063 1.1995395 1
6.5021691 -3.5113111 1.4364102 1
6.0437222 -3.2691915 1.586355 38
nan nan nan nan
1.8811904 -1.0252324 -0.57406068 12
2.0356557 -1.1107974 -0.53538352 9
2.2584844 -1.2344356 -0.50030124 10
2.5265095 -1.3826503 -0.45616296 7
2.879421 -1.5777435 -0.40314382 8
3.3517523 -1.8395954 -0.33450374 3
3.892844 -2.1392243 -0.23279037 7
4.4448495 -2.4455976 -0.088553511 5
5.2929273 -2.8869963 0.10523801 3
6.2876225 -3.4338193 0.37545818 65
6.2617569 -3.4239516 0.62438375 40
nan nan nan nan
nan nan nan nan
6.305407 -3.4621289 1.3982484 1
nan nan nan nan
6.2240748 -3.4273746 1.903873 2
1.8672278 -1.0345953 -0.57199007 12
2.0448921 -1.1344354 -0.53988254 9
2.2429471 -1.2463582 -0.49877474 10
2.5254261 -1.4050571 -0.45772728 9
2.8683362 -1.597807 -0.40314382 8
3.3318682 -1.8590667 -0.33380648 4
3.8813016 -2.1682971 -0.2329997 7
4.4416299 -2.4843781 -0.088832751 3
5.2848854 -2.9306657 0.10548234 1
6.2757196 -3.4844179 0.37619087 30
6.2464085 -3.4724233 0.62525529 72
nan nan nan nan
nan nan nan nan
6.1062279 -3.4084609 1.3593234 21
nan nan nan nan
nan nan nan nan
1.8532269 -1.0438136 -0.56991959 12
2.0318301 -1.1458122 -0.53853285 9
2.2427382 -1.2668141 -0.50068283 10
2.508678 -1.4187638 -0.45647582 9
2.8640211 -1.6217052 -0.40411878 6
3.3257408 -1.8862138 -0.33450374 4
3.8782268 -2.2022443 -0.2337324 5
4.4311314 -2.5192792 -0.088972367 3
4.7416997 -2.6729007 0.095010899 1
6.206018 -3.5026214 0.37346941 30
6.1456914 -3.4728184 0.6175856 55
6.1484065 -3.4800177 0.86746609 58
6.13025 -3.4739799 1.1160036 87
nan nan nan nan
6.0264535 -3.4248929 1.6003019 100
5.9657311 -3.3945179 1.8391682 100
1.8509241 -1.0596054 -0.57147247 12
2.0237813 -1.1599689 -0.53853285 9
2.2491634 -1.2912376 -0.50411743 10
2.5107002 -1.4431337 -0.45866591 7
2.8595119 -1.6456206 -0.40509373 8
3.3470147 -1.9292855 -0.33798996 3
3.8523791 -2.2232759 -0.23310436 5
4.4411383 -2.56616 -0.089530841 3
4.7055731 -2.6959977 0.094661854 6
4.6689773 -2.6782789 0.28209084 5
nan nan nan nan
6.0843859 -3.5000901 0.8618601 16
6.0425124 -3.4802141 1.1044275 77
6.007021 -3.4639623 1.3478748 60
6.0074592 -3.4698062 1.6016517 94
5.9569392 -3.4447875 1.843827 100
1.8468213 -1.0744441 -0.57250774 7
2.0156341 -1.1740692 -0.53853285 9
2.2451816 -1.3098762 -0.50526226 9
2.497153 -1.4586338 -0.45804018 7
2.8582351 -1.6715562 -0.40655616 8
3.3231492 -1.9465626 -0.3369441 3
3.8522694 -2.2592092 -0.23404641 5
4.4403591 -2.6072271 -0.089879893 4
4.6607146 -2.7136896 0.09413828 3
4.6518912 -2.7118149 0.28219551 1
4.6477361 -2.7126541 0.47081533 8
4.5791268 -2.676898 0.65126985 7
nan nan nan nan
nan nan nan nan
5.9175434 -3.4731905 1.5841054 100
5.8727846 -3.4510558 1.825192 100
1.8525794 -1.095176 -0.57664889 12
2.0174506 -1.1940676 -0.54123229 9
2.2326043 -1.323516 -0.50449902 9
2.5021973 -1.4851054 -0.46085599 9
2.8430829 -1.6894414 -0.40606871 8
3.3248878 -1.978886 -0.3385129 3
3.8621399 -2.3013837 -0.23561651 6
4.4254842 -2.6402121 -0.089949705 4
4.7001719 -2.7807815 0.095325045 4
4.6362829 -2.7462604 0.28240484 3
4.5995517 -2.7277579 0.467852 4
4.5586209 -2.707787 0.65102613 1
4.5620632 -2.7130644 0.84067887 6
4.5360284 -2.7007973 1.0261708 10
nan nan nan nan
nan nan nan nan
1.8450818 -1.1077607 -0.57664889 12
2.0092762 -1.2077723 -0.54123229 9
2.2285898 -1.3417201 -0.50564384 10
2.5038731 -1.509241 -0.46304604 7
2.8723075 -1.7333704 -0.4119184 6
3.3198667 -2.0066249 -0.33938447 3
3.8634727 -2.3379593 -0.23666322 6
4.4245133 -2.6806359 -0.09029875 6
5.3221989 -3.1978996 0.10837945 3
6.1834559 -3.7198031 0.37817967 37
4.6372008 -2.7929244 0.47360432 4
4.5859776 -2.7664385 0.65760702 3
4.5164361 -2.7277145 0.83567303 3
4.4856191 -2.7123091 1.0189201 4
4.4672456 -2.7054603 1.2057377 5
4.4205189 -2.6803255 1.3851995 9
1.8274077 -1.114579 -0.57354301 12
2.005785 -1.224817 -0.54258198 9
2.2191687 -1.3572457 -0.50564384 10
2.486537 -1.5225582 -0.46179458 7
2.8635211 -1.7554554 -0.41240588 8
3.315964 -2.0360076 -0.34043032 3
3.8725786 -2.3805633 -0.23823328 8
4.4363451 -2.730325 -0.090927035 6
5.3099842 -3.2412283 0.10858887 3
6.1471105 -3.7566316 0.37755162 12
nan nan nan nan
nan nan nan nan
4.5477958 -2.7901688 0.8450591 1
4.5150886 -2.7733574 1.029987 6
4.4432697 -2.7335179 1.204388 3
4.3786707 -2.6969373 1.3779527 4
1.8310775 -1.1344314 -0.5771665 12
1.9971853 -1.23879 -0.54258198 8
2.2229805 -1.3809934 -0.50869679 10
2.479202 -1.5419669 -0.46242031 7
2.8579366 -1.7796007 -0.41338086 8
3.3121731 -2.0648558 -0.3414762 4
3.8660297 -2.4138875 -0.23886132 8
4.4409151 -2.7760696 -0.091415711 4
5.3110213 -3.2929723 0.10907754 3
6.1818233 -3.8373756 0.38131982 27
6.0902891 -3.7849741 0.62734705 56
6.0232167 -3.7491219 0.87112212 55
nan nan nan nan
nan nan nan nan
nan nan nan nan
4.4055929 -2.7561283 1.3924465 4
1.8345587 -1.154389 -0.58078998 12
1.9884884 -1.2527027 -0.54258198 8
2.220171 -1.4002818 -0.51022327 10
2.4853513 -1.5693531 -0.46554902 6
2.8487985 -1.8016315 -0.41386834 8
3.3145106 -2.0985868 -0.34321931 4
3.8495095 -2.4401464 -0.23886132 8
4.4315557 -2.813436 -0.091625139 4
5.3155603 -3.3460913 0.10963602 4
6.1623187 -3.8836238 0.38173848 37
6.0873041 -3.8422883 0.62978739 55
6.0210514 -3.8048797 0.87453443 78
6.0046229 -3.7988999 1.1253897 49
5.9386034 -3.7629395 1.366574 71
5.8861609 -3.7340302 1.6092999 100
nan nan nan nan
1.8331707 -1.1710095 -0.58286053 12
1.9782737 -1.2651587 -0.54213208 9
2.208688 -1.4146885 -0.50984168 9
2.4776607 -1.5887984 -0.46617478 6
2.853174 -1.8317053 -0.41630572 6
3.3299446 -2.1410708 -0.34635693 4
3.8491745 -2.4777725 -0.23990804 6
4.4257498 -2.852201 -0.091904372 6
5.2718525 -3.3701942 0.10921716 3
6.1468325 -3.934087 0.3824712 35
nan nan nan nan
nan nan nan nan
5.9862661 -3.8460653 1.1269541 43
5.9409227 -3.8213298 1.3730617 78
5.8746934 -3.7845304 1.6133491 100
5.8283095 -3.7589691 1.8583208 100
1.8136058 -1.1764196 -0.57923704 12
1.9890052 -1.2916751 -0.54753089 9
2.1987576 -1.4300735 -0.50984168 6
2.4747853 -1.6114464 -0.46773914 5
2.8536205 -1.8602518 -0.41825563 8
3.3115795 -2.1620874 -0.3460083 4
3.850173 -2.5166042 -0.24105945 6
4.4291558 -2.8983581 -0.092393041 4
5.2616143 -3.4156263 0.1094964 3
6.1426625 -3.992141 0.38393661 32
6.0988798 -3.9682298 0.63658553 2
6.0471706 -3.9405968 0.88623393 7
6.063499 -3.9557619 1.1466647 7
nan nan nan nan
5.9834876 -3.9139931 1.6506909 93
5.8083897 -3.8037999 1.8603914 100
1.8005085 -1.1858644 -0.57768416 12
1.9766855 -1.3033839 -0.5466311 9
2.1969121 -1.450798 -0.51174974 9
2.4618273 -1.6275947 -0.46742624 6
2.8504963 -1.8867023 -0.41971806 6
3.2930832 -2.1829522 -0.34565967 3
3.8424945 -2.5500484 -0.24168746 8
4.4221387 -2.9380617 -0.092672281 6
5.8938069 -3.8847735 0.12321399 11
6.1329799 -4.0470276 0.385088 30
6.0793395 -4.016202 0.63745707 1
6.0344129 -3.9925764 0.88842762 8
6.1246648 -4.0569024 1.1635597 8
nan nan nan nan
nan nan nan nan
nan nan nan nan
1.8114566 -1.2112913 -0.5838958 12
1.9675381 -1.317152 -0.5466311 9
2.1981447 -1.473753 -0.51442105 9
2.4454839 -1.6414391 -0.46648762 5
2.8405507 -1.9087707 -0.42020553 6
3.2942927 -2.2170126 -0.34740278 3
3.8345368 -2.5835073 -0.2423155 6
4.4247289 -2.9845173 -0.09316095 6
5.9180613 -3.9603014 0.12429604 9
6.1278071 -4.1053076 0.38655341 30
6.0842471 -4.0807419 0.64094335 2
6.0195756 -4.0434618 0.89037746 8
6.1535659 -4.1381431 1.1745101 14
nan nan nan nan
nan nan nan nan
nan nan nan nan
1.8013579 -1.2228231 -0.5833782 12
1.9647418 -1.3352371 -0.54843074 9
2.1861796 -1.4879582 -0.51403946 9
2.4453921 -1.6662579 -0.4686777 6
2.8304355 -1.9307921 -0.42069301 6
3.3017669 -2.2556918 -0.34984317 3
3.8279471 -2.6181073 -0.24304819 8
4.4301853 -3.0334108 -0.093719423 6
5.9382391 -4.0341077 0.12530828 14
6.1204672 -4.1625891 0.38791415 32
6.0852542 -4.143302 0.64408094 1
6.0141606 -4.1010447 0.89378983 8
6.1620498 -4.2066183 1.1817061 19
24.559498 -16.784777 5.7822762 10
7.7865362 -5.3295565 2.178426 10
8.605526 -5.896739 2.7952456 2
1.7911863 -1.234273 -0.58286053 12
1.9521642 -1.3467078 -0.54753089 9
2.1854296 -1.5098798 -0.51632917 9
2.446697 -1.6922787 -0.47118065 7
2.8201509 -1.9527652 -0.42118049 8
3.2990367 -2.2877703 -0.35123762 5
3.8259823 -2.6561573 -0.24409491 8
4.4318886 -3.0802426 -0.094208091 4
5.9461474 -4.100441 0.12607619 16
6.106051 -4.2154284 0.3888562 34
6.0561805 -4.1856833 0.64408094 3
6.0131321 -4.1621375 0.89793342 10
6.1666288 -4.2731614 1.1882763 35
24.441721 -16.955826 5.7822762 10
7.7347355 -5.3737803 2.174377 6
nan nan nan nan
1.7888579 -1.2511764 -0.58493102 12
1.9570818 -1.3703634 -0.55158001 9
2.1732283 -1.523973 -0.51594758 7
2.4445238 -1.7161286 -0.4730579 7
2.8194425 -1.9815372 -0.42313039 6
3.2866468 -2.3124664 -0.35158628 7
3.817142 -2.6897054 -0.24472295 8
4.4233484 -3.1203296 -0.094487324 6
5.8911648 -4.1235051 0.12551771 14
6.0944648 -4.2705617 0.39000759 34
6.0578017 -4.2496014 0.64739287 1
6.0025315 -4.2155199 0.9006145 8
6.167346 -4.3377004 1.1942208 100
24.483278 -17.239073 5.8204379 10
nan nan nan nan
7.3111882 -5.1593866 2.3976998 2
1.7771491 -1.2610879 -0.5838958 12
1.9540633 -1.3881673 -0.5533796 9
2.1660039 -1.5410066 -0.51671082 7
2.4263499 -1.728144 -0.47180638 8
2.8188198 -2.0099022 -0.4250803 8
3.2740736 -2.3370988 -0.35193488 5
3.8182433 -2.7295635 -0.24597903 8
4.4312778 -3.1713138 -0.095115617 6
6.0113282 -4.2688708 0.12869404 13
6.0929284 -4.3316193 0.39178702 34
6.0336056 -4.2942028 0.64791578 1
6.0076489 -4.2804704 0.90573299 10
6.1537571 -4.3910532 1.1973495 100
24.467609 -17.478361 5.8448615 11
26.018095 -18.606529 7.3846941 19
7.2177806 -5.1674228 2.3785472 2
1.7732278 -1.2765414 -0.58544868 12
1.9461502 -1.4025753 -0.55382955 9
2.1650162 -1.5626079 -0.51900047 7
2.4241376 -1.751561 -0.47368363 7
2.817585 -2.0388422 -0.42703021 8
3.2705863 -2.3692498 -0.35332939 5
3.8028083 -2.7578351 -0.24618836 8
4.4219742 -3.2115731 -0.09539485 10
6.0243158 -4.3400803 0.12960157 13
6.0908418 -4.3928533 0.39356643 31
6.0268507 -4.3515005 0.65035611 1
5.9856634 -4.3281226 0.90695173 10
6.1445279 -4.447896 1.2014169 100
nan nan nan nan
nan nan nan nan
7.1768403 -5.2142797 2.3769941 2
1.7734061 -1.2960367 -0.58855456 12
1.9313456 -1.4130137 -0.5524798 9
2.1651416 -1.5858051 -0.52167183 9
2.4210987 -1.7758728 -0.47556084 7
2.8144829 -2.0666871 -0.42873639 9
3.2635975 -2.3991051 -0.35437521 5
3.7926271 -2.7920811 -0.24681638 8
4.412324 -3.2518568 -0.095674098 8
6.0245419 -4.4044552 0.13026476 11
6.0737548 -4.4469442 0.39450848 31
6.0341249 -4.4227839 0.65453959 1
5.9697051 -4.380374 0.90914541 10
6.1364202 -4.5092974 1.2061099 100
nan nan nan nan
7.2933359 -5.3712192 2.091145 2
8.8153486 -6.5016112 2.935008 2
1.7658666 -1.3095363 -0.58907217 12
1.9276927 -1.4311088 -0.55427945 9
2.1442852 -1.5942295 -0.51938212 9
2.421319 -1.8021672 -0.47806379 7
2.7983947 -2.0850995 -0.42849267 9
3.2527342 -2.4271636 -0.3550725 5
3.7954443 -2.8352244 -0.24828181 8
4.3863111 -3.2801862 -0.095604278 6
6.0426507 -4.484396 0.13134682 14
6.0618 -4.5035319 0.39576453 31
6.0350752 -4.4885826 0.6580258 1
5.9604959 -4.4395809 0.91255772 10
6.1158748 -4.5602932 1.2083 100
nan nan nan nan
nan nan nan nan
9.6668282 -7.2343416 3.2352383 2
1.7597686 -1.3241556 -0.5901075 12
1.926994 -1.4515668 -0.55697882 9
2.1315358 -1.607978 -0.51900047 9
2.4244423 -1.8309318 -0.48119247 8
2.7932706 -2.1117675 -0.42995507 8
3.2420642 -2.4546235 -0.35576975 5
3.7787416 -2.8640652 -0.24849114 8
4.4397702 -3.3687475 -0.097279713 17
6.0287681 -4.5397038 0.13173077 14
6.0589194 -4.5673814 0.39764863 31
6.0051823 -4.531806 0.65820014 3
5.9610305 -4.5050216 0.91743249 10
6.1059437 -4.6195641 1.2126801 92
nan nan nan nan
7.427835 -5.6339488 2.1523318 2
9.6622438 -7.3367 3.2507672 2
1.7520168 -1.337581 -0.59062505 12
1.9230065 -1.4697176 -0.55877846 9
2.1342893 -1.633559 -0.52243507 9
2.4084649 -1.84541 -0.48056671 7
2.7957859 -2.1445067 -0.4326362 9
3.2374887 -2.4869065 -0.3571642 5
3.7966528 -2.9195962 -0.25100327 8
4.5444922 -3.4984665 -0.100107 13
6.0477767 -4.6205306 0.13284773 11
6.0506825 -4.6277695 0.39921871 31
6.0034556 -4.596633 0.66151208 1
5.951489 -4.5634379 0.92084479 7
6.0954819 -4.6789179 1.2170602 91
nan nan nan nan
7.3759665 -5.676158 2.1487324 2
7.4927425 -5.7722721 2.5343564 2
1.7441635 -1.3509625 -0.59114271 12
1.9142389 -1.4843011 -0.55922836 10
2.1321373 -1.6556438 -0.52472478 9
2.3955228 -1.8621792 -0.48056671 8
2.7807465 -2.1639726 -0.4326362 9
3.2231913 -2.5118976 -0.35751286 5
3.7698791 -2.9411161 -0.25058457 8
4.5956059 -3.5891886 -0.10178243 13
5.9821815 -4.6369119 0.13211471 13
6.0497861 -4.694386 0.40131214 31
5.980659 -4.6457658 0.66255796 1
5.9445543 -4.6243773 0.92474467 10
6.0891633 -4.7419915 1.2223791 87
nan nan nan nan
7.3745613 -5.7574944 2.1599801 2
7.6303487 -5.9636269 2.5949197 2
1.7301327 -1.3595253 -0.58958983 10
1.9038302 -1.4976286 -0.55922836 10
2.1344063 -1.6814225 -0.52815932 9
2.3917706 -1.8861967 -0.48244393 7
2.7733614 -2.1894829 -0.43385491 8
3.2180798 -2.5442233 -0.35890734 5
3.7680478 -2.9822373 -0.25184065 8
4.6174574 -3.6584396 -0.10282958 9
6.0707016 -4.7737403 0.13480239 39
6.0372672 -4.7525668 0.40267289 31
5.9950266 -4.724401 0.66778725 1
5.9277086 -4.6780634 0.92718202 10
6.0791602 -4.8027544 1.2270721 84
nan nan nan nan
7.2975245 -5.7797999 2.1491826 2
7.2176561 -5.7226949 2.4680984 7
1.7326843 -1.3812042 -0.59373093 11
1.8872358 -1.5060213 -0.55742878 9
2.1103463 -1.6864772 -0.52510637 7
2.3908842 -1.9127207 -0.48494691 7
2.7704041 -2.2187185 -0.43580481 8
3.2157822 -2.579093 -0.36065045 5
3.7455788 -3.0072196 -0.25173599 12
4.7788434 -3.8409157 -0.10701816 9
6.082561 -4.852169 0.13581464 42
6.0257912 -4.812048 0.4041383 33
5.9883542 -4.7872891 0.67075062 1
5.9227991 -4.7416635 0.93156934 7
6.0639801 -4.8599019 1.2308265 85
6.0257688 -4.8344612 1.5016669 10
7.2494006 -5.824502 2.1469331 2
7.1444111 -5.7463069 2.4567106 2
1.7154887 -1.3871933 -0.59114271 11
1.8903078 -1.5301948 -0.56147784 8
2.1030965 -1.704878 -0.52625126 9
2.3866761 -1.9368339 -0.48682413 8
2.751766 -2.235502 -0.43531734 8
3.2038813 -2.6065099 -0.36134771 7
3.7523689 -3.0559974 -0.25362006 6
4.8433552 -3.9487367 -0.10907754 11
6.07341 -4.9146409 0.1363731 37
6.0215368 -4.8778844 0.40612707 33
5.9687138 -4.8402729 0.67231935 1
5.9188299 -4.806673 0.93620038 7
6.0436983 -4.9133325 1.2336423 21
nan nan nan nan
nan nan nan nan
5.9545279 -4.8581252 2.0591643 3
1.7162181 -1.4077121 -0.5947662 12
1.9006641 -1.5606675 -0.5677765 9
2.0972087 -1.7245064 -0.52777767 9
2.3761466 -1.9559596 -0.48744985 8
2.7422199 -2.2597079 -0.43629229 8
3.1917529 -2.6338861 -0.36204496 5
3.7432613 -3.0922956 -0.25445744 6
4.9050484 -4.0563674 -0.11110201 11
6.0420432 -4.9594588 0.13644291 42
6.0104833 -4.9388242 0.40769714 30
5.9440103 -4.8894181 0.67336524 3
5.9096446 -4.8680711 0.94010019 6
3.861892 -3.1846299 0.79280996 6
5.9909902 -4.9456196 1.5100625 76
5.9357605 -4.9069986 1.7780132 100
nan nan nan nan
1.713774 -1.4258368 -0.59735435 12
1.8867276 -1.5714043 -0.56687671 10
2.0941646 -1.7466506 -0.53006744 9
2.3654661 -1.9750324 -0.48807558 7
2.7385626 -2.2889817 -0.4382422 8
3.1885653 -2.6688924 -0.36378807 7
3.7246437 -3.1209185 -0.25466678 6
4.9547467 -4.1560526 -0.11288217 10
6.0410819 -5.0296674 0.13721082 30
6.0218849 -5.0190253 0.41083729 38
5.9556255 -4.9690886 0.67859459 1
5.8907485 -4.921937 0.94253755 8
3.7789567 -3.1608188 0.78029525 13
5.8599806 -4.9066596 1.4856389 50
5.8610406 -4.9145117 1.7658659 48
5.8150935 -4.8811722 2.0343177 57
1.7111601 -1.4439958 -0.59994256 12
1.8757112 -1.5845377 -0.56687671 10
2.098407 -1.7751756 -0.53426522 9
2.3727248 -2.0093706 -0.49245578 7
2.7285724 -2.313179 -0.43921715 8
3.188082 -2.7065613 -0.36587983 7
3.7210279 -3.1623664 -0.25592285 8
4.9697804 -4.2281194 -0.11389441 17
6.0455437 -5.1052647 0.13811834 42
5.980598 -5.0557861 0.41041863 33
5.9390407 -5.0259895 0.68068635 1
5.881989 -4.9847608 0.94668114 10
nan nan nan nan
nan nan nan nan
5.7835388 -4.9186964 1.7528187 44
5.7470427 -4.8928471 2.0224121 94
1.7071633 -1.4606336 -0.60201317 11
1.8752426 -1.6061422 -0.57002604 10
2.0832951 -1.7868615 -0.53350198 10
2.3589926 -2.0254745 -0.49245578 7
2.7097533 -2.3291101 -0.43872967 8
3.1877058 -2.7437954 -0.36797154 5
3.734216 -3.2176068 -0.25833032 8
4.9651132 -4.2827473 -0.11445288 12
6.0440712 -5.1749086 0.13888624 50
5.9809246 -5.1262717 0.41282606 30
5.9228382 -5.0818677 0.68277812 1
5.8810463 -5.0531425 0.95204335 10
6.0203552 -5.1783228 1.2577332 91
3.7282767 -3.2102218 0.95633471 17
nan nan nan nan
nan nan nan nan
1.6910881 -1.4674515 -0.59994256 12
1.8683976 -1.6230286 -0.57137573 9
2.0737321 -1.803939 -0.53426522 9
2.3582017 -2.0535696 -0.49527156 6
2.7113831 -2.3636239 -0.44165453 8
3.159467 -2.7581215 -0.36692566 9
3.7522681 -3.2790828 -0.26115644 8
4.9862652 -4.3620715 -0.11563965 7
6.0349746 -5.2405782 0.13951454 48
5.9721231 -5.1914873 0.41471016 30
5.9262929 -5.1570978 0.68731016 1
5.8740611 -5.118856 0.95667446 10
5.9989438 -5.233212 1.260862 92
3.7323921 -3.2594159 0.96320391 15
8.8265371 -7.7188888 2.7070611 4
7.3506222 -6.4349842 2.6176958 7
1.6779019 -1.4766691 -0.59890729 12
1.8657945 -1.6437619 -0.5740751 9
2.0669765 -1.8235676 -0.5357917 9
2.3423271 -2.0686748 -0.4949587 8
2.7037394 -2.3903844 -0.44311696 8
3.143604 -2.7822044 -0.36727428 9
3.7113478 -3.2893012 -0.25990039 23
5.0215077 -4.4551692 -0.11717546 10
6.020752 -5.3024068 0.1400381 43
5.9597049 -5.2541862 0.41638491 24
5.9140463 -5.2194395 0.69009912 7
5.8604932 -5.1794586 0.96033055 7
5.9962907 -5.3050699 1.2680578 85
3.7830317 -3.3504763 0.98228478 5
3.8349798 -3.4000692 1.1832427 1
nan nan nan nan
1.6819648 -1.5012109 -0.60408366 12
1.8513672 -1.6541506 -0.57317531 10
2.0603697 -1.8428303 -0.53731817 10
2.3370221 -2.0924766 -0.49683592 8
2.6869855 -2.4092016 -0.44311696 8
3.1359661 -2.8147295 -0.36866876 7
3.7334423 -3.3545337 -0.26304054 4
3.3788834 -3.0402253 -0.07933864 4
6.0054035 -5.3619108 0.14052677 42
5.943162 -5.311934 0.41774565 11
5.9027019 -5.2831883 0.69306242 1
5.8295374 -5.2232032 0.96106172 7
5.9923935 -5.3747802 1.2749411 61
3.5200126 -3.1616552 0.91969937 27
3.4561186 -3.1075368 1.0730166 3
7.3516607 -6.6171417 2.6503072 2
1.6702747 -1.5113285 -0.60356599 11
1.835732 -1.6627893 -0.57182562 10
2.0663583 -1.8743165 -0.54227924 10
2.3311322 -2.1167085 -0.49871314 8
2.6764004 -2.4327767 -0.44409195 8
3.1250801 -2.8446007 -0.36971465 7
3.5623026 -3.245995 -0.25257334 6
3.4009557 -3.1022353 -0.080350876 21
5.9989533 -5.4318919 0.14125979 47
5.9103723 -5.3573189 0.41805965 2
5.8843102 -5.3393106 0.69515419 1
3.5656717 -3.239964 0.59155381 11
nan nan nan nan
3.5419595 -3.2251959 0.93114793 28
3.3925805 -3.0935113 1.0599694 32
3.4742911 -3.1713519 1.2604488 1
1.6781874 -1.5399321 -0.6102953 11
1.8398654 -1.6900661 -0.57677454 10
2.0546675 -1.8900257 -0.54266083 10
2.3192041 -2.1356075 -0.49933887 8
2.6447554 -2.4379473 -0.44165453 6
3.1227126 -2.8825655 -0.37180638 5
3.6246333 -3.3494034 -0.25864434 4
3.3645356 -3.1123233 -0.080001831 42
5.990344 -5.5006905 0.14195788 47
5.8698869 -5.3957472 0.41785032 2
5.8718157 -5.4031949 0.69811749 1
5.8304925 -5.3726916 0.97349238 10
3.5573192 -3.2814503 0.76652896 27
nan nan nan nan
3.4939477 -3.2309031 1.0986611 6
3.5073559 -3.2467105 1.2806368 16
1.6631531 -1.5476623 -0.60874242 11
1.8308737 -1.7055259 -0.57767433 10
2.0514719 -1.913698 -0.54533213 11
2.3042381 -2.1517463 -0.49933887 8
2.6508734 -2.4780414 -0.44555435 6
3.1025126 -2.9042957 -0.37180638 7
3.668201 -3.4374483 -0.26345924 2
3.3412676 -3.1343682 -0.079966925 12
5.986918 -5.5750818 0.14279559 50
5.9197311 -5.5183072 0.42413062 2
5.8776517 -5.4848361 0.70334685 1
3.2923765 -3.0766428 0.55328691 15
5.9650736 -5.5800648 1.2937132 89
3.5094807 -3.2864125 0.93458253 22
3.481257 -3.2645473 1.1018103 17
3.483196 -3.2697945 1.2801191 15
1.656523 -1.5632132 -0.6102953 11
1.8316718 -1.7303103 -0.58172351 11
2.0337832 -1.9239258 -0.54418731 10
2.2920289 -2.1704969 -0.49996459 8
2.6219838 -2.4855616 -0.44360444 5
3.0966115 -2.9396017 -0.37354952 3
3.2807155 -3.1176386 -0.23718657 28
3.2627993 -3.1038656 -0.078605637 32
5.9682059 -5.6359644 0.14328425 47
5.875257 -5.5540123 0.42371196 2
3.4224904 -3.2387516 0.41224664 15
3.2736993 -3.1022837 0.55377436 18
nan nan nan nan
3.7028422 -3.5163238 0.9925884 4
3.3058684 -3.1437373 1.0532209 17
3.4700785 -3.3033564 1.2837424 13
1.6413822 -1.5707326 -0.60874242 12
1.8237691 -1.7470995 -0.58307314 11
2.0316365 -1.9489498 -0.5472402 10
2.271121 -2.1809723 -0.49871314 8
2.6160164 -2.5148115 -0.44555435 8
3.073143 -2.9583848 -0.37320086 5
3.2200406 -3.1030469 -0.23436043 20
3.2309766 -3.1168499 -0.078361303 32
5.9518232 -5.6996217 0.14384274 48
5.9141951 -5.6695285 0.42936423 2
3.3811083 -3.2446327 0.4099806 27
3.5740087 -3.4345431 0.60861558 31
3.2529235 -3.1292648 0.71490556 21
3.4321415 -3.3051319 0.92618686 31
3.332937 -3.2140861 1.0689675 4
nan nan nan nan
1.642854 -1.5942618 -0.61340117 12
1.8143234 -1.7625048 -0.58397299 12
2.0264244 -1.9712996 -0.54952991 10
2.2699919 -2.210556 -0.50184184 8
2.5955529 -2.5302422 -0.44506687 8
3.0666718 -2.9936845 -0.37494397 7
3.228296 -3.1547651 -0.23655853 10
3.233439 -3.1631024 -0.078954689 37
5.9491868 -5.7772555 0.14475027 47
3.3382235 -3.245147 0.24399024 12
3.5711288 -3.4751971 0.43595302 13
3.5229323 -3.4330871 0.60398453 11
3.2225142 -3.1436217 0.71302837 22
3.2081251 -3.1328654 0.87161553 10
3.540307 -3.4620864 1.1432014 16
3.1834123 -3.1163394 1.1936734 17
1.6399456 -1.6138221 -0.61650699 11
1.8130808 -1.786069 -0.58757222 12
2.0126126 -1.9853987 -0.54952991 11
2.2657485 -2.2374535 -0.50434476 8
2.5862961 -2.5566742 -0.44652933 6
3.054193 -3.0234311 -0.37598985 8
3.5580235 -3.5258772 -0.26251718 9
3.1970811 -3.1715159 -0.078605637 37
5.9514532 -5.8607397 0.1457974 9
3.341089 -3.2936113 0.24587436 27
3.4900544 -3.4440651 0.42898056 42
nan nan nan nan
3.5459566 -3.5077918 0.78999412 12
nan nan nan nan
3.2642128 -3.2369804 1.0613192 16
nan nan nan nan
1.6259042 -1.6225023 -0.61547172 11
1.8115971 -1.8097007 -0.59117138 10
1.9931512 -1.9938469 -0.54800349 11
2.2556565 -2.2588077 -0.50559622 8
2.5795994 -2.5859103 -0.44847921 8
3.0301988 -3.0418565 -0.37564126 6
3.1966133 -3.2122731 -0.23750059 6
3.203058 -3.222122 -0.079303734 45
3.3775692 -3.3728564 0.083317786 2
3.3264892 -3.3253279 0.24650237 7
nan nan nan nan
nan nan nan nan
3.1239185 -3.1337478 0.70082647 16
nan nan nan nan
3.2703917 -3.288708 1.070767 14
3.2566793 -3.2783504 1.2381904 4
1.6172532 -1.636562 -0.61650699 10
1.8071332 -1.8306251 -0.59387082 9
1.9888307 -2.0174999 -0.5506748 11
2.2481482 -2.2829452 -0.50747347 8
2.5698366 -2.6123469 -0.44994166 8
3.0200591 -3.0743072 -0.37703574 6
3.1894982 -3.2501924 -0.23865199 66
nan nan nan nan
3.3258383 -3.367897 0.082619689 24
3.4083905 -3.4551094 0.25435278 1
3.4640033 -3.5151641 0.43176955 17
3.540766 -3.5980814 0.61982757 25
3.1504333 -3.2047851 0.71177691 21
5.8503175 -5.9574847 1.6230214 20
3.6976156 -3.770611 1.2192347 5
3.135025 -3.2002647 1.2004027 26
1.6152266 -1.6574976 -0.62013048 9
1.7929497 -1.8418001 -0.59342092 10
1.9856455 -2.0425971 -0.55372775 10
2.2266505 -2.2929158 -0.50622195 7
2.5625939 -2.6416228 -0.45189157 8
2.9929776 -3.0895922 -0.37633851 4
3.0653386 -3.1676061 -0.23101093 28
3.2870147 -3.4002383 -0.082549877 38
3.0943727 -3.1775718 0.077418879 31
3.2950559 -3.387197 0.24765378 30
3.2783091 -3.3735147 0.41154939 37
3.179626 -3.2765391 0.56059903 6
3.3740969 -3.480582 0.76778048 18
5.7539544 -5.9417682 1.6077567 13
3.1008787 -3.2065706 1.0298259 24
3.085763 -3.1942847 1.19005 35
1.6062928 -1.6715193 -0.62116575 10
1.7894948 -1.8641131 -0.59657025 12
1.9740542 -2.0592442 -0.55449098 10
2.2160542 -2.3141117 -0.50747347 7
2.5276232 -2.6422353 -0.44896671 6
2.897547 -3.0321095 -0.36692566 11
3.0321195 -3.1773698 -0.23017356 37
3.163852 -3.3188903 -0.080036737 35
3.135828 -3.2654443 0.079024501 34
3.3224859 -3.4634459 0.25152662 42
3.2174582 -3.3574793 0.40684301 18
3.108638 -3.2484601 0.55206817 25
3.1135705 -3.2570267 0.7136541 3
3.0927677 -3.2386591 0.8704707 32
2.8408945 -2.9780245 0.95019329 10
5.6270924 -5.9069638 2.1859856 25
1.6065439 -1.6953125 -0.62582451 11
1.7750976 -1.8751454 -0.5961203 11
1.9626898 -2.0754862 -0.55525422 10
2.2043209 -2.3334501 -0.50841206 5
2.5172882 -2.6684806 -0.45042911 8
2.9582937 -3.1392651 -0.37738436 4
3.2212467 -3.4218922 -0.24629304 22
3.0310328 -3.2243371 -0.077244349 43
3.1987925 -3.3767207 0.081188597 37
3.1656728 -3.3452652 0.24137343 31
3.0967808 -3.2770443 0.39446688 28
3.1082571 -3.2926407 0.55596799 41
3.035763 -3.2192211 0.70082647 27
2.7780147 -2.9500196 0.78765959 5
5.6093588 -5.962924 1.8900388 2
2.9117801 -3.0985627 1.1393216 35
1.5989248 -1.7104424 -0.62737739 12
1.7742631 -1.9000032 -0.60016948 11
1.9468135 -2.0877018 -0.55487263 9
2.1866302 -2.3473365 -0.5080992 8
2.5044758 -2.6913664 -0.45140409 8
2.9327872 -3.1549506 -0.37686142 14
3.136133 -3.3784263 -0.2415828 36
2.9723039 -3.2053044 -0.076301925 19
3.0823164 -3.299602 0.078815073 24
3.0904615 -3.3117955 0.23739593 37
3.0513079 -3.2732723 0.39150357 35
3.0770793 -3.3055422 0.55450553 7
5.6860981 -6.1146884 1.3224971 5
2.9890285 -3.2177038 0.85367942 5
2.8883762 -3.1126177 0.98033679 49
2.8021011 -3.023876 1.1046398 41
1.5908728 -1.7258245 -0.62893027 13
1.768876 -1.9209447 -0.60286885 12
1.9392036 -2.1081295 -0.5567807 10
2.1679287 -2.359257 -0.50747347 7
2.5017312 -2.7263367 -0.45432895 8
2.9066515 -3.1709418 -0.37633851 6
3.0928321 -3.3776002 -0.24001274 26
2.9876382 -3.267297 -0.077279255 24
3.0936625 -3.3572698 0.079687685 35
nan nan nan nan
3.5663714 -3.8797588 0.46105388 8
2.8034341 -3.0529864 0.50892639 11
3.044502 -3.3189998 0.7133413 13
2.9200788 -3.1878231 0.84032285 18
2.840265 -3.1039529 0.97133875 43
2.8361964 -3.1027672 1.1263806 8
1.5855871 -1.7437598 -0.63151848 12
1.7570697 -1.9343829 -0.60331875 11
1.932353 -2.1303411 -0.55907035 9
2.1593635 -2.3831172 -0.50935066 7
2.487112 -2.7477174 -0.45506018 11
2.8844435 -3.1911566 -0.37633851 10
2.9835126 -3.3042367 -0.23331371 37
2.8273761 -3.1346138 -0.073684059 19
3.2086625 -3.5312231 0.083282888 23
3.0686681 -3.3807108 0.23928 1
4.3228035 -4.7673879 0.56302613 9
4.5967813 -5.0766616 0.84089851 3
nan nan nan nan
2.8798854 -3.1872318 0.83498025 35
2.8550794 -3.1642168 0.98393595 19
2.8079989 -3.1153164 1.1237923 26
1.5772438 -1.7591017 -0.63307142 11
1.746123 -1.9495054 -0.60421854 11
1.9213598 -2.1481693 -0.56021523 10
2.1426737 -2.3981342 -0.50935066 8
2.4625816 -2.7590895 -0.4540852 9
2.8488386 -3.1963425 -0.37459537 20
2.957716 -3.3220017 -0.23310436 35
2.8572528 -3.2125499 -0.075045347 24
3.0464864 -3.4001367 0.079687685 37
2.879822 -3.2175133 0.2263007 30
2.8604953 -3.19929 0.37546691 62
nan nan nan nan
nan nan nan nan
2.8236077 -3.169148 0.82505816 16
2.8225567 -3.1724248 0.98033679 34
2.7412639 -3.0843055 1.105675 24
1.5713226 -1.7773068 -0.63565958 11
1.7376304 -1.9674908 -0.60601819 7
1.897226 -2.1512237 -0.55754393 9
2.131103 -2.4189632 -0.51060218 7
2.4563746 -2.791116 -0.45652261 11
2.7541163 -3.133841 -0.36500823 35
3.175586 -3.6172395 -0.25225934 19
2.747735 -3.1331913 -0.072741628 37
2.8518798 -3.2280014 0.075184964 41
2.8982587 -3.2839615 0.22954552 35
2.885524 -3.2729845 0.38174215 52
2.8267682 -3.2108552 0.52525693 43
2.8021281 -3.186229 0.67204249 15
2.7236688 -3.1002872 0.80216104 13
2.92243 -3.3312197 1.0230775 22
2.5044856 -2.8578298 1.0181942 32
1.5576069 -1.7867769 -0.63514197 10
1.7328107 -1.9898611 -0.60916752 12
1.8860266 -2.1688607 -0.55868876 9
2.124527 -2.4457126 -0.51310509 7
2.4420331 -2.814194 -0.45749757 9
2.7373898 -3.1590149 -0.36570549 31
2.8417656 -3.2829387 -0.22755675 22
2.7284107 -3.1553228 -0.072811447 42
2.8345287 -3.253864 0.07532458 31
2.7585735 -3.1700215 0.22022973 42
nan nan nan nan
2.7001801 -3.1105847 0.50575781 41
2.6245191 -3.0266237 0.6344983 24
2.5888417 -2.9886405 0.76857871 46
2.6160765 -3.0243452 0.92319918 13
2.5135238 -2.9088647 1.0300999 28
1.545095 -1.7976075 -0.63514197 6
1.7226853 -2.0063453 -0.6105172 12
1.8797843 -2.1924076 -0.56136012 10
2.1035464 -2.4559839 -0.5121665 6
2.4261985 -2.8356988 -0.45822877 6
2.7476249 -3.2159183 -0.37006328 16
2.8084047 -3.2905447 -0.22671939 31
2.720587 -3.1910326 -0.07319539 39
2.7674437 -3.221997 0.074137822 18
2.8521252 -3.3241072 0.22954552 23
2.7293339 -3.1843686 0.36692566 27
2.6667809 -3.1157866 0.50356412 33
2.7856095 -3.2580736 0.67892563 4
2.578114 -3.0185838 0.7716316 23
2.6100743 -3.0603278 0.92859805 24
2.8063653 -3.293972 1.1595093 34
1.533757 -1.8098242 -0.63565958 7
1.7073772 -2.0168355 -0.61006731 12
1.8695025 -2.2114742 -0.56288654 9
2.086349 -2.4706094 -0.5121665 6
2.4178627 -2.8662236 -0.4604224 9
2.6031635 -3.090261 -0.3535037 21
2.7107794 -3.2214355 -0.22064841 38
2.5824387 -3.0721819 -0.070053965 39
2.7138672 -3.2046149 0.073300108 30
2.733393 -3.2311006 0.22179982 26
2.6826026 -3.1744316 0.36361378 11
3.4143848 -4.0461054 0.65005112 8
2.5781856 -3.0584416 0.63355964 31
2.4545472 -2.9148681 0.74072057 29
2.5936625 -3.0844407 0.93039763 15
3.3722675 -4.0146408 1.4048699 9
1.5260392 -1.8264176 -0.63773018 10
1.6920069 -2.02721 -0.60961735 12
1.854018 -2.224472 -0.56288654 10
2.074106 -2.4911869 -0.51341796 6
2.4041405 -2.8906643 -0.4616411 9
2.6057122 -3.1374807 -0.35681561 31
2.6486912 -3.1926305 -0.21740359 35
2.55072 -3.0778182 -0.069774717 37
2.5273798 -3.0270038 0.068832293 6
2.7977598 -3.3544023 0.22891749 9
2.606811 -3.128792 0.35629267 12
3.3301921 -4.0026994 0.63932663 7
nan nan nan nan
nan nan nan nan
3.5384555 -4.2681499 1.2799715 8
2.5111988 -3.0322838 1.0549464 12
1.5206209 -1.8459733 -0.64083594 9
1.6852428 -2.0480015 -0.61231679 12
1.8371969 -2.2358444 -0.56250495 10
2.0641835 -2.5147674 -0.51529521 6
2.3839014 -2.907378 -0.4616411 9
2.5963671 -3.1710112 -0.35855874 33
2.7237031 -3.3300855 -0.22546332 46
2.5962272 -3.1776235 -0.071624674 24
2.6358161 -3.2020524 0.072392583 30
2.6258557 -3.1933582 0.21667089 30
nan nan nan nan
4.2312555 -5.1585526 0.81920576 15
2.3762319 -2.9000883 0.59382528 52
2.4347489 -2.9746823 0.74720806 14
2.6675019 -3.2636962 0.97313833 1
4.1723466 -5.1103373 1.7677342 22
1.4979539 -1.844547 -0.63669485 7
1.6794978 -2.0703104 -0.61546612 11
1.8252506 -2.2531924 -0.56364983 10
2.0552752 -2.5398657 -0.51748526 8
2.3735294 -2.9363 -0.46359101 8
2.5972533 -3.2165124 -0.3616963 22
2.6577642 -3.2961569 -0.22190447 29
2.656769 -3.2984555 -0.073928393 33
2.5327523 -3.1210003 0.070158668 18
nan nan nan nan
3.8769085 -4.7875834 0.53897113 1
2.3690493 -2.9297116 0.46261609 18
2.3633752 -2.9258268 0.59570253 9
nan nan nan nan
3.3814366 -4.1951523 1.2439795 19
4.1305118 -5.1318154 1.7651459 15
1.4886621 -1.8594838 -0.63824779 3
1.667438 -2.0850289 -0.61636597 11
1.8172237 -2.2747674 -0.56593949 12
2.0305467 -2.5445328 -0.51560807 7
2.3529725 -2.9527988 -0.46359101 8
2.5734935 -3.2330079 -0.36152202 26
2.6253221 -3.3016646 -0.22106709 40
2.6175117 -3.2965639 -0.073474631 31
2.4664688 -3.0819619 0.068902098 29
2.5616229 -3.2042987 0.21499613 13
nan nan nan nan
2.3651419 -2.9659457 0.46578467 12
2.3606362 -2.9634771 0.6000827 22
3.3169279 -4.1699495 1.0357113 1
3.4284425 -4.3147788 1.2723233 26
4.0534496 -5.1068525 1.7470287 20
1.4783649 -1.8726064 -0.63928306 5
1.6495869 -2.0917399 -0.61501622 11
1.8061571 -2.2935684 -0.56746602 11
2.0163972 -2.5633039 -0.51654667 7
2.3426311 -2.9812334 -0.46554092 8
2.5582402 -3.2602999 -0.3625679 30
2.6342428 -3.3607824 -0.22378856 26
2.6184354 -3.3442197 -0.074137822 28
2.4832878 -3.1477747 0.069984153 11
2.4044425 -3.0511158 0.20358689 26
2.4043808 -3.0543256 0.34008169 29
2.3811817 -3.0292041 0.47309685 9
2.3276901 -2.964349 0.59695399 31
2.7807782 -3.5451832 0.87581331 2
3.39343 -4.3324714 1.2705237 28
2.5118055 -3.2103422 1.0922165 2
1.4806794 -1.9027015 -0.64601237 14
1.6397275 -2.1093593 -0.61681581 10
1.7756548 -2.2875113 -0.56288654 20
2.0081365 -2.5898073 -0.51904958 6
2.3217611 -2.9975152 -0.46554092 6
2.5500438 -3.2969921 -0.36465961 20
2.5826309 -3.3427391 -0.22138111 42
2.6512258 -3.4352388 -0.075743444 37
2.4158323 -3.1066272 0.068692669 31
2.5827966 -3.3249259 0.22064841 37
2.3756704 -3.0615921 0.33903584 43
2.3538969 -3.0379083 0.47187814 11
nan nan nan nan
nan nan nan nan
3.1701758 -4.1061692 1.1976395 14
3.1783226 -4.1211815 1.3945172 1
1.4673601 -1.9129921 -0.64601237 23
1.6285175 -2.1253958 -0.61816555 10
1.7369757 -2.270227 -0.55563581 4
1.9516226 -2.55354 -0.50903779 2
2.3019829 -3.0152287 -0.46578467 4
2.5257568 -3.3131301 -0.36448529 26
2.5410812 -3.3368537 -0.21981104 35
2.5714874 -3.3804529 -0.074137822 30
2.5984585 -3.3900506 0.074556686 33
2.5485942 -3.3286037 0.21970637 30
2.4619646 -3.2189517 0.35454956 25
2.3013041 -3.0132492 0.46554092 45
2.2477334 -2.9463024 0.5869422 55
2.1907568 -2.8747382 0.70255876 7
2.680012 -3.5218425 1.0217278 39
2.1581032 -2.8390775 0.95555997 13
1.4621246 -1.9339768 -0.64963585 27
1.6171632 -2.1413784 -0.61951524 10
1.7258124 -2.2885678 -0.55716228 7
1.7150576 -2.2767849 -0.45146993 4
1.7807786 -2.3666089 -0.36365816 1
2.4726448 -3.2908604 -0.36012751 26
2.5452986 -3.3912518 -0.2222185 22
2.5346301 -3.380723 -0.073753871 31
2.6084793 -3.4527841 0.075534016 33
2.4795766 -3.2857339 0.21572883 17
2.5173891 -3.3394752 0.36587983 56
2.2969255 -3.051446 0.46895328 30
2.256789 -3.001394 0.59476393 61
2.2142591 -2.9480445 0.71667862 12
2.1502454 -2.8669827 0.82737005 12
2.6305091 -3.5111613 1.1755562 42
1.4451247 -1.9394898 -0.64808291 27
1.6114824 -2.1651223 -0.62311447 10
1.717991 -2.3115904 -0.55983365 11
1.7002985 -2.2902889 -0.45178279 6
1.700361 -2.2928805 -0.35049626 5
1.7002618 -2.2960951 -0.24996266 2
2.5583813 -3.4587157 -0.22546332 28
2.6012807 -3.5205667 -0.076406635 11
2.6213322 -3.5206323 0.076616064 13
2.4208193 -3.2548862 0.21258868 33
2.8552239 -3.8431606 0.41887048 35
2.4849088 -3.3495955 0.51209503 41
2.4815867 -3.3487799 0.66015351 24
2.1772711 -2.9413393 0.71133596 27
