# .PCD v0.7 - Point Cloud Data file format
VERSION 0.7
FIELDS x y z intensity
SIZE 4 4 4 4
TYPE F F F F
COUNT 1 1 1 1
WIDTH 1428
HEIGHT 1
VIEWPOINT 0 0 0 1 0 0 0
POINTS 1428
DATA ascii
12.774302 39.526379 9.5901146 41
9.6124544 29.689829 8.3619261 56
0.79781425 2.442359 -0.68845868 27
0.87153476 2.6633153 -0.6469593 39
0.98330832 2.9978015 -0.61326015 33
1.0939398 3.3291957 -0.55502951 27
1.2661704 3.8465545 -0.49722698 15
1.5088708 4.573113 -0.42131084 19
1.8289847 5.5335727 -0.30543268 7
2.4482121 7.3940439 -0.13595425 20
3.9303083 12.017709 0.22070314 44
3.841017 11.723903 0.64655846 17
3.842124 11.706562 1.0779423 14
9.8107185 29.821936 3.8547275 61
9.8264647 29.817202 4.9724264 14
9.8419933 29.811804 6.1024537 25
13.074406 39.510242 9.6081104 42
9.8298149 29.653175 8.3707266 56
0.8160699 2.4403944 -0.68949395 37
0.88329679 2.6368403 -0.64201033 33
0.99608928 2.9666688 -0.60829914 30
1.1083391 3.2952652 -0.5506494 35
1.2904582 3.8300962 -0.496252 16
1.520213 4.5042157 -0.4159072 21
1.8509287 5.4714794 -0.30271122 2
2.4888587 7.3445768 -0.13536087 17
4.0052238 11.963429 0.22021447 25
3.9075356 11.651353 0.64404637 8
3.8964791 11.598238 1.0704468 18
10.023744 29.767767 3.8566775 61
10.054593 29.80777 4.9824386 14
10.058678 29.768408 6.1077962 38
13.360535 39.472015 9.6207075 42
10.063901 29.66432 8.3935013 19
0.8349635 2.4401209 -0.69104689 27
0.9029476 2.6342962 -0.64291012 25
1.0162584 2.9598203 -0.60829914 21
1.139094 3.3119287 -0.55471671 28
1.2996985 3.7703223 -0.48967105 27
1.5431674 4.4690108 -0.41364115 18
1.8711543 5.4096785 -0.29998973 2
2.517803 7.2627831 -0.13417409 17
4.0755525 11.903727 0.21962108 42
4.019793 11.720839 0.64938462 14
3.9903088 11.608438 1.073933 16
10.242938 29.747648 3.8630149 49
10.27529 29.790928 4.9911985 14
10.28165 29.741989 6.1169553 38
10.305265 29.759834 7.2708688 37
10.283947 29.648064 8.408514 19
0.84964001 2.4289105 -0.68949395 31
0.92343676 2.6354451 -0.64470977 25
1.0310438 2.9359818 -0.60486454 30
1.1536682 3.2796705 -0.5506494 26
1.3292905 3.7726219 -0.49113351 19
1.565039 4.4318275 -0.41120079 13
1.8955517 5.3588247 -0.2978963 2
2.5023971 7.062645 -0.13078834 16
4.171114 11.910843 0.22028428 36
4.0770602 11.622756 0.64551175 20
4.0943251 11.652438 1.0805569 18
10.469488 29.729715 3.8700833 37
10.493533 29.748272 4.9962044 28
10.502172 29.723148 6.1276407 25
10.503017 29.659609 7.2641196 18
10.548156 29.737585 8.4545832 78
0.86007041 2.4047296 -0.68431759 30
0.94641244 2.6417766 -0.6478591 27
1.0442182 2.9083867 -0.60066676 32
1.1792102 3.2789714 -0.55190086 20
1.3522321 3.7539115 -0.48991477 13
1.5851187 4.3908086 -0.4084118 18
1.8996406 5.2534266 -0.29276738 2
2.5114677 6.9340711 -0.12872896 16
4.2534919 11.879551 0.22024937 40
4.1911411 11.68613 0.65064067 23
4.1634502 11.589819 1.0774193 16
10.729893 29.803455 3.8893385 37
10.712337 29.705885 5.0015235 14
10.732753 29.713737 6.1409969 39
10.755594 29.711996 7.2951627 57
10.768019 29.697729 8.4644184 58
0.87949073 2.4059246 -0.68638813 45
0.96483248 2.6351049 -0.6478591 21
1.063143 2.8973398 -0.59990352 26
1.1829909 3.2187445 -0.54314053 20
1.361946 3.6996713 -0.48406506 17
1.5791248 4.282711 -0.3993476 19
1.9196557 5.1950741 -0.29025525 2
2.5167818 6.800096 -0.12656485 16
4.3383904 11.855197 0.22035408 19
4.2822528 11.682837 0.65210611 17
4.3088126 11.736279 1.0938045 19
10.970601 29.817245 3.9010382 25
10.93654 29.676712 5.0093455 14
10.948771 29.662027 6.1459584 26
14.569573 39.407795 9.6998901 43
10.996549 29.679804 8.4809828 19
0.89085728 2.3852482 -0.68224704 28
0.9777419 2.6137035 -0.64425987 40
1.0911075 2.9120972 -0.60448295 31
1.2069566 3.2161653 -0.54407912 22
1.385645 3.684499 -0.48333386 19
1.624436 4.3126016 -0.40318248 22
1.9408703 5.1445136 -0.28816178 2
2.5684338 6.7935834 -0.12677428 16
3.8624952 10.336215 0.19260475 1
4.3441677 11.606656 0.64948928 23
4.3255644 11.532423 1.0775936 18
11.175401 29.747452 3.9017694 75
11.16055 29.660746 5.0193572 29
11.174993 29.636299 6.1566434 26
4.1985507 11.117004 2.7435033 2
8.0973291 21.406351 6.1324587 24
0.90087974 2.3628826 -0.67758828 31
0.98577887 2.5815003 -0.63796127 36
1.1064981 2.8915741 -0.60181159 18
1.2201884 3.1836822 -0.54001182 24
1.4028674 3.6545961 -0.48065275 20
1.6545061 4.3011551 -0.40318248 24
1.9458655 5.0506973 -0.28366089 9
2.5851047 6.6994514 -0.12534317 21
4.0429435 10.592972 0.19791028 1
4.43151 11.592836 0.65043133 20
4.4410071 11.599468 1.0866578 25
11.392048 29.692801 3.9049377 75
11.388605 29.637423 5.0287428 14
11.397602 29.614517 6.1680918 26
4.0860233 10.594689 2.6215796 36
8.0634956 20.875355 5.9963198 23
0.92155862 2.3673372 -0.6806941 46
0.9959904 2.5545833 -0.63301229 33
1.1216573 2.8709784 -0.59914029 31
1.2359068 3.1585302 -0.53719604 13
1.4254498 3.6373203 -0.47967777 26
1.6903177 4.3043365 -0.40457696 18
1.9774213 5.0276976 -0.28313756 14
2.5702469 6.5249562 -0.12241118 21
4.0521784 10.398662 0.19480376 3
4.5406551 11.634178 0.65451354 8
4.5878863 11.737047 1.1025201 14
11.633818 29.701267 3.9166372 37
11.613994 29.605005 5.0368776 14
4.3492837 11.069623 2.3118417 36
4.1541772 10.5514 2.6179805 36
8.0304556 20.365664 5.8658752 21
0.93306875 2.3482792 -0.67707068 28
1.0260484 2.5783489 -0.64066064 41
1.1278566 2.828429 -0.59188956 25
1.2608578 3.1571629 -0.5384475 17
1.4419619 3.6051626 -0.47675291 19
1.7136555 4.2757859 -0.40300813 15
1.9871777 4.9507499 -0.27957872 4
2.5732229 6.4010954 -0.1204216 28
4.1719756 10.489038 0.19703768 3
4.6587234 11.694967 0.65974712 3
4.6010532 11.53263 1.0863092 19
13.930673 34.846809 4.6078801 15
4.4347582 11.076474 1.8897287 6
4.4366884 11.064503 2.3171847 19
4.123117 10.261754 2.5531945 46
8.0000763 19.88077 5.7421594 20
0.94218248 2.3238044 -0.67189431 29
1.0403591 2.5620947 -0.6384111 24
1.1423947 2.8077571 -0.5892182 28
1.2806305 3.142796 -0.5375089 16
1.4610935 3.5803051 -0.474803 28
1.7057598 4.1715097 -0.39429256 23
2.076946 5.071681 -0.28721976 9
2.6201246 6.3885255 -0.12052631 18
3.8548076 9.4979982 0.17892207 1
4.725215 11.625154 0.65765369 5
4.7475591 11.662619 1.1016486 14
8.895524 21.808695 2.8919599 16
4.5254245 11.078158 1.8953601 13
4.2209315 10.317332 2.1668272 16
4.1783962 10.193051 2.5432968 46
4.2149773 10.266956 2.9738309 32
0.96355116 2.3296664 -0.67551774 68
1.0433055 2.5187612 -0.62941307 34
1.1521865 2.77614 -0.58425713 26
1.2904109 3.104593 -0.53250295 16
1.4730861 3.5388618 -0.47065943 24
1.7056949 4.0896244 -0.38766876 22
2.0999835 5.0275712 -0.28554502 16
2.6515393 6.3387175 -0.11993293 15
4.1726789 10.078721 0.19040576 10
4.9056973 11.831729 0.67126101 18
4.828094 11.627353 1.1014743 17
8.9392796 21.485806 2.8573489 72
4.4476624 10.674316 1.8315349 15
4.2958813 10.29486 2.1683536 24
4.6786852 11.190245 2.8001909 31
4.2641625 10.183824 2.9583018 20
0.97903985 2.3211031 -0.67500007 61
1.0472137 2.4791038 -0.62131482 34
1.1730701 2.7716448 -0.58502042 30
1.3143663 3.1009648 -0.5334416 17
1.5055126 3.5467641 -0.47309685 16
1.7349861 4.0794492 -0.38784304 26
2.119381 4.9760365 -0.28345159 23
2.6643481 6.2464767 -0.11853675 17
4.2118278 9.9756556 0.18900958 10
5.1359653 12.146712 0.6911487 18
4.9006052 11.573181 1.0995568 23
9.1053324 21.461254 2.8624673 88
4.5908198 10.804817 1.8593802 16
4.4514298 10.461531 2.20995 18
nan nan nan nan
4.0195956 9.4147015 2.7429643 20
0.99674684 2.3177612 -0.6760354 42
1.0644957 2.4717326 -0.62131482 23
1.1853895 2.7471645 -0.58158582 27
1.3265787 3.0699539 -0.52968717 22
1.52314 3.5197716 -0.47090316 15
1.7896475 4.1297011 -0.39376962 17
2.1230462 4.8896704 -0.27936935 23
2.6847677 6.174542 -0.1175245 5
4.280582 9.944169 0.18897465 8
5.2040424 12.072042 0.6889506 9
5.0815759 11.770994 1.1216944 12
nan nan nan nan
4.6700659 10.781568 1.8609446 30
4.2923183 9.8952713 2.0966094 7
4.4388723 10.218471 2.5720906 6
4.0759687 9.3651562 2.7367527 15
1.0082501 2.3001299 -0.67292953 50
1.0872086 2.4767313 -0.62446415 23
1.1953709 2.7192626 -0.57738805 26
1.3450569 3.0554292 -0.52874857 23
1.5356593 3.4818082 -0.4672471 19
1.8168248 4.113462 -0.39342102 17
2.1465828 4.853188 -0.27811331 30
2.6832502 6.0550957 -0.11560474 15
4.2116332 9.6034784 0.18304084 8
5.186502 11.809586 0.67597127 21
5.2366452 11.901187 1.1375568 6
4.7458105 10.77038 1.4451268 26
4.7146368 10.684469 1.8496813 12
4.4232187 10.005118 2.1263754 15
4.5621738 10.304836 2.6017842 66
7.8392143 17.681854 5.1825924 20
1.0128568 2.2685175 -0.66568261 36
1.1048375 2.4710526 -0.62491405 28
1.2199439 2.723393 -0.58005941 31
1.320271 2.9432311 -0.51091504 35
1.5625775 3.478518 -0.46822205 19
1.8317046 4.0719275 -0.39063203 23
2.1853359 4.849009 -0.27874133 30
2.7046616 5.9929471 -0.11476702 25
4.3413997 9.7144184 0.18572851 10
5.3446975 11.942631 0.68570572 9
5.3761997 11.996174 1.1501071 6
4.7192483 10.510619 1.4146595 27
4.710537 10.476535 1.819333 12
4.7112613 10.463495 2.2305572 38
4.6129823 10.230909 2.5909865 46
4.5530486 10.079189 2.9634783 24
1.0326688 2.2701836 -0.66827077 56
1.1091366 2.4349046 -0.6177156 28
1.2311202 2.6989501 -0.57662481 33
1.3788493 3.0186255 -0.52561986 20
1.5843458 3.4621089 -0.46749085 19
1.8625774 4.0644746 -0.39115497 19
2.1941345 4.7813787 -0.27570584 28
2.7222109 5.9212294 -0.11375479 17
4.4712029 9.824789 0.18841618 10
5.3736849 11.791476 0.67911142 18
5.4465775 11.929349 1.1473181 4
4.7246494 10.333824 1.3951604 30
4.6781287 10.217922 1.7799115 10
4.6900668 10.225133 2.1866713 15
4.3345389 9.4369812 2.3975286 38
4.636076 10.079558 2.9727957 24
1.0440383 2.2543368 -0.66568261 47
1.1297842 2.4361379 -0.61996514 42
1.25324 2.697412 -0.57815129 26
1.3965552 3.0017624 -0.52436841 28
1.6087117 3.4530447 -0.46773461 20
1.8858513 4.0405393 -0.39010909 19
2.2046285 4.7170906 -0.27287969 20
2.7463446 5.8681521 -0.1130916 15
4.3622346 9.4105263 0.18105127 14
5.4886699 11.824327 0.68319362 12
4.937263 10.621857 1.0247772 22
4.7924881 10.291591 1.3939416 30
4.7017636 10.082967 1.762078 28
4.7371311 10.144942 2.1763675 22
4.6216159 9.8795481 2.5181022 26
7.7450089 16.53381 4.8921976 13
1.0622234 2.2522349 -0.66723549 32
1.1492608 2.4334774 -0.62131482 34
1.2678442 2.679723 -0.57624322 35
1.4107127 2.9776573 -0.52186543 28
1.6378859 3.4524896 -0.46919701 15
1.9114461 4.0218773 -0.38958618 17
2.2306378 4.6871586 -0.27204233 22
2.7029397 5.6719265 -0.10967092 16
4.4073343 9.3364458 0.18021354 10
5.6316814 11.913926 0.69062537 15
5.0564699 10.682576 1.0340157 20
4.8837824 10.299135 1.3995476 4
4.7051044 9.908927 1.7373614 10
3.6436067 7.6630611 1.649353 6
4.7684078 10.010663 2.559943 16
4.405427 9.2361727 2.7419291 42
1.0737388 2.2360575 -0.66464734 37
1.1662204 2.4253953 -0.62131482 30
1.2711852 2.6389689 -0.56937408 34
1.4203099 2.9446063 -0.51779813 25
1.642092 3.399858 -0.46359101 16
1.9195205 3.9671841 -0.38557699 18
2.2397957 4.6229401 -0.26921618 22
2.7311242 5.6295295 -0.10921716 11
4.4750061 9.3108559 0.18031827 12
5.0538626 10.50116 0.61076069 2
4.9440942 10.259329 0.99636441 3
4.9564233 10.266581 1.3997915 30
5.0836697 10.516088 1.8499942 10
4.763689 9.8410225 2.1252308 9
4.9470172 10.201571 2.6175306 18
4.3963861 9.0540018 2.6968944 15
1.0859298 2.2215645 -0.66257679 42
1.1796976 2.4101932 -0.61951524 34
1.2913051 2.6335564 -0.57013732 19
1.4390899 2.9310732 -0.5171724 31
1.6596551 3.3758419 -0.46188486 19
1.9286844 3.916152 -0.38191649 20
2.2728987 4.6089821 -0.26932088 18
2.6561451 5.3790274 -0.10471445 9
4.4898114 9.177 0.17832869 10
5.8247223 11.889731 0.69387019 6
5.0910645 10.378394 1.0113552 1
nan nan nan nan
3.5574582 7.2297158 1.2761924 10
3.5107539 7.125381 1.5440264 22
4.5592585 9.2371311 2.3781826 38
4.7736211 9.6586885 2.8868678 21
1.1005522 2.2121994 -0.66205913 64
1.1851994 2.3792229 -0.61366653 28
1.3140423 2.6332605 -0.57204539 30
1.4551028 2.9121201 -0.51560807 27
1.6805179 3.3588471 -0.46115363 19
1.9463698 3.8851199 -0.38017333 34
2.286207 4.5555148 -0.26712275 27
2.7636673 5.499722 -0.10743701 16
4.4129367 8.8626041 0.17281373 14
5.1527576 10.334839 0.60521305 23
5.1633906 10.342601 1.0113552 15
5.2102795 10.418304 1.4302588 34
4.8249102 9.6351204 1.7067002 16
3.6827343 7.3446398 1.5970714 6
4.8764758 9.712677 2.5091043 18
5.3877811 10.712422 3.2129798 2
1.116842 2.2061861 -0.66257679 70
1.1956131 2.3587234 -0.6105172 25
1.3310486 2.6225035 -0.57166374 34
1.466838 2.8862979 -0.51279223 31
1.6985224 3.3364189 -0.4596912 19
1.966207 3.8572366 -0.37877885 20
2.3126228 4.5309534 -0.26659939 27
2.8074546 5.4909778 -0.10764644 14
4.4171443 8.721756 0.17064963 13
5.1570435 10.169491 0.59757197 17
5.2192273 10.274327 1.0082177 5
nan nan nan nan
5.1754637 10.16181 1.8061925 21
nan nan nan nan
3.6347632 7.1151924 1.8445989 10
4.9881554 9.7519045 2.935008 4
1.1229908 2.1813567 -0.65740043 42
1.225034 2.3765125 -0.61726576 39
1.3358122 2.5869815 -0.56593949 31
1.4969306 2.8952899 -0.5162338 18
1.7111548 3.3053885 -0.45701009 24
1.9832478 3.8260748 -0.37703574 26
2.3294725 4.4863367 -0.26492465 13
2.8272419 5.4380288 -0.10698325 16
4.4989877 8.7315922 0.17145245 11
5.2270031 10.131462 0.5974673 20
5.0997601 9.872139 0.97213513 5
5.0167823 9.6949177 1.3403192 9
5.0118198 9.6729164 1.7254723 10
3.6742511 7.0823007 1.5508956 21
4.9371605 9.5044451 2.4726622 42
5.034709 9.6757164 2.9225848 34
1.1292289 2.1563504 -0.65222406 29
1.2370694 2.3592734 -0.61501622 34
1.3488262 2.5691385 -0.56403142 34
1.5064914 2.8658004 -0.51279223 18
1.7240151 3.2740407 -0.45432895 28
1.9996892 3.7927494 -0.37511832 16
2.3478324 4.4474168 -0.2635639 13
2.8183956 5.3297725 -0.10523801 16
4.0070915 7.6485953 0.15071899 1
5.2216167 9.9541559 0.58909357 14
5.4141436 10.303686 1.0183277 18
3.5742202 6.7934771 0.94253755 23
5.0103359 9.5109968 1.7026329 3
3.6475604 6.9123597 1.5192213 7
3.6942847 6.992033 1.8257028 19
5.1790514 9.7897825 2.9676192 8
1.1388078 2.1381831 -0.64911819 34
1.2425075 2.3299446 -0.60961735 38
1.3607008 2.5472991 -0.56136012 24
1.5167134 2.8357854 -0.50935066 21
1.7505786 3.2689247 -0.45530388 28
2.0305455 3.7853658 -0.37581557 18
2.3843224 4.4392991 -0.26408726 6
2.8214397 5.2465639 -0.10398144 15
4.4172859 8.2867594 0.163913 11
5.2729645 9.8795347 0.58689547 5
5.6530967 10.578421 1.0493551 6
5.3568239 10.007205 1.393698 13
5.1221251 9.5567303 1.7173377 3
nan nan nan nan
3.6870148 6.8589997 1.797809 42
5.2471418 9.7490692 2.9665842 2
1.1500272 2.1233857 -0.64704764 27
1.2606013 2.3246398 -0.6105172 33
1.3812624 2.5429132 -0.56250495 23
1.5298674 2.8129804 -0.5071606 28
1.7705095 3.2513938 -0.45457271 23
2.0340257 3.7291191 -0.3716321 16
2.3951533 4.385735 -0.26188916 9
2.8522427 5.2162113 -0.10377201 22
4.4893212 8.2820921 0.16443658 13
5.6076121 10.332235 0.61609894 11
3.7214751 6.8484025 0.68190652 12
3.7059643 6.8085246 0.95179963 23
5.6178823 10.308207 1.8593802 1
nan nan nan nan
3.6095686 6.6039548 1.7375221 34
5.271481 9.6325521 2.9422553 6
1.1815956 2.1457663 -0.6563651 29
1.2645679 2.2935977 -0.6046685 46
1.3904409 2.51774 -0.55907035 30
1.5466009 2.7970452 -0.50622195 27
1.7912422 3.2354803 -0.4540852 16
2.0522788 3.7008896 -0.37023759 18
2.416018 4.3514452 -0.26084244 14
2.9051068 5.2258844 -0.10436539 22
4.4563031 8.0859222 0.16115552 9
5.6477604 10.235131 0.61264473 8
5.3435431 9.6718388 0.96673149 15
3.8139608 6.8919091 0.96715516 8
nan nan nan nan
3.6038964 6.4962525 1.4440426 1
3.701019 6.660358 1.7591174 29
5.0352283 9.0502386 2.7750578 6
1.1937163 2.1324079 -0.65481222 33
1.276737 2.277914 -0.60286885 29
1.3926069 2.4805808 -0.55296451 21
1.557379 2.7706819 -0.50340617 23
1.8147602 3.2246265 -0.45432895 28
2.0741541 3.6795282 -0.36954033 16
2.4483016 4.3379512 -0.26105177 8
2.9306977 5.1863246 -0.10398144 22
4.0806355 7.2835217 0.14572759 4
4.0804524 7.2742529 0.43710995 2
5.8490047 10.41428 1.0449973 16
3.8483531 6.8408952 0.96374285 12
4.0124249 7.1238208 1.2949647 14
3.6954474 6.55302 1.4623603 4
3.6621273 6.4833455 1.719076 17
5.181025 9.1611624 2.8200924 19
1.2066633 2.1206639 -0.65377688 46
1.2887503 2.2621725 -0.60106927 36
1.4147545 2.4793248 -0.55487263 28
1.5894217 2.7820401 -0.50747347 25
1.8224421 3.1860328 -0.45067286 26
2.0922186 3.6532228 -0.36832017 18
2.4516938 4.2739758 -0.25822562 12
2.9299848 5.1015787 -0.10268996 20
4.0868583 7.1766577 0.14415687 16
5.5863342 9.7978535 0.59108233 2
5.5323939 9.691452 0.9763186 15
5.5937514 9.7830782 1.3837045 6
3.8903165 6.7956238 1.2402126 29
3.6678884 6.3993115 1.4337388 4
3.7973487 6.617147 1.7613668 38
5.2621799 9.1549177 2.8294098 19
1.2166045 2.1038258 -0.65118873 45
1.3181828 2.2767298 -0.60736787 31
1.4227378 2.45435 -0.55143803 37
1.6132807 2.7796984 -0.50903779 17
1.834664 3.15607 -0.44823548 33
2.0956237 3.6006446 -0.36448529 24
2.4575992 4.2175002 -0.25581816 14
2.9745989 5.0965443 -0.10300411 24
4.0995612 7.0863624 0.1429003 27
4.1363106 7.1412578 0.43250436 8
4.1321988 7.1226888 0.72042936 22
2.5614035 4.4097815 0.62616473 13
3.8878198 6.6853142 1.224882 22
4.0731487 6.9927521 1.5730294 22
3.9308264 6.7402973 1.8014082 14
3.8213565 6.5447106 2.0306942 15
1.2338309 2.1004937 -0.65274167 39
1.3385879 2.2761042 -0.60961735 23
1.454783 2.4697323 -0.55716228 23
1.5975246 2.7088156 -0.49808741 25
1.8601413 3.150346 -0.44921044 26
2.1085408 3.5653458 -0.36239356 24
2.4737566 4.1778979 -0.25445744 4
3.0082035 5.0744567 -0.10296919 20
4.1377859 7.0386066 0.14251634 19
4.1333857 7.0227032 0.42706147 11
2.5874512 4.3908696 0.44588876 8
2.5891004 4.3866639 0.62543356 13
5.4971018 9.3025064 1.7113932 6
4.0636678 6.8685546 1.5512772 13
nan nan nan nan
3.8452656 6.4813228 2.0193064 25
1.2464851 2.0885112 -0.6517064 46
1.3434501 2.2483022 -0.6046685 14
1.4820715 2.4763618 -0.56097847 36
1.6245193 2.7111523 -0.50059032 26
1.8494109 3.0828106 -0.44141081 16
2.1272218 3.5402932 -0.36134771 29
2.4853585 4.1314321 -0.25267801 6
3.0187931 5.0122218 -0.10213149 20
4.1437559 6.9374437 0.14105035 29
4.2499676 7.1068077 0.43396983 2
2.5116017 4.1949196 0.42776039 10
2.533905 4.2254758 0.60495949 15
5.5070043 9.1724491 1.6944984 6
3.9729526 6.6094928 1.4989955 47
3.8818212 6.4476867 1.7375221 29
5.2277827 8.6730433 2.713459 2
1.2540231 2.0681953 -0.64808291 43
1.3439438 2.2138817 -0.59791994 25
1.4799448 2.4340818 -0.55372775 24
1.641353 2.6963704 -0.49996459 27
1.8636563 3.0579584 -0.43970463 20
2.1419308 3.5104246 -0.35977891 26
2.4922698 4.0781918 -0.25047991 19
3.0255332 4.9449687 -0.10118905 22
4.180676 6.8895407 0.1406664 32
2.642323 4.349277 0.26670405 21
2.4010499 3.9474809 0.4042283 17
2.5354578 4.1619101 0.59837854 17
6.217896 10.194551 1.8912928 3
4.1213155 6.7491522 1.5371574 21
3.9327345 6.4327531 1.7406714 42
4.2319765 6.9113755 2.1714919 27
1.2583009 2.0429409 -0.64290655 25
1.3839163 2.2442539 -0.60871756 31
1.4779145 2.3938818 -0.54685861 24
1.6607072 2.686816 -0.50027746 28
1.9204837 3.1022606 -0.44799173 26
2.1600866 3.4852252 -0.35873303 26
2.5104938 4.0458589 -0.24953786 14
3.0536485 4.9135361 -0.10097963 18
4.2064915 6.8268762 0.13996831 16
2.5334475 4.1068134 0.25288737 13
2.3384871 3.7848554 0.38923752 23
2.5240455 4.0804038 0.58911645 10
4.2569532 6.8737974 1.2805728 21
4.0420823 6.5166731 1.4906 47
3.9693234 6.3918967 1.7370722 25
4.2768826 6.8791275 2.1704566 3
1.2721765 2.0343292 -0.64290655 40
1.3867499 2.214962 -0.60331875 24
1.4799892 2.3602195 -0.54151595 15
1.6605189 2.6450422 -0.49464583 30
1.9251903 3.0618887 -0.44409195 26
2.1854281 3.471745 -0.35890734 22
2.5195105 3.9978197 -0.24765378 14
3.092144 4.8988633 -0.10111924 24
2.6394205 4.2174044 0.086843178 11
2.4358649 3.8876204 0.24043141 13
2.3641956 3.7688501 0.38923752 17
2.5968225 4.1332812 0.59935349 22
4.2648678 6.7803726 1.2686837 38
3.9388814 6.2524176 1.4364102 18
4.0284042 6.3871055 1.7433708 40
5.7234282 9.0640745 2.8723738 21
1.2908453 2.0316956 -0.64497709 27
1.3889675 2.1836061 -0.59747005 27
1.5175208 2.3829501 -0.54914832 20
1.6783417 2.6314266 -0.49433297 20
1.958271 3.0667775 -0.44677305 16
2.1935153 3.4312234 -0.35629267 19
2.536207 3.9611855 -0.24650237 18
3.1219549 4.8704209 -0.10097963 18
2.4660666 3.8799076 0.080246165 12
2.4432411 3.8380792 0.23844264 10
2.3504124 3.6879904 0.38261372 25
2.5754306 4.0363984 0.58789778 27
nan nan nan nan
nan nan nan nan
4.1075792 6.412981 1.7582176 29
6.051003 9.4326487 3.0028186 5
1.3060451 2.0242579 -0.64549476 35
1.4010059 2.1689453 -0.5961203 38
1.5462642 2.390162 -0.5533461 25
1.7084825 2.6378841 -0.49777454 22
1.9353522 2.9847431 -0.43677977 15
2.2017353 3.3903742 -0.35367799 19
2.5322287 3.8948236 -0.2434669 14
3.1035192 4.7680616 -0.099304192 4
2.506784 3.8823209 0.080665022 15
2.4276917 3.7555122 0.23436043 18
2.3371334 3.6112745 0.37633851 17
2.5502634 3.9345767 0.57571083 12
6.7603378 10.417975 1.9670072 16
nan nan nan nan
4.1363597 6.3572888 1.7510191 40
5.7444968 8.8187675 2.8200924 36
1.3222626 2.0183225 -0.64653003 35
1.4171827 2.1607411 -0.59657025 22
1.5510565 2.361259 -0.54914832 19
1.7387962 2.6440475 -0.50121611 21
1.9736081 2.9976873 -0.44067958 17
2.23193 3.3849018 -0.35472387 22
2.5472524 3.8587162 -0.2423155 14
2.593178 3.9238129 -0.082096115 7
2.5020285 3.8162291 0.079652779 9
2.4286423 3.7000701 0.23195298 16
2.3579094 3.5882113 0.37564126 33
2.5678496 3.9017513 0.5735172 32
6.3025355 9.5655565 1.8143271 31
4.1111193 6.2324705 1.4512933 14
4.2246814 6.3949213 1.7694651 27
5.8080506 8.7816744 2.8211277 19
1.3299013 1.9993908 -0.64342415 28
1.4214318 2.1345747 -0.59207124 37
1.5511638 2.3258731 -0.54342401 29
1.7659879 2.6449869 -0.50371903 18
2.0088286 3.0052903 -0.44384819 16
2.2482703 3.3596961 -0.35367799 14
2.5463309 3.7993615 -0.23969871 14
2.5458572 3.7943575 -0.079757497 19
2.3912096 3.5922556 0.07532458 17
2.3757758 3.565022 0.22452128 12
2.3773737 3.5633755 0.37476969 27
2.5299561 3.7863483 0.55913663 18
nan nan nan nan
4.2200756 6.3014917 1.4741904 16
4.1628509 6.2090087 1.7258246 42
6.2342968 9.2846098 2.9966071 3
1.3330162 1.9740475 -0.63824779 35
1.4483048 2.1423578 -0.59702015 24
1.573562 2.325016 -0.54571378 23
1.7606817 2.5985627 -0.49714881 22
2.0319912 2.9944773 -0.44433567 15
2.2582371 3.324141 -0.35158628 19
2.5485477 3.7472579 -0.23750059 16
2.5373876 3.7252572 -0.078675449 9
2.5006766 3.7018325 0.077977359 15
2.3921547 3.5371866 0.22378856 30
2.3597353 3.4840052 0.36814582 16
2.4999671 3.6868901 0.54694968 18
6.4438047 9.4924622 1.817143 4
4.1270919 6.0705552 1.4268698 11
4.1874533 6.1524105 1.7181762 25
6.2309899 9.144577 2.9650311 36
1.3464212 1.9649289 -0.63824779 35
1.4474195 2.1099529 -0.59072149 30
1.5942022 2.3204463 -0.5472402 36
1.7575109 2.5552835 -0.49120426 26
2.0410678 2.9642277 -0.44189829 15
2.2819407 3.310334 -0.35176057 12
2.570106 3.7228012 -0.2370819 18
2.6411355 3.8214066 -0.081083886 7
2.4767005 3.6117187 0.076441541 15
2.3874004 3.4775889 0.22106709 23
2.3867812 3.4727888 0.36866876 25
2.5470281 3.7004163 0.55158067 13
6.5413065 9.4927864 1.8259033 1
4.3411174 6.2928047 1.4860206 33
4.444077 6.4348416 1.8054572 48
6.1924791 8.9530916 2.9168906 36
1.3590041 1.9538947 -0.63773018 40
1.4632291 2.1013951 -0.59117138 36
1.5886288 2.2789407 -0.53998947 37
1.7839075 2.5562208 -0.49370724 25
2.0401044 2.9189923 -0.43726721 17
2.278723 3.2567766 -0.34775141 9
2.5747595 3.675777 -0.23519783 24
2.5839157 3.6833696 -0.078535825 1
2.5057943 3.6013436 0.076581158 16
2.3744843 3.4088159 0.2177176 28
2.3573906 3.3792403 0.36047614 20
2.5289676 3.6211483 0.54231864 13
3.0187759 4.3176718 0.83442152 3
4.5651135 6.5196595 1.5470794 14
4.5850873 6.540894 1.8441488 31
7.546102 10.752971 3.5199392 19
1.3733853 1.946178 -0.63824779 36
1.4831201 2.0993454 -0.59342092 34
1.605634 2.269397 -0.54037106 27
1.8028517 2.5453165 -0.4940201 25
2.0415556 2.8791285 -0.43336743 19
2.3014057 3.2407877 -0.34775141 9
2.569114 3.6137593 -0.23237166 20
2.8767776 4.0420413 -0.086598843 5
2.4720447 3.5004568 0.074801013 31
2.3774705 3.3628001 0.2158335 23
2.3607688 3.3354704 0.35751286 26
2.5576284 3.6082642 0.54304987 13
3.0899975 4.3544884 0.84568483 15
4.522974 6.366796 1.5180764 16
4.5108919 6.3404093 1.7964593 31
6.2783489 8.8149338 2.8998086 4
1.3790648 1.9255483 -0.6346243 31
1.5011468 2.0936913 -0.59477061 36
1.6191469 2.2549436 -0.53960788 39
1.8171173 2.5278573 -0.49308151 26
2.0592871 2.861583 -0.43287995 23
2.3088307 3.2036293 -0.34548536 13
2.6036291 3.6086934 -0.23320904 22
2.5770831 3.5679615 -0.0768255 4
2.4346833 3.3969691 0.072951064 22
2.3752756 3.3104191 0.21353073 31
2.3781867 3.3108156 0.35664126 20
2.6013043 3.6161041 0.54694968 12
3.0626028 4.2526617 0.83004135 15
4.3365326 6.0149693 1.4413712 15
4.6520104 6.443059 1.8347008 21
6.3057857 8.723918 2.8842795 19
1.382252 1.9018095 -0.62996554 41
1.5191665 2.0878875 -0.5961203 38
1.647568 2.2610385 -0.54380566 25
1.8265717 2.5039387 -0.49089143 23
2.0745301 2.8407252 -0.431905 16
2.3164716 3.1685398 -0.34339362 16
2.6570759 3.6291044 -0.23572117 14
2.8218105 3.8498726 -0.083317786 12
2.5100918 3.4510458 0.074486867 10
2.3948002 3.288913 0.21321672 33
2.397722 3.2893019 0.35611835 28
2.5375338 3.4760017 0.52842557 23
2.9290416 4.007895 0.78623968 15
4.5986767 6.2855954 1.5138787 37
7.6516247 10.446964 2.9895997 28
nan nan nan nan
1.3840287 1.8765657 -0.62478918 23
1.5244455 2.0646892 -0.59252113 30
1.6652553 2.2529283 -0.5445689 25
1.8376992 2.4835069 -0.48932707 20
2.088402 2.8181984 -0.4306863 15
2.3314149 3.142688 -0.34234774 17
2.6459925 3.5628312 -0.23258102 31
2.8927727 3.8894494 -0.084609263 15
2.4622915 3.3373322 0.072392583 27
2.4111986 3.2645032 0.21269335 8
2.3992984 3.2436512 0.35298076 36
2.6178379 3.5352254 0.54012495 13
2.8621423 3.8609145 0.7612102 15
4.7512808 6.3999372 1.5493692 22
nan nan nan nan
3.5621457 4.7876983 1.5989841 15
1.3701539 1.8315228 -0.61288351 52
1.5337915 2.0480256 -0.59072149 33
1.6832979 2.2443898 -0.54533213 38
1.8443168 2.4564004 -0.48651123 31
2.093224 2.7848759 -0.42776144 20
2.3395734 3.1092346 -0.34043032 16
2.6371458 3.4996095 -0.22965018 16
2.5940256 3.4386399 -0.075184964 14
2.516691 3.361681 0.073300108 11
2.3872173 3.1852584 0.20861115 26
2.4045832 3.2049317 0.3505404 8
2.5661378 3.4152927 0.5245257 15
3.0065827 3.9971247 0.79218423 10
4.7108822 6.2560978 1.5222743 23
4.6722674 6.198061 1.7919602 23
3.5803497 4.7426715 1.5922549 1
1.3840742 1.8234525 -0.61340117 44
1.5515882 2.0419233 -0.59207124 21
1.6890261 2.2203805 -0.54227924 41
1.846632 2.4249318 -0.48275682 26
2.0933547 2.7449393 -0.42386162 16
2.3370428 3.0611532 -0.3369441 13
2.6463506 3.4625368 -0.22839414 22
2.5243814 3.2981753 -0.072497301 12
2.4197934 3.1868052 0.069844536 31
2.3713739 3.1196456 0.20536631 21
2.4534473 3.2229443 0.35437521 36
2.5255551 3.3140659 0.51160759 21
3.0900338 4.0503817 0.80688912 10
4.7353759 6.1980944 1.5161684 16
nan nan nan nan
nan nan nan nan
1.3979502 1.8152752 -0.61391884 33
1.5574777 2.0202372 -0.5889219 38
1.6964731 2.1973591 -0.53960788 37
1.877226 2.4288471 -0.48619837 26
2.1258297 2.7475283 -0.42654276 26
2.3527863 3.0364764 -0.33607253 14
2.6979909 3.4782305 -0.2306969 13
2.629518 3.3862932 -0.074835919 9
2.5023479 3.2470202 0.071554869 27
2.4497571 3.1753385 0.21018122 16
2.4149957 3.126895 0.34565967 24
2.5139854 3.2503722 0.50453913 27
2.9508374 3.8110602 0.76340026 27
4.9060202 6.3293662 1.5566198 76
4.7892976 6.1698732 1.8032079 2
7.2651787 9.349349 3.1726038 1
1.4296187 1.8298284 -0.62220097 25
1.5727445 2.0108497 -0.5893718 41
1.7214581 2.1978257 -0.54266083 33
1.8904804 2.4110191 -0.48525977 22
2.1290252 2.7123208 -0.42337415 17
2.3493018 2.9886496 -0.33258632 24
2.713562 3.448323 -0.22996421 15
2.5318244 3.2139118 -0.071415246 21
2.5187955 3.2215955 0.07138034 16
2.437397 3.1141205 0.20725042 7
2.4035885 3.0676148 0.34095326 21
2.566026 3.2702231 0.51038885 20
2.9798121 3.7934737 0.76402605 24
4.9525151 6.298048 1.5573832 7
7.3689427 9.3575354 2.7498019 2
7.2417641 9.1861382 3.1342988 1
1.4387587 1.8152612 -0.62064809 41
1.5831107 1.9952412 -0.58802211 34
1.7379812 2.1872914 -0.54304242 36
1.8642267 2.3436539 -0.47430936 21
2.1454358 2.6942856 -0.42288667 24
2.3763201 2.979964 -0.33345786 17
2.6814978 3.359055 -0.22525398 20
2.888768 3.6148145 -0.08076974 14
2.4853055 3.13343 0.069809623 16
2.4926095 3.1392615 0.21007656 4
2.3889916 3.0055294 0.33589822 12
2.5813761 3.2429104 0.50892639 22
2.9902191 3.7524948 0.75995874 13
5.011054 6.2817364 1.5619626 3
7.3538146 9.2053738 2.7201085 2
7.2646961 9.0840607 3.1166992 5
1.4526063 1.8066788 -0.62116575 52
1.5921131 1.9780689 -0.58622253 33
1.7519768 2.1735761 -0.54266083 39
1.9003905 2.3551795 -0.47931525 22
2.1542141 2.666888 -0.42093676 30
2.3908012 2.9555564 -0.33258632 17
2.7048831 3.3402526 -0.22525398 28
2.8686004 3.5386367 -0.079513162 9
2.4820509 3.084842 0.069111533 18
2.5921428 3.2182198 0.21656621 11
2.4761996 3.0709801 0.34513673 12
2.60021 3.2201777 0.50819516 18
2.9790881 3.6854422 0.75057268 13
5.1054182 6.3091745 1.5776089 12
3.5813515 4.419446 1.3132644 3
7.3522792 9.0631275 3.1270518 7
1.4737307 1.8069732 -0.62478918 40
1.6034191 1.9638866 -0.58532268 38
1.7695929 2.1643326 -0.54342401 46
1.906776 2.3296266 -0.4768123 26
2.1639717 2.6410363 -0.41923055 13
2.4083352 2.9361348 -0.33223769 14
2.7281365 3.3212876 -0.22525398 22
2.8017893 3.407315 -0.077000014 17
2.519964 3.0875788 0.069565296 13
2.4275229 2.9711387 0.20107476 18
2.5392051 3.1045117 0.350889 15
2.5911832 3.163553 0.50210178 23
2.9984837 3.6569149 0.7490083 19
5.2863607 6.4403019 1.6195869 2
7.4404473 9.054925 2.7057116 18
7.4239607 9.0220232 3.1306753 20
1.4752282 1.7832434 -0.62013048 47
1.6146054 1.9496421 -0.58442289 30
1.769249 2.1340995 -0.53884465 40
1.9377286 2.3348336 -0.48056671 26
2.1696687 2.6105978 -0.41679317 12
2.3956435 2.8794279 -0.32770559 17
2.7494009 3.3011072 -0.2251493 13
2.6923006 3.2279637 -0.073369913 19
2.5434704 3.0734363 0.069635101 13
2.4120123 2.9114826 0.19814396 11
2.5659041 3.092844 0.35158628 11
2.6304111 3.1672225 0.50551409 23
2.886915 3.4723725 0.71521842 15
7.5621543 9.0828228 2.2973404 21
7.5221958 9.0252151 2.71246 16
7.4196095 8.8926601 3.1032405 40
1.4848483 1.7702008 -0.61909521 25
1.6265846 1.9371152 -0.58397299 36
1.7803131 2.1171887 -0.53769976 48
1.9412594 2.3061376 -0.47743803 21
2.1886675 2.5972867 -0.41703692 15
2.4131188 2.8595862 -0.32735696 14
2.7453148 3.2497907 -0.2229512 16
2.7645705 3.2691114 -0.074731201 21
2.5147247 2.9958711 0.068273813 18
2.4798203 2.9511492 0.20201682 16
2.5227709 2.9990706 0.34287068 7
2.6754787 3.1761093 0.50990134 16
3.0167818 3.5774736 0.74118662 13
7.6402631 9.0506449 2.3023016 53
7.6617594 9.0632658 2.7399039 48
7.3929019 8.7359467 3.0664883 18
1.507185 1.7715629 -0.6232363 19
1.6350145 1.9197778 -0.58217335 31
1.7733926 2.0793142 -0.53121227 21
1.9367898 2.2684917 -0.47243217 33
2.2131953 2.589489 -0.41825563 8
2.4213624 2.8290482 -0.32578817 15
2.7536397 3.2138634 -0.22179982 21
2.6102688 3.0433042 -0.069984153 21
2.4552073 2.8838396 0.066109717 28
2.4498372 2.8744814 0.1979346 15
2.5656292 3.0071535 0.34583399 14
2.6589024 3.112076 0.50258923 32
3.0121529 3.5217979 0.73399061 13
7.7454023 9.0462942 2.3148949 42
3.6886461 4.3020997 1.3083155 14
7.3907986 8.6108246 3.0406063 39
1.5132048 1.753685 -0.62064809 13
1.6369126 1.8950438 -0.57812428 30
1.8007096 2.0817313 -0.53502846 27
1.9564589 2.2593951 -0.47337076 47
2.2195175 2.5604751 -0.416062 11
2.4319112 2.8015428 -0.32456797 16
2.764219 3.1809928 -0.22085775 15
2.5999527 2.9887972 -0.069146432 16
2.5105672 2.9074941 0.067052148 24
2.516865 2.9117045 0.20170279 15
2.5096416 2.9002771 0.33554959 13
2.6831646 3.0964384 0.50307667 15
3.2204714 3.7125747 0.778418 13
nan nan nan nan
3.6648831 4.2144818 1.2894195 12
7.3771658 8.4745064 3.0105834 33
1.515234 1.7314472 -0.61650699 17
1.6513865 1.8850355 -0.57857412 29
1.8022507 2.054352 -0.53121227 29
1.994343 2.2709146 -0.47868952 18
2.2202997 2.5255363 -0.41289338 12
2.4487774 2.7815058 -0.32421938 13
2.8061674 3.1840932 -0.22242783 19
2.6458912 2.9990644 -0.069809623 16
2.4873288 2.8402519 0.065900289 24
2.5371311 2.8940623 0.20170279 3
2.508801 2.8587258 0.3327606 27
2.6981637 3.0701752 0.501858 10
3.1327949 3.5609691 0.75119835 21
7.9929199 9.0757666 2.3507669 2
3.8940103 4.4153314 1.3591543 5
2.8703854 3.2512331 1.1620976 33
1.5234377 1.7164922 -0.61495411 19
1.678744 1.8894857 -0.58352309 25
1.8282949 2.0549195 -0.53464681 42
2.0035803 2.2495599 -0.4771252 16
2.2193825 2.4892304 -0.40948102 12
2.4615002 2.7569125 -0.32334781 12
2.8429677 3.1808071 -0.22357923 22
2.5760956 2.8791807 -0.067436099 22
2.5044394 2.8198287 0.065830477 22
2.4550877 2.7613487 0.19364306 8
2.5247223 2.836678 0.33223769 14
2.6680205 2.9934685 0.49235216 26
3.0339584 3.4004581 0.7217887 12
3.750788 4.1994519 1.0944804 1
8.6419592 9.6621132 2.992749 2
2.9471354 3.2915649 1.1838384 13
1.537968 1.7086872 -0.61598933 20
1.685371 1.870482 -0.58127356 31
1.83339 2.0319023 -0.53197551 29
2.0020232 2.2164602 -0.4730579 40
2.2313809 2.4677861 -0.4085061 17
2.479351 2.7381825 -0.32317349 18
2.8597407 3.1549613 -0.22316055 20
2.5921006 2.8566847 -0.067331389 19
2.6257765 2.9151993 0.068483248 10
2.5184422 2.7930915 0.19709724 3
2.5017467 2.7716534 0.32665971 14
2.7713816 3.0660758 0.50746399 13
3.1265419 3.4553633 0.73805791 10
8.7580833 9.6689987 2.5358517 2
3.0126092 3.32128 1.0352248 13
7.5426359 8.3067083 3.0064421 31
1.555069 1.7036157 -0.61805987 23
1.6931303 1.8529159 -0.57947397 41
1.8316256 2.0016737 -0.52739608 33
2.0027699 2.1864073 -0.46961632 26
2.2445288 2.4477594 -0.40777487 15
2.4984066 2.7208064 -0.32317349 15
2.846554 3.096689 -0.22043908 10
2.5835457 2.8076172 -0.066598386 34
2.5664952 2.8096848 0.066423863 20
2.5055344 2.7400653 0.1945851 8
2.5358334 2.7702868 0.32857716 12
2.7015071 2.9471469 0.49088979 28
4.9282198 5.3706808 1.1544864 1
3.0746045 3.3471229 0.88344568 1
3.1927185 3.4708424 1.0887631 56
3.2178879 3.4945273 1.2728721 12
1.5656123 1.6913002 -0.61754227 26
1.6994029 1.8339028 -0.57722449 23
1.8535678 1.9974723 -0.5296858 39
2.0005076 2.1535575 -0.46554902 21
2.2561555 2.4262152 -0.40679988 13
2.5091925 2.6945505 -0.32212761 22
2.8694654 3.0782015 -0.22054374 19
2.6139979 2.8012083 -0.066877626 27
2.6227376 2.8313088 0.067366287 11
2.66448 2.8733516 0.20536631 8
2.4954686 2.688267 0.32090744 31
2.6841738 2.8875034 0.48406506 13
3.1623724 3.3983562 0.73524207 12
3.2343919 3.4721029 0.92237073 9
3.2580795 3.4926431 1.1027101 14
3.3318622 3.5679908 1.3080715 24
1.5773816 1.680329 -0.61754227 31
1.7081602 1.8177344 -0.57587475 24
1.8661222 1.9830536 -0.52930421 36
2.0019486 2.1251605 -0.46242031 10
2.2635064 2.4002945 -0.40509373 13
2.5288446 2.6788564 -0.32230192 31
2.8401189 3.0043936 -0.21667089 21
2.8204169 2.9804251 -0.071624674 19
2.572614 2.7385983 0.065586142 13
2.5024996 2.6611671 0.19144495 12
2.5701675 2.7302594 0.32805422 14
2.6239276 2.7834723 0.46968448 14
4.9959507 5.2941623 1.1529222 7
nan nan nan nan
3.3527441 3.5454266 1.126555 16
3.0153112 3.1841459 1.1750386 4
1.5704261 1.6496867 -0.6102953 36
1.7100536 1.794479 -0.57227552 25
1.8700913 1.9603615 -0.52663285 34
2.0136392 2.1086268 -0.46179458 12
2.2843246 2.3887379 -0.40582496 19
2.5281963 2.6409872 -0.31986156 18
2.8964338 3.0224833 -0.21939236 33
2.7843893 2.9015055 -0.070193581 15
2.5580988 2.6862688 0.064748429 25
2.5122869 2.6353974 0.19081691 38
2.5630264 2.6848679 0.32474229 14
2.6153839 2.7368441 0.46480972 15
4.9554009 5.1801004 1.1354015 12
nan nan nan nan
3.3059256 3.4473896 1.1027101 3
3.6108501 3.7614179 1.3971052 30
1.5829595 1.6403497 -0.61081296 26
1.7317054 1.7926091 -0.57542485 38
1.8878267 1.9514911 -0.52777767 16
2.0186918 2.0845845 -0.45960453 9
2.2894764 2.3617322 -0.40387502 15
2.5410199 2.6175556 -0.31916434 12
2.8603935 2.9434638 -0.2151008 40
2.8821583 2.9627552 -0.072148249 13
2.9004514 3.0035057 0.072881252 23
2.562552 2.6508217 0.19322437 20
2.5978687 2.6845407 0.32683402 7
2.6012735 2.6843042 0.45896 16
3.1731241 3.2709792 0.7217887 21
3.2278426 3.3239012 0.90061849 17
3.1859012 3.2761357 1.0550205 4
3.1168699 3.2017937 1.197297 6
1.5943735 1.6292579 -0.61081296 26
1.7182685 1.7540256 -0.56687671 54
1.8807811 1.9172424 -0.52205342 28
2.0193541 2.0563471 -0.45647582 9
2.3003411 2.3400297 -0.4029001 9
2.5382659 2.5784543 -0.31654966 24
2.8710604 2.9134648 -0.2143681 36
2.7890203 2.8272507 -0.069320954 22
2.5995531 2.6545761 0.064853139 29
2.5795975 2.6314409 0.19311969 32
2.7826107 2.8355625 0.3475771 3
2.7521288 2.8005872 0.48211515 18
3.1224601 3.1741133 0.70520669 10
nan nan nan nan
3.2210119 3.2663009 1.0590696 39
3.1187906 3.1593318 1.1895324 20
1.6016266 1.6139734 -0.60926002 28
1.7483261 1.7599597 -0.57272542 29
1.901044 1.9110239 -0.52396154 36
2.0280864 2.0365994 -0.45522434 9
2.2927976 2.3000124 -0.3987565 5
2.5543509 2.5597067 -0.31637534 16
2.8447411 2.8467286 -0.21091393 21
2.8327324 2.8317444 -0.069914341 21
2.6053395 2.623594 0.064539 11
2.5528462 2.5680423 0.18977019 25
2.7025552 2.7157972 0.335201 32
2.8080454 2.8178649 0.4884524 17
nan nan nan nan
nan nan nan nan
3.3396096 3.3407764 1.0905627 11
3.062865 3.0596604 1.160027 27
1.6238171 1.6136473 -0.61340117 22
1.7564205 1.7435936 -0.57137573 21
1.9042488 1.8883637 -0.52129018 28
2.048918 2.0296996 -0.45678869 7
2.3003316 2.2755733 -0.3972941 5
2.5693245 2.5390108 -0.31602672 10
2.8995867 2.8623774 -0.21353073 33
2.7342339 2.6953802 -0.067017242 20
2.6245575 2.6072075 0.064573906 14
2.6057105 2.5857759 0.19238698 21
2.7455075 2.7207048 0.33816427 9
2.7354603 2.707911 0.47260937 14
3.2754843 3.2390995 0.72961038 25
3.2017531 3.1617699 0.87466848 33
nan nan nan nan
3.6395254 3.5865552 1.3691529 4
1.6251072 1.5930896 -0.60977769 38
1.7766027 1.7397773 -0.5740751 32
1.9215965 1.8791414 -0.52243507 30
2.061625 2.0139656 -0.45647582 9
2.3271322 2.2709551 -0.39924401 4
1.9944798 1.9442953 -0.24368747 1
2.9638638 2.8852527 -0.21677555 24
2.708076 2.6334889 -0.065935194 13
2.6526933 2.5986178 0.064818241 13
2.666522 2.6094303 0.19552715 10
2.6642339 2.6044595 0.32596248 12
2.7751338 2.710031 0.47626543 16
3.0406256 2.9651504 0.67266828 10
3.2780457 3.1933305 0.88955158 17
nan nan nan nan
3.1402485 3.0526924 1.1734856 16
1.6275803 1.573934 -0.60667187 40
1.7771904 1.7168133 -0.57047588 31
1.9428217 1.8741955 -0.52472478 37
2.0767093 2.0012555 -0.45678869 6
2.323946 2.2371638 -0.3960754 11
2.0019245 1.925149 -0.24299021 7
3.0021622 2.8829958 -0.2181363 12
2.7533569 2.6412969 -0.066598386 16
2.6588163 2.5693843 0.064539 30
2.6425507 2.5509915 0.19249167 7
2.5915461 2.4991345 0.31498083 13
2.8163908 2.713114 0.48016527 10
3.4707334 3.3387973 0.76277459 42
3.9183106 3.7654123 1.0563186 12
3.5623386 3.4197447 1.1400521 30
3.6155059 3.4671485 1.3422357 39
1.6284719 1.5534838 -0.60304838 35
1.7860147 1.701987 -0.56957608 31
1.9370444 1.8433343 -0.51976377 19
2.0773971 1.9748254 -0.45397288 14
2.3477554 2.229496 -0.39753783 13
2.5801589 2.4476252 -0.31114599 25
2.9318178 2.7773345 -0.21164663 26
2.9339447 2.7764363 -0.07050772 12
2.6675596 2.5429482 0.064329572 23
2.6685317 2.5412092 0.19311969 12
2.6287072 2.5006618 0.3174212 31
2.7527697 2.6159372 0.46627215 15
3.352958 3.1818368 0.73211342 46
3.2100787 3.0430574 0.85978532 6
3.7312768 3.5334296 1.1863919 21
3.095907 2.9286768 1.1419097 9
1.6474489 1.5503075 -0.6061542 28
1.7890384 1.681783 -0.56687671 39
1.9552723 1.8354814 -0.52129018 21
2.0518861 1.924156 -0.44552541 10
2.3599794 2.2107496 -0.39705035 15
2.6040337 2.4368126 -0.31201756 27
2.9112554 2.7204938 -0.20882049 34
2.995168 2.7959719 -0.071519956 36
2.8465064 2.6767924 0.068204008 6
2.6624751 2.5011079 0.19144495 7
2.7255764 2.5576952 0.32700834 15
2.7864442 2.6120715 0.46895328 20
3.2721472 3.0630937 0.70989966 30
3.6967542 3.4569435 0.9838112 15
3.6142583 3.3762541 1.1418517 13
3.1087072 2.9009473 1.1393216 26
1.6587689 1.5381894 -0.6061542 24
1.8156146 1.6818665 -0.57137573 46
1.9441742 1.7984354 -0.51480269 45
2.0166085 1.8634816 -0.43488789 13
2.3834147 2.2001228 -0.39826906 15
2.628108 2.4226027 -0.31271479 28
2.9575641 2.7234342 -0.21070457 31
2.8948996 2.6629307 -0.068657771 12
2.7868476 2.5824571 0.066319145 21
2.7789397 2.5724261 0.19845797 10
2.8349457 2.621515 0.33781564 6
2.8015926 2.5870473 0.46822205 13
3.3453314 3.0859034 0.72085011 12
3.5906143 3.3086867 0.94908404 16
3.1562378 2.9043424 0.99023467 4
7.1539617 6.5760989 2.6037197 30
1.6594874 1.517446 -0.60253078 28
1.8071684 1.6507499 -0.56507707 25
1.9494299 1.7782034 -0.51289463 27
2.1084156 1.9212033 -0.45178279 11
2.3957803 2.1807573 -0.39778158 12
2.6729691 2.4296584 -0.31602672 13
2.9676335 2.6946645 -0.21007656 38
3.1311488 2.8401496 -0.073788777 9
2.766427 2.5278664 0.06541162 6
2.6906219 2.4560146 0.19092159 30
2.8826227 2.6285086 0.34130189 36
2.7770197 2.5286667 0.46115363 18
3.0540795 2.7780249 0.65389615 1
3.671746 3.3363502 0.96434873 24
3.8244228 3.4702098 1.1922406 11
3.1561286 2.8608005 1.1413921 38
1.6528239 1.4902997 -0.59631914 31
1.8200967 1.6393976 -0.56552702 34
1.9515787 1.7553599 -0.51022327 27
2.123246 1.9077572 -0.45209566 9
2.4079919 2.1613266 -0.3972941 12
2.6987684 2.4189174 -0.3170726 4
3.0012534 2.6872036 -0.21112327 17
2.9064596 2.5995886 -0.068064384 12
2.9399939 2.6490433 0.069076627 11
2.6824651 2.4144571 0.18914215 26
2.6505172 2.3831904 0.31184325 11
2.7783577 2.4946294 0.45847249 18
3.1042802 2.7843339 0.66046637 16
3.452225 3.0931575 0.90100008 33
3.235692 2.8950765 1.002382 30
nan nan nan nan
1.6602998 1.4761583 -0.59528387 33
1.8154694 1.612417 -0.56057805 28
1.9564419 1.7351792 -0.50831515 33
2.1305988 1.8876477 -0.4508442 10
2.4170759 2.1392004 -0.39631912 16
2.7111108 2.3960593 -0.31654966 3
3.0558743 2.6979098 -0.2136354 19
2.9860277 2.6334643 -0.069495484 17
2.7954726 2.4836817 0.065272003 10
2.7470579 2.4380946 0.19249167 7
2.7759223 2.4611154 0.32456797 23
2.8744779 2.5449152 0.47139066 15
3.344116 2.9575868 0.70708382 13
3.3280754 2.9402959 0.86321992 36
3.8695798 3.4138956 1.1913409 17
nan nan nan nan
1.6792806 1.472172 -0.59838963 40
1.8134875 1.5881485 -0.55652899 31
1.9670295 1.7201871 -0.50793356 14
2.1214092 1.8532343 -0.44615117 12
2.4229767 2.1144438 -0.39485672 16
2.722851 2.3736231 -0.31602672 4
3.0655959 2.6686416 -0.21300736 57
3.30915 2.8776147 -0.076546252 11
3.209837 2.8119786 0.074486867 8
2.8045931 2.4543703 0.1953178 11
2.746536 2.4010251 0.31916434 12
2.7516048 2.4020693 0.44847921 13
nan nan nan nan
3.2833881 2.8602481 0.84642875 7
3.2341392 2.814369 0.98978466 1
1.9423323 1.6878506 0.68949395 9
1.7026719 1.4717817 -0.60304838 24
1.8319063 1.5818164 -0.55877846 32
1.9638274 1.6939338 -0.50411743 13
2.1220036 1.8284347 -0.44364822 12
2.4376793 2.0974767 -0.39485672 12
2.7197142 2.3376718 -0.31376067 13
3.0821745 2.6464121 -0.21290269 22
3.1743128 2.721679 -0.072985962 12
2.96714 2.5638802 0.068448335 28
2.866591 2.4743762 0.19845797 5
2.7934127 2.4078097 0.32265055 19
2.933362 2.5257647 0.47529048 10
3.104526 2.6703157 0.64857739 18
nan nan nan nan
1.9670146 1.6877228 0.59836984 7
1.9435096 1.6657891 0.68587047 5
1.6832482 1.4350917 -0.59269565 27
1.8470808 1.5731018 -0.56012815 31
1.9711182 1.6763678 -0.50297254 10
2.1181562 1.7995082 -0.44020665 14
2.4549267 2.0834045 -0.3953442 12
2.7249241 2.3100879 -0.3125405 12
3.2164273 2.7229061 -0.22085775 19
3.1897128 2.6974251 -0.07291615 10
3.0154114 2.5690384 0.069146432 10
2.7910159 2.3753395 0.19207297 5
2.7535744 2.3409894 0.31620103 40
2.8994718 2.4615436 0.46700338 6
nan nan nan nan
1.9923083 1.6878089 0.50755197 9
1.9844067 1.6793311 0.60016948 6
1.9757483 1.6696383 0.69311744 9
1.7006201 1.4295207 -0.59528387 33
1.8624953 1.5639279 -0.56147784 48
1.9779706 1.6591269 -0.50182766 11
2.1530676 1.8040789 -0.44489968 13
2.1953709 1.8369185 -0.35147122 23
2.7394564 2.2897301 -0.31236616 22
3.2026901 2.6740694 -0.21865964 19
2.9120395 2.4279442 -0.066179529 15
2.8552363 2.3992269 0.065097481 9
2.8346543 2.3794014 0.19395708 20
2.7912261 2.3396282 0.31864139 18
2.0410075 1.7089704 0.3268536 1
2.0197866 1.6894038 0.41705433 10
2.0115776 1.6801505 0.50946003 5
2.0110462 1.6779199 0.6046685 7
1.9766802 1.6474921 0.68949395 6
1.7207216 1.4265426 -0.59890729 30
1.8625915 1.5425133 -0.55832857 30
1.9834535 1.6402729 -0.50030124 10
2.1260138 1.7562937 -0.43676507 24
2.4818881 2.0480947 -0.39510044 9
2.7630627 2.2768846 -0.31323773 19
3.2043185 2.6376827 -0.21750826 14
2.9578466 2.4321964 -0.06684272 15
3.0751834 2.5476315 0.069704913 13
2.8235002 2.3366332 0.19207297 28
2.0469623 1.6921917 0.2323572 3
2.0314565 1.6769873 0.32344127 7
2.0376277 1.6802888 0.41830578 6
2.0320587 1.6739098 0.51174974 8
2.0197003 1.6613642 0.60376865 6
1.9776856 1.6250668 0.68587047 4
1.7156808 1.4022694 -0.59373093 43
1.8567101 1.5159153 -0.5533796 26
1.9978998 1.628867 -0.50106448 10
2.1520083 1.7526351 -0.43958092 23
2.2389681 1.8215079 -0.3543961 15
2.6861069 2.1821623 -0.30277905 6
3.2055969 2.6014025 -0.21635687 21
2.9514532 2.3925984 -0.066319145 16
2.925626 2.3894877 0.065935194 28
2.0659711 1.6855673 0.13973701 6
2.0633595 1.6816362 0.23288015 7
2.0554318 1.6727885 0.32539117 7
2.0692346 1.6822215 0.42237309 8
2.0375991 1.6547319 0.51022327 4
2.0115728 1.631267 0.59791994 6
1.9919839 1.6136533 0.68690574 5
1.7194108 1.38541 -0.59166032 28
1.8672472 1.5029171 -0.5533796 20
1.9969807 1.6050398 -0.4980115 10
2.15803 1.7326217 -0.4383294 27
2.2237558 1.7834769 -0.35000879 13
2.8163562 2.2555203 -0.31567809 15
2.1678343 1.7342798 -0.14549398 1
2.1089015 1.6853232 -0.047121495 10
2.1011534 1.6917869 0.047086593 7
2.0667951 1.6623397 0.13900432 5
2.0874746 1.6771734 0.23427464 7
2.0732527 1.6633682 0.32636613 9
2.0593476 1.6504407 0.41799295 4
2.0429723 1.6355577 0.50869679 7
2.0213902 1.6159668 0.59747005 5
3.3693626 2.690691 1.1553683 1
1.729041 1.3733724 -0.59166032 25
1.8853276 1.4958999 -0.55562913 41
2.005059 1.5886217 -0.49724829 10
2.1778173 1.7236443 -0.43989375 42
2.2018929 1.7408248 -0.34464651 33
2.2205899 1.7530872 -0.24752231 1
2.1579332 1.7017884 -0.14402856 11
2.1253285 1.6742717 -0.047226213 5
2.1082139 1.6733472 0.046981879 5
2.0955651 1.6615198 0.1401557 7
2.1053798 1.6675072 0.23497188 8
2.0785873 1.6439269 0.32539117 6
2.0584202 1.6262259 0.41549 8
2.0574222 1.6236885 0.50946003 8
3.7147381 2.9274158 1.0919125 9
nan nan nan nan
1.7142503 1.3422118 -0.5833782 19
1.8895851 1.4778991 -0.55382955 46
2.0114589 1.5709599 -0.49610341 9
2.1648781 1.6889571 -0.43488789 30
2.1889412 1.7058855 -0.34074673 42
2.1525826 1.6751381 -0.23863243 6
2.177645 1.6928116 -0.14455192 5
2.1527596 1.6716579 -0.047575258 8
2.1292937 1.6659828 0.047191311 7
2.0992446 1.6407009 0.13963234 5
2.0996943 1.6392822 0.23305444 5
2.0790546 1.6208321 0.32368499 8
2.0650477 1.6081747 0.41455138 4
nan nan nan nan
3.4195974 2.6563375 0.99968255 52
3.7240634 2.8897214 1.263037 13
1.744989 1.3467366 -0.59062505 21
1.8751625 1.4456351 -0.5466311 29
2.0286007 1.5616683 -0.49762988 10
2.167222 1.6665761 -0.43301064 25
2.2102425 1.6978178 -0.34220913 7
2.1800334 1.6721956 -0.24037553 6
2.1941662 1.6812119 -0.14486594 8
2.1643775 1.656588 -0.047575258 7
2.1345384 1.6461921 0.047051687 5
2.1122298 1.6272243 0.13973701 4
2.1079295 1.6221534 0.23270583 8
2.1076331 1.6195842 0.32636613 1
3.1809318 2.4416988 0.63512403 39
4.0320301 3.09165 0.98762739 15
3.6144485 2.7674553 1.0509714 42
3.3635945 2.5725925 1.1346627 52
1.7466607 1.3286734 -0.58803689 17
1.8898641 1.4360459 -0.54798079 37
2.0425811 1.5498425 -0.49839315 18
2.2071402 1.6728843 -0.43864229 5
2.2172928 1.6787523 -0.34147793 8
2.2075484 1.66895 -0.24211864 6
2.1915061 1.6550189 -0.14392389 5
2.1647151 1.6330074 -0.047330927 5
2.1348355 1.6227793 0.046807356 6
2.1187665 1.608815 0.139423 5
3.0081582 2.2816608 0.33032027 32
2.9829013 2.2592275 0.45944747 18
3.202626 2.4230077 0.63606256 30
3.5992954 2.7201533 0.87695819 46
3.6725686 2.7715006 1.0622189 43
3.3938131 2.5583503 1.1388038 34
1.7435286 1.3071764 -0.5838958 10
1.8998436 1.4228171 -0.54798079 32
2.0360565 1.5226113 -0.49419534 13
2.2266784 1.6633458 -0.44020665 19
2.2416866 1.6727293 -0.34342784 8
2.2223415 1.6558783 -0.24246727 3
2.1901894 1.630139 -0.14308652 5
2.1696439 1.6130826 -0.047191311 5
2.1477127 1.6090348 0.046842258 5
3.0254197 2.2641275 0.19803928 43
3.0096505 2.2498691 0.32875144 29
3.0288258 2.2609093 0.46407849 12
3.2083788 2.3923247 0.63387251 28
3.8842895 2.8931506 0.94145161 46
3.962342 2.9469912 1.1400521 14
4.0784011 3.0299947 1.3613882 27
1.7463963 1.290381 -0.58182526 12
1.9097303 1.4095191 -0.54798079 32
