# .PCD v0.7 - Point Cloud Data file format
VERSION 0.7
FIELDS x y z intensity
SIZE 4 4 4 4
TYPE F F F F
COUNT 1 1 1 1
WIDTH 1427
HEIGHT 1
VIEWPOINT 0 0 0 1 0 0 0
POINTS 1427
DATA ascii
1.8909 -0.91776389 -0.56319028 12
2.0681946 -1.0051537 -0.5308845 9
2.2823544 -1.1112068 -0.4934321 10
2.5533245 -1.2447879 -0.44990557 7
2.9039178 -1.4182179 -0.3968066 8
3.3308778 -1.6288975 -0.32439366 4
3.8906374 -1.9051617 -0.22703341 5
4.4703488 -2.1929045 -0.086912982 3
5.2701588 -2.5601885 0.1022711 1
6.3202667 -3.0744109 0.36834049 7
7.6215768 -3.7123528 0.74169534 1
7.2164307 -3.5212479 0.98592305 1
7.1970248 -3.5164449 1.2686837 1
7.2103705 -3.5292039 1.560436 1
6.0860577 -2.982846 1.5647596 100
7.1798468 -3.5235882 2.1430218 3
1.903335 -0.94068658 -0.56888431 12
2.0626955 -1.0207919 -0.53133446 9
2.286855 -1.1332153 -0.49610341 7
2.5443516 -1.2630271 -0.44990557 7
2.9010565 -1.4419909 -0.39778158 8
3.3265598 -1.6556628 -0.32509091 4
3.8858416 -1.9374092 -0.22755675 5
4.4710331 -2.2320983 -0.087227128 3
5.2664981 -2.6040092 0.10255034 1
6.3410587 -3.1408346 0.37085262 26
7.0379233 -3.4905937 0.68731016 1
7.0263257 -3.4894271 0.96325535 1
7.0231152 -3.4939468 1.2424027 1
7.0432162 -3.508549 1.529525 1
6.0929866 -3.0391791 1.5719581 100
6.9920044 -3.4937062 2.0943637 3
1.8915439 -0.95134735 -0.56733137 12
2.0537784 -1.0342906 -0.5308845 9
2.2821927 -1.151319 -0.49686664 9
2.5389984 -1.2825403 -0.4505313 7
2.8873761 -1.4604168 -0.3972941 8
3.3540237 -1.69865 -0.32892576 4
3.9042826 -1.9807557 -0.22944085 5
4.4803009 -2.2759368 -0.08771579 3
5.2977414 -2.6668036 0.10352767 1
6.3082762 -3.1796329 0.3702246 26
6.8888745 -3.4768031 0.67510837 1
6.8435082 -3.4599035 0.94156259 1
6.8681326 -3.4768693 1.2192503 1
6.8627 -3.4786346 1.495561 2
6.0750961 -3.0834055 1.5728579 100
6.8572311 -3.4863997 2.061235 3
1.893455 -0.96892977 -0.56991959 11
2.0517108 -1.0512694 -0.53223425 9
2.2830372 -1.1713076 -0.49877474 10
2.5407524 -1.3052087 -0.45240852 7
2.8877008 -1.4859884 -0.3987565 8
3.3491673 -1.7256743 -0.32962301 4
3.8889349 -2.0063694 -0.2293362 7
4.4571967 -2.3034871 -0.087576173 3
5.3026066 -2.7146487 0.10398144 1
6.3167019 -3.2379863 0.372004 42
6.8360758 -3.5102499 0.67231935 1
6.8250952 -3.5091283 0.94229382 1
6.8039122 -3.5027425 1.2120544 1
6.7318087 -3.4715703 1.4722823 1
6.0672746 -3.132895 1.5764571 100
6.6891932 -3.4584663 2.0177534 2
1.8851018 -0.9809038 -0.56940192 12
2.0496922 -1.0679117 -0.53358394 9
2.2678425 -1.1835841 -0.49724829 10
2.5420825 -1.3284038 -0.45428574 6
2.8775191 -1.5056099 -0.3987565 8
3.3370383 -1.7490135 -0.32962301 4
3.8925183 -2.0427511 -0.23038292 5
4.4555759 -2.3412139 -0.087855421 5
5.2835255 -2.7516015 0.10398144 3
6.3045688 -3.2875466 0.37263206 47
6.8650088 -3.5843644 0.67754871 1
6.9358764 -3.6275299 0.96106172 1
6.9332886 -3.630801 1.2395868 1
6.8419051 -3.5875115 1.5016669 1
6.0642328 -3.1851435 1.581406 100
6.6067514 -3.474508 2.0001535 2
1.8730856 -0.99132925 -0.56784898 12
2.0456307 -1.08402 -0.53448373 9
2.2647266 -1.2021492 -0.49839315 10
2.5292583 -1.3442643 -0.45366001 6
2.8704429 -1.5275271 -0.39924401 6
3.3317797 -1.7760166 -0.33032027 4
3.8922582 -2.0773995 -0.23122028 5
4.4532318 -2.3798022 -0.088134654 5
5.2818584 -2.7977805 0.10433049 1
6.2991085 -3.3408384 0.37367877 45
6.7870283 -3.6041694 0.67231935 1
6.7701774 -3.6012828 0.94156259 1
6.7613177 -3.6011133 1.2133058 1
6.5568442 -3.4966178 1.4444242 1
6.0641942 -3.2393382 1.5872548 98
nan nan nan nan
1.872924 -1.008044 -0.56991959 12
2.0448749 -1.1019726 -0.53628331 9
2.2683723 -1.2244585 -0.50106448 10
2.5198121 -1.3618889 -0.45366001 7
2.8771675 -1.5569768 -0.40168139 8
3.3368156 -1.8087279 -0.33206338 3
3.8934591 -2.113096 -0.23216233 5
4.4611077 -2.4242003 -0.088623315 5
5.2850842 -2.8469145 0.10478425 1
6.2949681 -3.3951621 0.37483016 35
6.4110808 -3.4621215 0.63745707 1
6.5947132 -3.5672357 0.92060113 1
6.652638 -3.6030722 1.1982881 1
6.4960308 -3.5226543 1.4364102 1
6.063693 -3.2936871 1.5931034 18
nan nan nan nan
1.8709248 -1.0238769 -0.57147247 12
2.0302958 -1.1124759 -0.53448373 9
2.2614896 -1.2412093 -0.50144607 9
2.5292861 -1.389912 -0.45710155 9
2.8697062 -1.5789391 -0.40216887 8
3.3450465 -1.843519 -0.33415511 3
3.8821092 -2.1421554 -0.23237166 7
4.4580779 -2.463022 -0.088902563 5
5.2861271 -2.8952692 0.10520311 1
6.2921271 -3.4505503 0.37608621 80
nan nan nan nan
6.1869845 -3.40273 0.86697859 20
nan nan nan nan
6.299355 -3.4731283 1.3982484 1
nan nan nan nan
6.2079396 -3.4326239 1.9007671 2
1.8704839 -1.0406705 -0.57354301 12
2.0275872 -1.1294677 -0.53583348 9
2.2544839 -1.2579237 -0.50182766 10
2.5195212 -1.4075358 -0.45710155 9
2.8551483 -1.5969967 -0.40168139 8
3.3463273 -1.8740335 -0.33554959 4
3.8722856 -2.1721368 -0.23268569 7
4.4372869 -2.4921265 -0.088832751 5
5.2867508 -2.9437764 0.10562197 1
6.2434621 -3.4807773 0.37462083 22
6.2472968 -3.4872046 0.62595254 57
6.171742 -3.4506838 0.86819732 76
nan nan nan nan
nan nan nan nan
nan nan nan nan
nan nan nan nan
1.8631731 -1.0537034 -0.57354301 12
2.0230443 -1.1455158 -0.53673327 9
2.2407455 -1.2703354 -0.50068283 10
2.5201898 -1.4305036 -0.4589788 9
2.8611865 -1.6267014 -0.40411878 8
3.3227739 -1.8914355 -0.33450374 6
3.8764982 -2.2093225 -0.23383708 5
4.4197807 -2.5230434 -0.088832751 5
4.714869 -2.6675448 0.094557136 4
6.1935573 -3.5084281 0.37305072 11
6.1430864 -3.4855056 0.61793417 57
6.1084127 -3.4700611 0.86259133 58
6.1093311 -3.4748154 1.1131878 63
6.0864859 -3.4674478 1.361613 91
6.0193739 -3.4333899 1.5998521 100
5.9687796 -3.408675 1.8417563 100
1.8542826 -1.0653986 -0.57302535 11
2.0304027 -1.168005 -0.54078233 9
2.2369256 -1.2888882 -0.50182766 10
2.5084305 -1.4470756 -0.45866591 7
2.8741131 -1.6600389 -0.40753111 6
3.331908 -1.9275566 -0.33676979 3
3.8817189 -2.2483439 -0.23509313 5
4.4301825 -2.5691202 -0.089391224 3
4.718667 -2.7133541 0.095010899 6
4.6699572 -2.6885989 0.28240484 5
nan nan nan nan
nan nan nan nan
6.0319076 -3.4867356 1.1034888 64
5.9913769 -3.4674938 1.3455851 78
5.9800839 -3.4665327 1.5958029 82
5.9448371 -3.4502616 1.8417563 100
1.8484679 -1.0792919 -0.57354301 7
2.0205169 -1.1811678 -0.5403325 9
2.2448153 -1.3143933 -0.50564384 10
2.4982669 -1.4645524 -0.45866591 7
2.869302 -1.6840826 -0.4085061 8
3.3149345 -1.948751 -0.33642116 3
3.86765 -2.2764018 -0.23519783 5
4.4362583 -2.6141989 -0.089879893 4
4.670259 -2.729079 0.09441752 4
4.6252146 -2.7060072 0.28083476 1
4.6486268 -2.7229724 0.47133827 5
4.5954623 -2.6961417 0.65419465 10
nan nan nan nan
nan nan nan nan
5.9355874 -3.4963286 1.590404 32
5.8640285 -3.4583135 1.8241568 100
1.8491954 -1.0970988 -0.57613122 12
2.0088706 -1.1932542 -0.53943264 9
2.2389586 -1.3320404 -0.50640708 10
2.4913759 -1.4839795 -0.45929164 7
2.8540649 -1.7020395 -0.40801859 8
3.3098016 -1.9769545 -0.3372927 3
3.8636622 -2.3105228 -0.23593052 8
4.4281936 -2.6512692 -0.090089321 4
4.6992364 -2.7902026 0.09539485 3
4.6525645 -2.7657866 0.28366089 5
4.6003981 -2.7380364 0.46837494 4
4.5373101 -2.7047796 0.64858866 3
4.5594921 -2.7212396 0.8409918 3
4.5233536 -2.702884 1.0242627 10
4.4846945 -2.6840346 1.2066375 7
nan nan nan nan
1.8497636 -1.1149683 -0.57871938 12
2.0054965 -1.2102703 -0.54078233 9
2.2212038 -1.3425609 -0.50449902 10
2.4910953 -1.5074726 -0.46116886 7
2.8522999 -1.7280946 -0.40948102 6
3.3095458 -2.0082817 -0.33868721 3
3.8576791 -2.3436615 -0.23655853 8
4.4334955 -2.6966672 -0.09057799 6
5.3303075 -3.2154469 0.10865869 3
6.1752448 -3.7295566 0.378075 37
6.1190262 -3.6999774 0.62560391 48
4.5811419 -2.7744381 0.65760702 3
4.5302486 -2.7468588 0.83911461 4
4.4926262 -2.7272654 1.0215914 6
4.4458661 -2.7031288 1.2012386 1
4.4257345 -2.6940637 1.3883054 4
1.830402 -1.1207931 -0.57509595 12
2.0069671 -1.2303528 -0.54348177 9
2.2134502 -1.3590623 -0.50488061 10
2.4771447 -1.522758 -0.46054313 7
2.8604529 -1.7604505 -0.41240588 8
3.3124053 -2.0417922 -0.34043032 3
3.8582201 -2.3810253 -0.23760527 8
4.4247684 -2.7338598 -0.090787418 6
5.3281898 -3.2651188 0.10907754 3
6.14395 -3.7694433 0.37776098 15
6.108326 -3.751991 0.62717271 72
nan nan nan nan
nan nan nan nan
4.5269518 -2.7915382 1.0338032 3
4.4617047 -2.7556047 1.2106867 5
4.3788862 -2.7076235 1.3795056 6
1.8176116 -1.1304835 -0.57354301 12
2.0082543 -1.2505144 -0.5461812 8
2.2238982 -1.3869487 -0.50946003 10
2.4731557 -1.5441991 -0.46179458 6
2.8615592 -1.7887951 -0.41435578 8
3.3014476 -2.0669818 -0.34077895 4
3.8685803 -2.4248745 -0.23928 8
4.4360633 -2.7838163 -0.091415711 4
5.3256373 -3.3149171 0.1094964 3
6.1734219 -3.8471024 0.38121516 35
6.090435 -3.7998166 0.62804425 58
6.0435991 -3.7764599 0.87502193 73
5.9936304 -3.7496009 1.119758 35
nan nan nan nan
nan nan nan nan
4.40732 -2.7679236 1.3945172 1
1.8260077 -1.1534623 -0.57871938 12
1.989593 -1.2582544 -0.54348177 9
2.2174785 -1.4045417 -0.51022327 10
2.4723246 -1.5677747 -0.46367183 7
2.8557053 -1.8129848 -0.41533077 8
3.304117 -2.1000934 -0.34252208 4
3.8549273 -2.4539678 -0.23948936 8
4.4131479 -2.8125682 -0.091345899 6
5.2989855 -3.349879 0.1094266 4
6.164978 -3.9018562 0.38236654 37
6.0805888 -3.8529072 0.62978739 16
6.0321727 -3.8281326 0.87721562 82
6.0039883 -3.8146582 1.1266412 85
5.9353399 -3.7754059 1.3673373 85
5.8796349 -3.7442975 1.6092999 98
nan nan nan nan
1.824415 -1.1703545 -0.58078998 12
1.9791205 -1.2710606 -0.54303187 9
2.2177749 -1.4259737 -0.51251298 9
2.4649179 -1.5867052 -0.46429756 6
2.8496523 -1.8371793 -0.41630572 6
3.3228548 -2.1447186 -0.3460083 4
3.8532319 -2.4899065 -0.24043141 6
4.4303384 -2.8672113 -0.0921138 6
5.2491331 -3.3685899 0.10886811 3
6.146678 -3.949127 0.3828899 40
6.1088338 -3.9308412 0.63553965 3
nan nan nan nan
5.9828639 -3.8586488 1.1275797 28
5.9352245 -3.8337936 1.3734432 85
5.8697152 -3.7958364 1.613799 100
5.8298488 -3.7743855 1.8609091 100
1.8131685 -1.1806372 -0.57975465 12
1.9818505 -1.291952 -0.5461812 9
2.1962585 -1.4339087 -0.50984168 7
2.4620481 -1.6092784 -0.46586189 5
2.8437254 -1.8608816 -0.41728067 8
3.3044682 -2.1656795 -0.34565967 4
3.8491139 -2.5255115 -0.24126878 6
4.4274335 -2.9082799 -0.092462853 4
5.2506185 -3.4215293 0.10939168 1
6.1306677 -3.9995821 0.38362259 35
6.0919442 -3.9788685 0.63658553 2
6.0386224 -3.9500587 0.8859902 7
6.1177292 -4.0063806 1.1582409 7
nan nan nan nan
nan nan nan nan
5.8162708 -3.8234825 1.8650501 100
1.8113281 -1.1975284 -0.58182526 12
1.9809078 -1.3111343 -0.54843074 9
2.197649 -1.4567996 -0.51251298 9
2.470504 -1.6395351 -0.46961632 6
2.8438921 -1.8894773 -0.41923055 6
3.2959032 -2.1931112 -0.34635693 3
3.8480115 -2.5633945 -0.2423155 6
4.4170041 -2.9457755 -0.092672281 6
5.9220395 -3.918226 0.12394699 13
6.1309023 -4.0610342 0.38540202 30
6.0756421 -4.0290089 0.6378057 2
6.0323963 -4.0063968 0.88915884 7
6.1307349 -4.0763354 1.1660627 10
nan nan nan nan
nan nan nan nan
nan nan nan nan
1.7981116 -1.2069148 -0.58027232 12
1.9684712 -1.3227577 -0.54753089 9
2.1857965 -1.4710102 -0.51213133 10
2.4475303 -1.6490158 -0.46742624 6
2.8339236 -1.9115055 -0.41971806 8
3.2904181 -2.222759 -0.34740278 4
3.8300219 -2.5901961 -0.2423155 8
4.4228249 -2.9944775 -0.093230762 6
5.8630018 -3.938288 0.1232838 6
6.1173186 -4.1137671 0.38634408 30
6.0870314 -4.0980306 0.64198917 2
6.0256763 -4.0628395 0.89232743 8
6.15452 -4.1544027 1.1760744 15
24.809711 -16.765881 5.8204379 10
7.8385434 -5.3050981 2.1851747 6
nan nan nan nan
1.7912385 -1.2205262 -0.58078998 12
1.9607986 -1.337566 -0.54798079 8
2.1916845 -1.4973087 -0.51594758 7
2.4392192 -1.6682931 -0.46805197 6
2.8336129 -1.9402151 -0.42166796 6
3.2978251 -2.261451 -0.34984317 5
3.8233719 -2.624784 -0.24304819 8
4.4248838 -3.0411386 -0.093719423 6
5.8931894 -4.0185547 0.12450547 13
6.119791 -4.1777697 0.38833284 32
6.0862384 -4.1595373 0.64495248 2
6.0135469 -4.1160197 0.89476484 10
6.1661053 -4.2251821 1.1838962 19
24.530165 -16.827618 5.7822762 10
7.7932854 -5.3541737 2.1829252 14
8.7321072 -6.0058999 2.8397627 2
1.7956012 -1.2414795 -0.58493102 12
1.958058 -1.3553181 -0.54978037 9
2.1798284 -1.5110738 -0.51556593 9
2.4440358 -1.6961198 -0.47118065 7
2.830122 -1.9662539 -0.42313039 6
3.288897 -2.2883976 -0.3505404 5
3.8086948 -2.6530313 -0.24325755 8
4.4532886 -3.1055019 -0.094766572 4
5.9314771 -4.1040869 0.12590165 13
6.1092725 -4.2318387 0.38948423 36
6.0626955 -4.2042742 0.64547539 2
6.0000644 -4.167048 0.89695841 7
6.180994 -4.2975025 1.1923436 49
nan nan nan nan
7.735877 -5.3926091 2.1770763 6
7.3887963 -5.1564131 2.414264 2
1.7884721 -1.2550945 -0.58544868 12
1.946954 -1.3678347 -0.54933053 9
2.1708317 -1.527385 -0.51594758 7
2.4385953 -1.7176913 -0.47243217 7
2.8130817 -1.9836755 -0.42264292 8
3.2858608 -2.3204973 -0.35193488 7
3.8063891 -2.6910861 -0.24430427 8
4.4282355 -3.1342051 -0.094696753 6
5.8863163 -4.133903 0.12555261 13
6.094285 -4.2847247 0.39042628 34
6.0625243 -4.267139 0.64861304 1
6.0016551 -4.2305651 0.90158945 10
6.1766644 -4.3587713 1.1973495 100
24.456169 -17.277512 5.8204379 10
nan nan nan nan
7.2895603 -5.1632061 2.3935585 2
1.7765191 -1.2653084 -0.58441341 12
1.9484643 -1.3893129 -0.5524798 10
2.1665068 -1.5470663 -0.517474 6
2.4394002 -1.7438641 -0.47493511 8
2.8149557 -2.0153103 -0.4250803 6
3.2695808 -2.3433802 -0.35193488 5
3.8102274 -2.7338946 -0.24576966 8
4.4138141 -3.1716473 -0.094871283 8
6.0168953 -4.2886415 0.12897329 13
6.0886102 -4.3445673 0.39199635 36
6.0325861 -4.3093596 0.64861304 1
6.0026493 -4.2943058 0.9062205 10
6.1525078 -4.4063878 1.198601 100
nan nan nan nan
25.982323 -18.656445 7.3846941 19
7.3694158 -5.2974124 2.431864 2
1.7736812 -1.2825161 -0.58648396 12
1.944787 -1.4077909 -0.55427945 10
2.1588328 -1.5644578 -0.51823723 6
2.4236612 -1.7589545 -0.47430936 8
2.8040297 -2.0372467 -0.42556778 8
3.2531414 -2.3661487 -0.35193488 5
3.7970243 -2.7657933 -0.24618836 8
4.4303422 -3.2306609 -0.095708996 8
6.0224543 -4.3563271 0.12974119 13
6.0880976 -4.4102874 0.39398512 31
6.022562 -4.3676229 0.65087909 2
5.9950128 -4.3524351 0.90963286 10
6.1399918 -4.4642406 1.2023554 100
nan nan nan nan
nan nan nan nan
7.1752672 -5.2361326 2.3801 5
1.7677994 -1.2971534 -0.58751929 12
1.9411936 -1.4259484 -0.55607903 9
2.1523268 -1.5833558 -0.51938212 9
2.4145038 -1.7781751 -0.47493511 7
2.8057168 -2.0685525 -0.42800516 8
3.265398 -2.410099 -0.3550725 7
3.7872601 -2.7993572 -0.24681638 8
4.3948202 -3.2519963 -0.095429763 8
6.0249743 -4.4241652 0.13047419 13
6.0764709 -4.4668779 0.3952412 31
6.0095763 -4.4225512 0.65279651 1
5.9685082 -4.3987556 0.91036409 11
6.1277514 -4.5210705 1.2061099 98
nan nan nan nan
7.3002462 -5.3979554 2.0960941 2
7.0733318 -5.237812 2.3583593 2
1.7633493 -1.3129241 -0.58907217 12
1.9280664 -1.4371364 -0.55517924 9
2.14622 -1.6014918 -0.52052695 9
2.421335 -1.8087549 -0.47868952 8
2.8055129 -2.0987918 -0.43019882 9
3.2453032 -2.4304483 -0.35472387 5
3.7840974 -2.8370521 -0.2478631 8
4.395997 -3.3006074 -0.09595333 6
6.0348139 -4.494936 0.13134682 14
6.0603352 -4.5188804 0.39618322 31
6.020061 -4.4953928 0.65732861 1
5.9495583 -4.4475999 0.91207021 10
6.1158142 -4.5768776 1.2098643 98
nan nan nan nan
7.1750913 -5.383296 2.0708995 2
8.3134127 -6.2441559 2.7859285 2
1.7651631 -1.3330461 -0.59269565 12
1.9182396 -1.4502269 -0.55517924 9
2.139683 -1.6199915 -0.52167183 10
2.4117973 -1.8280013 -0.47931525 8
2.7895806 -2.1166394 -0.42995507 9
3.2457068 -2.466305 -0.35664126 3
3.7832749 -2.8779111 -0.24911918 8
4.432292 -3.3752797 -0.097244807 23
6.0256219 -4.5538363 0.13183548 13
6.0636811 -4.5875897 0.39848602 34
6.0020285 -4.5458889 0.65872312 3
5.9579029 -4.5190177 0.91816372 12
6.1073108 -4.6373816 1.2145573 91
nan nan nan nan
7.4055862 -5.6374602 2.1487324 2
7.4060864 -5.6439686 2.4950156 2
1.7496798 -1.3406367 -0.59062505 12
1.9157996 -1.4695135 -0.55742878 10
2.1314352 -1.6372813 -0.52243507 9
2.411504 -1.8544276 -0.4818182 8
2.7920387 -2.1493831 -0.4326362 9
3.2426109 -2.4998522 -0.35821009 5
3.7789025 -2.9164557 -0.25016591 10
4.547874 -3.5137284 -0.10031643 13
6.0365295 -4.6286449 0.13277791 11
6.0394282 -4.635891 0.39900938 31
6.0049024 -4.614388 0.66255796 1
5.9435148 -4.5738182 0.92084479 8
6.0951309 -4.6955771 1.2186246 87
nan nan nan nan
7.3660488 -5.6890235 2.1487324 2
7.1708794 -5.5442853 2.4287581 2
1.7372274 -1.3504479 -0.58958983 12
1.9131836 -1.4888365 -0.55967826 9
2.126147 -1.6569489 -0.52396154 9
2.398499 -1.8712176 -0.4818182 7
2.7957392 -2.1834848 -0.43556106 9
3.2192416 -2.5169575 -0.35751286 7
3.7741754 -2.9550788 -0.25121263 8
4.5861864 -3.5947373 -0.10171262 13
5.9803934 -4.652257 0.13225435 13
6.0400076 -4.703711 0.40120748 31
5.9756846 -4.6586471 0.66290659 1
5.9489918 -4.6445189 0.92669457 10
6.0808778 -4.7526121 1.2223791 87
nan nan nan nan
7.3670425 -5.7702727 2.16043 2
7.2186399 -5.6621709 2.4582634 2
1.7323079 -1.3661317 -0.59114271 9
1.8981543 -1.498534 -0.55832857 9
2.1256015 -1.679904 -0.52663285 9
2.3888049 -1.8899513 -0.48244393 8
2.7757597 -2.1992514 -0.43482983 8
3.2140794 -2.5492749 -0.35890734 5
3.7602301 -2.9856682 -0.25163129 8
4.5938482 -3.6528027 -0.10244562 9
6.0537753 -4.7758393 0.13459297 42
6.0407662 -4.7707095 0.40340558 31
5.9789581 -4.7286777 0.66691571 1
5.9219089 -4.6886001 0.92742574 2
6.0747051 -4.8147516 1.2276978 80
nan nan nan nan
7.2914872 -5.7936797 2.1500823 4
7.2706447 -5.7833323 2.4893215 2
1.7305126 -1.3839242 -0.59373093 11
1.8879101 -1.5114197 -0.55832857 9
2.1153536 -1.6959302 -0.52701449 9
2.387877 -1.9164737 -0.48494691 8
2.7700107 -2.225554 -0.43629229 8
3.205518 -2.5791454 -0.35995319 5
3.7424059 -3.0143526 -0.25184065 10
4.802381 -3.8722656 -0.10768134 9
6.0764928 -4.8629665 0.13584954 42
6.0260181 -4.8277512 0.40466166 33
5.9730554 -4.7904568 0.66987902 1
5.9122481 -4.7484746 0.93108183 7
6.0701933 -4.8805609 1.2336423 94
nan nan nan nan
7.2523799 -5.8456659 2.1505322 2
7.1248517 -5.7490301 2.4530871 2
1.7298104 -1.4032739 -0.59683669 11
1.8939528 -1.5380763 -0.56327748 9
2.1034622 -1.7106568 -0.52701449 9
2.3805668 -1.938086 -0.48619837 8
2.7451732 -2.2373135 -0.43482983 8
3.2059569 -2.6165783 -0.36204496 7
3.7444704 -3.0593605 -0.25341073 8
4.8866782 -3.9968522 -0.11019449 16
6.0734453 -4.9304771 0.13654763 40
6.010767 -4.8848181 0.40591773 33
5.9842873 -4.8685026 0.67493409 3
5.9097338 -4.8147106 0.93595666 7
nan nan nan nan
6.0115771 -4.9081664 1.508536 88
nan nan nan nan
5.8900814 -4.8209763 2.0394943 66
1.7125129 -1.4091785 -0.59424853 12
1.8997142 -1.5648901 -0.5682264 10
2.0914683 -1.7253001 -0.52701449 9
2.3883028 -1.9722679 -0.49057853 7
2.7509072 -2.2741311 -0.4382422 8
3.2034214 -2.6510425 -0.36378807 5
3.7368615 -3.0968971 -0.25435278 6
4.9094434 -4.0730042 -0.11134635 14
6.0604877 -4.9905524 0.13703629 39
6.0057998 -4.9507995 0.40790647 33
5.9455428 -4.9063582 0.67441112 1
3.9004858 -3.2233238 0.62128997 2
3.8355761 -3.1730645 0.78842986 13
5.940876 -4.9199615 1.4993771 22
5.9319038 -4.9177694 1.778913 100
nan nan nan nan
1.7011503 -1.4198617 -0.59373093 12
1.884257 -1.574366 -0.56687671 10
2.0887117 -1.7470536 -0.52930421 9
2.3717935 -1.9859422 -0.4899528 8
2.7410479 -2.2983823 -0.43921715 8
3.1848359 -2.6733418 -0.36378807 7
3.737102 -3.1402495 -0.25581816 6
4.9528022 -4.1676927 -0.11298689 7
6.0048876 -5.0137467 0.13654763 17
5.9964814 -5.0120583 0.40958121 33
5.9432292 -4.9746008 0.67807168 1
5.8960428 -4.9403567 0.94448751 10
3.7245958 -3.1241992 0.76997054 15
5.8567758 -4.9196463 1.4867837 28
5.8243427 -4.8976064 1.7568679 46
5.8023601 -4.8843107 2.0322473 75
1.7017689 -1.4401438 -0.59735435 12
1.8779575 -1.590934 -0.5682264 10
2.0869441 -1.7704833 -0.53197551 7
2.3608828 -2.0050094 -0.49057853 7
2.7344143 -2.3247013 -0.44067958 8
3.172163 -2.7006776 -0.36448529 7
3.7302895 -3.1792185 -0.25686491 8
4.9638724 -4.235054 -0.11389441 10
6.0490918 -5.1227469 0.13836268 42
5.9918141 -5.0796304 0.41167465 33
5.9365745 -5.0381451 0.68120927 1
5.8840985 -5.0006814 0.94814354 10
nan nan nan nan
nan nan nan nan
5.7959404 -4.9432068 1.7586675 19
5.7240443 -4.8870678 2.0167181 89
1.700469 -1.4595387 -0.60046023 12
1.8712392 -1.6078157 -0.56957608 9
2.0879266 -1.7965344 -0.53541011 9
2.3617947 -2.0343344 -0.49370724 7
2.7151117 -2.3411417 -0.4401921 8
3.1743436 -2.7409868 -0.36692566 9
3.7216022 -3.2169375 -0.25780693 6
4.9976959 -4.3245611 -0.1153604 12
6.0359349 -5.1843963 0.13888624 47
5.9789224 -5.1408691 0.41324475 33
5.9314585 -5.1054616 0.68469548 1
5.8700948 -5.0597825 0.95155597 10
6.01371 -5.1890645 1.2580462 85
3.7752297 -3.2609911 0.9696914 30
9.1717834 -7.9336481 2.799741 4
nan nan nan nan
1.6960665 -1.4764482 -0.60253078 12
1.8673149 -1.6272416 -0.57182562 10
2.0753336 -1.8110669 -0.53541011 10
2.360924 -2.0624697 -0.49652308 6
2.692313 -2.3552823 -0.43921715 8
3.1611266 -2.7683315 -0.36762294 7
3.7456107 -3.2836561 -0.26105177 8
4.9621139 -4.3562555 -0.11525569 10
6.0267358 -5.2500515 0.13951454 48
5.9669714 -5.2034874 0.4149195 27
5.9241886 -5.1716418 0.68800741 1
5.8734856 -5.1346092 0.95789313 7
6.0011215 -5.2517352 1.263052 85
3.7222681 -3.2620437 0.96205902 12
8.8495588 -7.7635875 2.7178588 2
7.3521175 -6.4567194 2.6218369 9
1.681114 -1.4847107 -0.60097784 12
1.857083 -1.6418529 -0.57227552 9
2.0641096 -1.8268124 -0.5357917 9
2.3534966 -2.0858619 -0.49808741 8
2.6906538 -2.3871949 -0.44165453 8
3.1476815 -2.795625 -0.36832017 9
3.714556 -3.3037381 -0.26052842 21
5.0092435 -4.4599376 -0.11707074 10
6.0184097 -5.3171535 0.14017773 42
5.9535174 -5.2672276 0.41659427 22
5.9049282 -5.229753 0.69009912 3
5.8642335 -5.1991925 0.96228039 10
5.9899769 -5.31815 1.2686837 89
3.8212013 -3.3962004 0.99373329 5
3.8392305 -3.4158249 1.1863919 9
7.3331323 -6.5335832 2.6316721 4
1.6750249 -1.5002774 -0.60253078 12
1.8586338 -1.6664859 -0.57632464 10
2.0582886 -1.8480939 -0.53769976 10
2.3359389 -2.0996006 -0.49746165 8
2.6768739 -2.4085767 -0.44214204 8
3.1221664 -2.8121979 -0.36762294 7
3.726995 -3.3616951 -0.26304054 2
3.3735721 -3.0461175 -0.07933864 6
6.0040331 -5.3814383 0.14073621 43
5.9270067 -5.3179984 0.41732696 8
5.9008832 -5.3001399 0.69393402 1
3.5894048 -3.2285128 0.59277254 1
nan nan nan nan
3.5276141 -3.1796241 0.92313397 48
3.4449019 -3.1083417 1.0712169 17
7.2988076 -6.5949788 2.6358132 7
1.6716602 -1.5184293 -0.60511893 11
1.8397453 -1.6728657 -0.5740751 9
2.0616319 -1.8765984 -0.54189759 10
2.3128326 -2.1074693 -0.49558446 8
2.6629264 -2.4298818 -0.44262949 8
3.1259942 -2.8554256 -0.37041187 5
3.5551581 -3.2508595 -0.25246868 8
3.3890941 -3.1033568 -0.080211259 22
5.9939041 -5.4463882 0.1413645 53
5.9128332 -5.3783784 0.41889706 2
5.8976154 -5.3720646 0.69794315 1
3.5658791 -3.2515328 0.59252882 11
3.5802879 -3.2681062 0.76778048 13
3.5995209 -3.290272 0.94793916 22
3.4073036 -3.1178453 1.0662681 39
3.3348439 -3.0547509 1.2117908 6
1.6698128 -1.5376244 -0.60822481 11
1.8354801 -1.6919538 -0.57632464 11
2.0556934 -1.8976038 -0.54380566 11
2.3067684 -2.131608 -0.49746165 8
2.6463251 -2.4479516 -0.44262949 8
3.1118305 -2.8825953 -0.37110916 5
3.6392848 -3.3747373 -0.26010972 2
3.3766856 -3.1345165 -0.080420688 36
5.9866166 -5.5165572 0.14209749 48
5.8986301 -5.4411931 0.42057177 2
5.865304 -5.4161382 0.69846606 1
5.8211069 -5.3828602 0.97349238 10
3.5646329 -3.299731 0.76934481 28
nan nan nan nan
3.5040159 -3.2515769 1.1036099 21
3.5144229 -3.2646601 1.2852954 28
1.6675092 -1.5571554 -0.61133063 11
1.832165 -1.7127112 -0.57902408 11
2.0466955 -1.9159338 -0.54495054 11
2.3062446 -2.1611676 -0.50059032 8
2.6349621 -2.4717989 -0.44360444 6
3.0945344 -2.9069779 -0.37145776 5
3.6389163 -3.4219534 -0.26178449 2
3.3226874 -3.1278589 -0.079652779 21
5.9801016 -5.588254 0.1428654 47
5.9071741 -5.5259023 0.42392129 2
5.8695245 -5.496448 0.70352113 1
3.2826579 -3.0783112 0.55255568 20
5.9610868 -5.5958748 1.2949647 89
3.5151851 -3.303288 0.93763542 24
3.4798119 -3.2746248 1.10316 16
3.4521725 -3.2520258 1.2708015 12
1.6509868 -1.5634453 -0.60926002 11
1.8300633 -1.7348449 -0.58217335 11
2.0375419 -1.9342308 -0.54609537 11
2.3054204 -2.1908231 -0.50371903 8
2.6176417 -2.4901342 -0.44360444 8
3.091476 -2.9450018 -0.37354952 5
3.2694879 -3.1178463 -0.23676789 36
3.2356801 -3.0888433 -0.078082062 27
5.9685206 -5.6560006 0.14352858 42
5.8684525 -5.5670066 0.42392129 2
3.4110532 -3.2392325 0.41154939 25
3.2697182 -3.10936 0.55401808 18
3.2950175 -3.1367066 0.72053725 19
nan nan nan nan
3.2989666 -3.1481578 1.052771 9
3.3469684 -3.197315 1.240261 3
1.644212 -1.5789474 -0.61081296 12
1.8277416 -1.7570325 -0.58532268 11
2.025403 -1.9497699 -0.54647696 10
2.2815349 -2.1986401 -0.50184184 8
2.611623 -2.5193737 -0.44555435 8
3.0708411 -2.9665127 -0.37354952 5
3.2174911 -3.111439 -0.23456979 30
3.2269683 -3.1238749 -0.078396209 39
5.9534001 -5.7210855 0.14412197 47
5.9474721 -5.7213812 0.43250436 2
3.332386 -3.2090681 0.40475124 36
3.5923009 -3.464201 0.61275911 15
3.236088 -3.1239622 0.71240264 25
3.4616625 -3.3452244 0.93572736 23
3.3343241 -3.2266736 1.0712169 3
nan nan nan nan
1.6389632 -1.5954927 -0.61288351 11
1.8143438 -1.7680727 -0.58487278 11
2.0205152 -1.971738 -0.54876673 10
2.2665167 -2.214119 -0.50184184 8
2.5972521 -2.5398679 -0.44604182 8
3.0562716 -2.9929218 -0.37424675 7
3.220484 -3.1570361 -0.23634921 36
3.2256117 -3.1653762 -0.078884877 39
5.9444013 -5.7907791 0.14485498 40
3.3402715 -3.2573588 0.24451362 4
3.5214689 -3.4376574 0.43054935 23
3.5430865 -3.4635947 0.60837179 8
3.2161608 -3.1472986 0.71271551 22
nan nan nan nan
3.6405904 -3.5713587 1.1773939 35
nan nan nan nan
1.6346591 -1.6136817 -0.61547172 12
1.8047284 -1.7834357 -0.58577257 10
2.0164688 -1.9954623 -0.55143803 10
2.2538106 -2.2326684 -0.50246757 8
2.5766385 -2.5551424 -0.44555435 6
3.0494399 -3.0282247 -0.37598985 8
3.1162109 -3.0977733 -0.23027822 7
3.2062697 -3.190639 -0.078954689 21
5.9507751 -5.8785129 0.14600682 11
3.3359113 -3.2988553 0.24587436 31
3.5384462 -3.5028069 0.43560439 32
3.1832914 -3.1556323 0.55036199 18
3.6077459 -3.5801461 0.80501187 28
3.0697892 -3.0494969 0.84108603 1
3.2715585 -3.2544732 1.0653682 39
8.3748293 -8.3398209 3.1669102 1
1.6315454 -1.6332549 -0.61857754 11
1.8101287 -1.8139236 -0.59162134 10
1.9983314 -2.0053191 -0.55029315 10
2.2521055 -2.2623482 -0.50559622 8
2.5783341 -2.5927744 -0.44896671 8
3.0456071 -3.0658736 -0.37808162 6
3.152179 -3.1775887 -0.23456979 15
3.2191062 -3.2484553 -0.079827309 21
3.3821564 -3.3880644 0.083562121 13
3.2888248 -3.2980213 0.24409491 9
nan nan nan nan
5.7791705 -5.8095088 1.0061533 3
3.1036756 -3.1232381 0.69738495 15
3.2835581 -3.3077161 0.90596116 17
nan nan nan nan
3.2732754 -3.3054252 1.2464726 22
1.6160363 -1.6404766 -0.6170246 11
1.8042555 -1.8334614 -0.59387082 9
1.981883 -2.0160747 -0.54952991 10
2.2421901 -2.283263 -0.50684774 7
2.5573905 -2.6078765 -0.44847921 8
3.0129747 -3.0756745 -0.37668711 6
3.3036938 -3.3759775 -0.24754909 24
3.3361111 -3.4138684 -0.083317786 1
3.2860553 -3.3369169 0.08174707 28
3.3251271 -3.3801312 0.24849114 15
3.462666 -3.5248647 0.43229246 1
3.3063259 -3.3692431 0.57961065 50
3.0754306 -3.1372387 0.69582063 30
5.8464451 -5.9722786 1.6245478 13
3.6541977 -3.7367589 1.2066375 17
3.1116545 -3.185292 1.1931559 45
1.6115642 -1.6583656 -0.61961281 9
1.8012353 -1.8554877 -0.59702015 10
1.9745923 -2.0369098 -0.55143803 10
2.2234473 -2.2960224 -0.50622195 8
2.544642 -2.6313748 -0.44945419 8
2.9997356 -3.1052318 -0.37773296 4
3.0470436 -3.1575112 -0.22996421 58
3.2220027 -3.3434813 -0.081048973 28
3.1679473 -3.2622254 0.079373546 28
3.3654187 -3.4692061 0.25330606 42
3.3040998 -3.4095662 0.41538426 62
3.1018839 -3.2053704 0.54768091 25
3.3829637 -3.4994924 0.77090919 6
3.2779613 -3.3956139 0.91740966 2
3.0855768 -3.1996751 1.0262268 37
nan nan nan nan
1.6036654 -1.6740403 -0.62116575 11
1.7838699 -1.8641058 -0.59567046 11
1.9738904 -2.0648365 -0.55525422 11
2.2096884 -2.3147318 -0.50684774 7
2.5344293 -2.6576953 -0.45091662 8
2.9848552 -3.1333113 -0.37860456 4
3.0298779 -3.1850228 -0.23038292 41
3.0539439 -3.2136889 -0.077383965 39
3.185205 -3.3261461 0.080385789 37
3.3142805 -3.4657733 0.25131726 40
3.1543777 -3.302021 0.39952192 41
3.1260264 -3.2757752 0.55596799 28
3.098911 -3.2519033 0.71146405 24
3.0971525 -3.2534671 0.873142 45
nan nan nan nan
5.6244578 -5.9228001 2.1885738 31
1.6038789 -1.6978341 -0.62582451 10
1.7734874 -1.8793488 -0.59657025 12
1.9577178 -2.0774798 -0.55487263 9
2.1961827 -2.3329787 -0.50747347 7
2.5171735 -2.67677 -0.45116034 9
2.962908 -3.154073 -0.37860456 4
3.2139032 -3.4260519 -0.24618836 32
3.0492096 -3.2539003 -0.077837728 40
3.1709311 -3.3590324 0.080630124 19
3.1146104 -3.3028336 0.23791927 30
3.121685 -3.3138103 0.39830172 32
3.1011457 -3.2966149 0.55572426 51
2.8380506 -3.0201037 0.65639907 9
2.7666583 -2.9472225 0.78575146 8
2.8766408 -3.0676 0.97088879 1
2.8892014 -3.0853081 1.1325922 52
1.6051546 -1.7231255 -0.63100088 12
1.7682892 -1.9002436 -0.59926963 11
1.9542251 -2.1022606 -0.55792552 9
2.1721869 -2.3391883 -0.50559622 7
2.4997747 -2.6957333 -0.45140409 8
2.9421701 -3.1761425 -0.37877885 12
3.1552396 -3.4097352 -0.2434669 28
2.9843476 -3.2295792 -0.076755688 22
3.0144422 -3.2371213 0.07720945 32
3.092057 -3.3239574 0.23791927 34
3.0184703 -3.249398 0.38801736 33
3.0084202 -3.2419813 0.54304987 22
5.676486 -6.1236124 1.3224971 5
2.9994118 -3.2402041 0.8582589 3
2.8763239 -3.1105003 0.97808719 30
2.8025908 -3.0339499 1.1067102 31
1.5894672 -1.729744 -0.62944794 12
1.7711275 -1.9294634 -0.6046685 11
1.939501 -2.1158524 -0.55792552 10
2.1744802 -2.3746922 -0.50997645 7
2.4934261 -2.7258687 -0.45359772 9
2.8989789 -3.1725621 -0.37598985 10
3.0196199 -3.3092251 -0.23477912 24
3.0121386 -3.3044994 -0.078047164 24
3.1162012 -3.393595 0.080420688 34
nan nan nan nan
3.6087303 -3.9382381 0.46732911 9
4.4946513 -4.911931 0.81749964 10
3.0240436 -3.30827 0.70989966 31
2.8793242 -3.1532621 0.83001924 23
2.8275061 -3.0997717 0.96863931 37
4.376256 -4.8043861 1.7413346 27
1.579947 -1.7436614 -0.63048321 12
1.7602297 -1.9446707 -0.60556829 12
1.9263709 -2.1304612 -0.55830717 9
2.1529691 -2.3835745 -0.50872493 7
2.4809833 -2.7505801 -0.45481643 9
2.8794272 -3.195684 -0.37633851 4
2.9876721 -3.3193107 -0.23404641 41
2.876708 -3.20052 -0.075115159 14
3.1212215 -3.4458513 0.081153691 6
3.0754147 -3.3988554 0.24022207 4
4.3011184 -4.7601414 0.56128299 8
2.6960871 -2.9869611 0.49405837 2
nan nan nan nan
2.8572402 -3.1732872 0.83001924 17
nan nan nan nan
2.8069754 -3.1240344 1.1253452 16
1.5731912 -1.7601367 -0.63255376 12
1.7482502 -1.9580605 -0.60601819 11
1.9166768 -2.1497195 -0.55983365 10
2.1362767 -2.3985467 -0.50872493 8
2.4674811 -2.7733362 -0.45579138 9
2.798821 -3.1501725 -0.36866876 18
2.9551458 -3.3296311 -0.23331371 37
2.8575091 -3.2230191 -0.075184964 27
3.0224924 -3.3840382 0.079199016 28
2.9186437 -3.2712131 0.22975488 56
2.8170226 -3.1606455 0.37041187 48
nan nan nan nan
2.8665774 -3.2241671 0.6833058 42
2.8212333 -3.1765144 0.82582134 46
2.7826579 -3.1374905 0.96818942 36
2.7146375 -3.0640261 1.0968752 37
1.573638 -1.7855701 -0.63773018 11
1.7319621 -1.9672924 -0.60511833 7
1.9029183 -2.1645224 -0.56021523 10
2.1220865 -2.4163706 -0.50935066 7
2.449369 -2.7919867 -0.45603511 11
2.7465641 -3.1351662 -0.36465961 35
3.1107111 -3.5545876 -0.24754909 14
2.7520227 -3.148042 -0.072985962 46
2.8560574 -3.2429824 0.075429298 32
2.8851812 -3.2795126 0.22891749 45
2.8764334 -3.2730229 0.38121921 45
2.825649 -3.2197671 0.5259881 35
2.8192573 -3.2158785 0.67736137 13
2.6722319 -3.0513911 0.78842276 22
2.8722937 -3.2844632 1.0073309 28
2.5050769 -2.8675797 1.0202647 30
1.5649356 -1.800887 -0.63928306 8
1.7258507 -1.9881655 -0.60781777 13
1.8851891 -2.1747873 -0.559452 9
2.1090448 -2.4356067 -0.51028925 6
2.4285188 -2.8075173 -0.45579138 8
2.7486081 -3.1809244 -0.36779723 31
2.8300817 -3.2798383 -0.22703341 22
2.7221451 -3.1580896 -0.072776534 19
2.84777 -3.2794511 0.075813256 40
2.7588255 -3.1803858 0.22064841 45
2.7569611 -3.1816008 0.36832017 28
2.6810024 -3.0983102 0.50307667 11
2.6417222 -3.0561483 0.63981706 42
2.5956917 -3.0060766 0.77201319 22
2.6347625 -3.0545561 0.93129748 15
2.5076909 -2.9113455 1.0295821 36
1.5435265 -1.8014994 -0.63565958 7
1.7195317 -2.0090489 -0.6105172 14
1.8754455 -2.1935377 -0.56097847 9
2.1078124 -2.467931 -0.51404375 7
2.4127245 -2.8289337 -0.45652261 11
2.7508843 -3.2288513 -0.37110916 16
2.7934518 -3.2822945 -0.22588199 33
2.6831968 -3.1572082 -0.072322771 36
2.7473323 -3.2076328 0.073718965 21
2.9214916 -3.4145889 0.23551181 21
2.7320938 -3.1977406 0.36797154 7
2.6650054 -3.1225271 0.50405163 15
2.5836921 -3.0304658 0.6307438 6
2.5695512 -3.0181453 0.77048677 22
2.5199482 -2.9630241 0.89800465 24
2.804265 -3.3008318 1.1605446 8
1.5312283 -1.811964 -0.63565958 8
1.710845 -2.0266631 -0.61231679 12
1.8613516 -2.2080784 -0.56136012 9
2.0905318 -2.4825861 -0.51404375 5
2.4113023 -2.8665586 -0.45993495 9
2.6014092 -3.0969439 -0.35385233 26
2.7062788 -3.2252173 -0.22064841 36
2.5845695 -3.0834472 -0.070228487 34
2.731323 -3.2343738 0.073893487 15
2.6928201 -3.1921685 0.21886899 17
2.6614776 -3.1583676 0.36134771 8
nan nan nan nan
2.4137578 -2.8715115 0.59413815 8
2.4466875 -2.9137821 0.73957568 31
2.5668151 -3.0611806 0.92229944 9
3.3616967 -4.0134215 1.4027992 19
1.5259607 -1.8315151 -0.63876545 10
1.6966544 -2.0385575 -0.61231679 12
1.8559299 -2.2330983 -0.56441307 10
2.0706255 -2.4940803 -0.51341796 6
2.4115069 -2.9077706 -0.46383476 9
2.6305573 -3.1764097 -0.36082479 28
2.6467767 -3.1994028 -0.21761292 35
2.5540631 -3.0906253 -0.069984153 39
nan nan nan nan
2.8058445 -3.373661 0.22996421 26
2.6100793 -3.1416237 0.35733855 22
3.3182628 -3.9997063 0.6381079 11
2.4579368 -2.9658616 0.61009449 1
nan nan nan nan
3.6529331 -4.418777 1.3236121 7
nan nan nan nan
1.5094587 -1.8376451 -0.63721251 8
1.6799093 -2.0473394 -0.611417 12
1.8378063 -2.2429631 -0.56364983 11
2.0556655 -2.5115328 -0.51404375 6
2.3918941 -2.9264891 -0.46407849 9
2.5919368 -3.1746335 -0.35855874 38
2.7228377 -3.3385289 -0.22577733 52
2.6480582 -3.2514722 -0.07319539 21
2.5336504 -3.0867128 0.069704913 28
2.6365907 -3.215555 0.21792693 5
2.5855582 -3.1566858 0.35698992 10
4.2165084 -5.1552362 0.81774336 12
2.379679 -2.9125817 0.59570253 55
2.421386 -2.9678545 0.74453676 24
2.6284702 -3.2251208 0.96054101 4
nan nan nan nan
1.5072097 -1.8619132 -0.64187121 7
1.6652161 -2.0593083 -0.611417 12
1.8282709 -2.2633748 -0.5655579 10
2.0450821 -2.5354033 -0.51592094 10
2.3664231 -2.9369333 -0.46310353 8
2.6096871 -3.2423179 -0.36413667 24
2.6388202 -3.2832034 -0.2207531 35
2.6503329 -3.3010657 -0.073893487 40
2.4982026 -3.0872259 0.069320954 28
2.4992819 -3.092973 0.2084018 1
2.4677958 -3.0572805 0.34374225 4
2.3637102 -2.9314711 0.46237233 20
2.369926 -2.9433832 0.59851831 4
2.3218586 -2.8867779 0.72011316 6
3.3687398 -4.1928635 1.24173 33
4.2965317 -5.3552814 1.8396858 22
1.4773046 -1.8512503 -0.6346243 4
1.662946 -2.0861218 -0.61591601 11
1.8120278 -2.2763999 -0.5655579 12
2.0334792 -2.5573494 -0.51748526 7
2.3322809 -2.9362838 -0.4604224 11
2.5622199 -3.2292423 -0.36065045 36
2.618315 -3.3046761 -0.22096242 35
2.583787 -3.2646072 -0.072671816 25
2.4735534 -3.1018965 0.06925115 19
2.4353182 -3.0572309 0.20484295 11
nan nan nan nan
2.3784857 -2.9933822 0.46944076 29
2.3345828 -2.9412897 0.59476393 19
3.2762206 -4.1320796 1.025026 9
3.4156115 -4.3125205 1.2700738 28
4.0637045 -5.1381631 1.7553109 6
1.4715112 -1.8706287 -0.63773018 7
1.654362 -2.1053417 -0.61816555 10
1.7928545 -2.2840481 -0.56441307 11
2.0209005 -2.5773499 -0.51873678 7
2.3349769 -2.9821918 -0.46505347 8
2.5531156 -3.2643142 -0.3625679 31
2.6191237 -3.3523252 -0.2229512 26
2.5879939 -3.3172519 -0.073439725 31
2.4857564 -3.161103 0.070193581 23
2.3959458 -3.0501771 0.20327288 23
2.3830607 -3.0381377 0.33781564 28
2.3800936 -3.0376287 0.47382805 30
2.3242483 -2.9695566 0.59726685 16
2.7794225 -3.5562184 0.87733978 20
3.3830225 -4.3331885 1.2691739 28
2.4960673 -3.2005734 1.0875577 1
1.4729527 -1.8989191 -0.64394182 19
1.6352189 -2.1103919 -0.61636597 10
1.7684555 -2.2856398 -0.56174171 12
1.9956101 -2.5820177 -0.51685953 7
2.3243287 -3.0105863 -0.46700338 6
2.5326972 -3.2852142 -0.3629165 28
2.5822515 -3.3531218 -0.22179982 42
2.6238794 -3.4108698 -0.075115159 45
2.4232001 -3.1262231 0.069041722 30
2.5885754 -3.3431919 0.22159046 49
2.3635445 -3.0558641 0.33798996 27
2.3272808 -3.0133228 0.46749085 10
nan nan nan nan
2.7359769 -3.550174 0.87123388 30
2.2687995 -2.9482243 0.85886317 2
2.7597642 -3.5901031 1.2133437 16
1.4643533 -1.9152945 -0.64601237 23
1.6228113 -2.1248538 -0.61726576 10
1.7334074 -2.2729526 -0.55563581 7
1.7536862 -2.302042 -0.45835301 2
2.2972436 -3.0188413 -0.46578467 4
2.5241659 -3.3218527 -0.36500823 31
2.5297985 -3.3328862 -0.21928766 36
2.57584 -3.3972356 -0.074417062 28
2.6198382 -3.4290862 0.07532458 50
2.5603261 -3.354831 0.22117178 9
2.524549 -3.3115458 0.36431101 41
2.3097947 -3.0342352 0.46822205 20
nan nan nan nan
2.1838634 -2.8750494 0.70179552 3
2.672121 -3.5229425 1.0208279 33
2.1396408 -2.8239865 0.94934833 35
1.4637353 -1.9424424 -0.6517064 27
1.6091095 -2.1376882 -0.6177156 10
1.7210357 -2.2897065 -0.5567807 9
1.7067349 -2.2731574 -0.45021844 4
1.7198884 -2.2931755 -0.35195872 2
2.4519465 -3.2740088 -0.35786149 24
2.6344848 -3.5215881 -0.23048759 15
2.5544541 -3.418339 -0.074486867 18
2.6042554 -3.4584746 0.075568922 37
2.447999 -3.2545097 0.21342604 28
2.5336831 -3.3720968 0.36901742 40
2.2444758 -2.9915354 0.45920372 13
2.3136747 -3.0871322 0.61103308 30
2.2072723 -2.9483755 0.71591538 43
2.1480727 -2.8734784 0.82826984 19
2.6319261 -3.5245764 1.1786621 39
1.4524426 -1.9557155 -0.65274167 27
1.5987906 -2.1551301 -0.61951524 10
1.7096833 -2.3079758 -0.55830717 10
1.7013987 -2.2993083 -0.45303425 6
1.6920376 -2.2891631 -0.34952128 3
1.6836382 -2.2811296 -0.24804525 3
2.5458338 -3.4530849 -0.22483528 20
2.5495009 -3.4618518 -0.075045347 9
2.6348662 -3.5504386 0.077174544 11
2.4085672 -3.249058 0.21196064 30
nan nan nan nan
2.4690223 -3.3391292 0.50990134 35
2.33549 -3.1620004 0.62260926 28
2.1738138 -2.9463356 0.71171761 29
2.1464536 -2.9135077 0.83546829 34
3.0229056 -4.1076694 1.3665646 25
1.4329323 -1.9557043 -0.64963585 30
1.5882932 -2.1701274 -0.62086499 9
1.6866347 -2.307873 -0.55563581 7
1.6830209 -2.3054612 -0.45209566 4
1.69085 -2.3195846 -0.35244617 7
1.6618357 -2.2822905 -0.24699937 3
1.6631252 -2.2874157 -0.14821544 6
2.5311852 -3.4851561 -0.075184964 1
2.2409511 -3.06075 0.066214427 14
2.5431676 -3.4773438 0.22577733 15
3.1502616 -4.3137574 0.46732911 12
2.6790464 -3.6725426 0.55816168 46
2.2242823 -3.05249 0.59820545 9
2.15538 -2.9622753 0.71209919 28
2.194046 -3.0187371 0.86156261 16
2.1037254 -2.89872 0.95970106 11
1.4245539 -1.9737402 -0.65222406 49
1.5476511 -2.1466606 -0.6109671 9
1.6643417 -2.3119164 -0.55372775 9
1.6641741 -2.3142381 -0.45146993 4
1.6718928 -2.3283997 -0.35195872 3
1.6547514 -2.307076 -0.24839386 5
1.6467143 -2.2992582 -0.14821544 5
1.6265746 -2.2736516 -0.048796929 7
2.3394744 -3.2437611 0.069809623 21
2.4902003 -3.4565609 0.22326522 39
2.2850914 -3.1765299 0.34234774 12
2.7337844 -3.8044639 0.57522333 11
nan nan nan nan
2.1204035 -2.9584742 0.70751977 5
2.12134 -2.9630566 0.841317 33
3.2884209 -4.599999 1.5151267 4
1.420468 -1.998054 -0.65688276 31
1.5254806 -2.1481473 -0.60826772 9
1.6931794 -2.3878264 -0.56899244 15
1.6452876 -2.3228631 -0.4508442 5
1.6418384 -2.3205686 -0.34903383 3
1.6386046 -2.318572 -0.24839386 3
1.6260161 -2.3041708 -0.14779675 5
1.6198788 -2.298027 -0.049076166 7
1.609761 -2.2659914 0.048517693 6
nan nan nan nan
2.25249 -3.1777759 0.34077895 29
2.1576967 -3.0474238 0.45847249 12
nan nan nan nan
2.3737686 -3.3612938 0.79987139 10
2.073643 -2.9395761 0.83051932 19
2.0274398 -2.8772764 0.94313669 18
1.4112692 -2.0140047 -0.65895331 46
1.5197631 -2.171253 -0.61186689 11
1.6746376 -2.3960779 -0.5682292 24
1.9008231 -2.7227399 -0.52593273 11
1.6282758 -2.3349469 -0.34952128 6
1.6159519 -2.3198626 -0.24734798 3
1.6125754 -2.3184645 -0.1480061 5
1.611045 -2.3188536 -0.049285594 8
1.5920057 -2.2736199 0.048447877 5
1.5797192 -2.2585888 0.14444725 3
nan nan nan nan
2.053972 -2.9432051 0.44067958 25
2.6009052 -3.7324734 0.72053725 66
nan nan nan nan
nan nan nan nan
5.3919892 -7.7638359 2.5328033 12
1.3865496 -2.007668 -0.65377688 32
1.5115882 -2.1911719 -0.61456633 10
1.6594031 -2.4090378 -0.56861085 25
1.8968023 -2.7567711 -0.53000003 8
2.1964586 -3.197062 -0.47626543 16
1.6064813 -2.3409441 -0.24839386 3
1.5963503 -2.3296661 -0.1480061 5
1.5733571 -2.2986908 -0.048622403 5
1.5946656 -2.3107367 0.049006358 7
1.5677096 -2.2742221 0.14476126 4
1.5690809 -2.2796159 0.24211864 7
nan nan nan nan
nan nan nan nan
nan nan nan nan
nan nan nan nan
5.3657408 -7.8452749 2.5467794 37
1.3797528 -2.0287209 -0.65740043 29
1.4980602 -2.2051563 -0.61546612 10
1.6553472 -2.4403474 -0.57319027 8
1.8681626 -2.7571909 -0.52749711 9
2.1946595 -3.2439365 -0.48089647 16
2.2924986 -3.392379 -0.35821009 50
1.5785218 -2.3393738 -0.14790143 2
1.5535152 -2.3049159 -0.048517693 7
1.5735937 -2.3154728 0.048866738 6
1.563735 -2.3035595 0.14591266 6
1.5538464 -2.2924349 0.24229297 6
1.5402817 -2.2749863 0.33733436 8
1.5437303 -2.2826536 0.43645221 5
nan nan nan nan
2.2851465 -3.3878689 0.94344479 25
nan nan nan nan
1.37165 -2.048173 -0.66050619 28
1.4800751 -2.2125802 -0.61456633 12
1.6432942 -2.4602931 -0.57509834 10
1.8571556 -2.7836344 -0.53000003 8
2.1829674 -3.2756979 -0.48333386 12
2.3189363 -3.4849987 -0.36622843 18
2.3758411 -3.5745749 -0.22493997 35
2.9188213 -4.3965077 -0.0921138 10
1.5391905 -2.3000834 0.048308261 6
1.5405518 -2.3047276 0.14528462 3
1.549974 -2.3214536 0.24421038 8
1.5305697 -2.2958603 0.33879682 8
1.5273565 -2.2936418 0.43645221 6
1.5102659 -2.2705526 0.53006744 8
nan nan nan nan
nan nan nan nan
1.364764 -2.0689874 -0.66412973 29
1.4688811 -2.2293682 -0.61636597 9
1.6379476 -2.489747 -0.57929617 11
1.8463553 -2.8097384 -0.53250295 9
2.1774745 -3.3174107 -0.48723367 9
2.3436959 -3.5760913 -0.37407246 69
2.4383419 -3.7247574 -0.23331371 35
2.5827267 -3.9498281 -0.082375363 1
1.528598 -2.3191214 0.048482787 6
1.5189327 -2.3070853 0.14476126 5
1.532635 -2.3305533 0.24403608 6
1.5166835 -2.3098083 0.33928427 8
1.5210571 -2.3191147 0.43926802 7
1.5051364 -2.2974632 0.53388357 4
1.4881498 -2.2749975 0.62761348 6
nan nan nan nan
1.360811 -2.0946646 -0.6693061 7
1.4585856 -2.2477422 -0.61861545 7
1.6173235 -2.4961784 -0.57815129 11
1.8363543 -2.8374853 -0.53531879 6
2.162883 -3.3458683 -0.4891836 12
2.3219144 -3.5973878 -0.37459537 48
2.5681193 -3.9834137 -0.24838647 26
2.72615 -4.2334008 -0.08789032 7
2.3409622 -3.606143 0.075045347 18
1.5049627 -2.3209848 0.14497061 4
1.5044131 -2.3228011 0.24211864 7
1.4865075 -2.2986705 0.33611569 6
1.5037581 -2.328018 0.43895519 5
1.4975758 -2.3211126 0.53693652 7
1.4669541 -2.2771399 0.62536401 5
1.4582858 -2.2662892 0.72210521 9
1.3419899 -2.0976045 -0.66723549 22
1.4554502 -2.277575 -0.62401426 7
1.6030256 -2.5123737 -0.57929617 10
1.8260553 -2.8652284 -0.53813463 8
2.140538 -3.362561 -0.48942733 13
2.3149123 -3.6420953 -0.37755868 26
2.3047421 -3.6302912 -0.22535865 20
2.4919865 -3.9297743 -0.081223503 38
2.3049586 -3.6055496 0.074696302 15
2.5797358 -4.0400314 0.25121263 48
1.4881606 -2.3332469 0.24211864 1
1.4725562 -2.312341 0.33660313 9
1.4768666 -2.3217916 0.43582645 6
1.4834404 -2.3348248 0.53769976 4
1.4645917 -2.308718 0.63121271 9
1.4413944 -2.2747831 0.72158754 6
1.3221647 -2.0987494 -0.66464734 22
1.4478173 -2.3008754 -0.62761348 7
1.5917133 -2.5334778 -0.58158582 11
1.8039076 -2.8745606 -0.5375089 8
2.1201739 -3.3824685 -0.49015856 13
2.2805526 -3.6425688 -0.37598985 36
2.287811 -3.6598413 -0.22619602 41
2.5322726 -4.0556326 -0.083457403 31
2.2083566 -3.5081682 0.072357684 30
nan nan nan nan
2.0398004 -3.2479413 0.33554959 43
2.2072399 -3.5200062 0.51014513 27
1.4585247 -2.3286972 0.43520072 6
1.4587746 -2.331809 0.53464681 5
1.4478104 -2.3169808 0.63076282 6
1.4336593 -2.2979023 0.72572863 9
1.3054439 -2.1046453 -0.66361207 13
1.425561 -2.3009875 -0.62491405 13
1.5806307 -2.5542705 -0.58387554 10
1.7905313 -2.8968546 -0.53938609 9
2.1079757 -3.4157701 -0.49283966 15
2.2958403 -3.7245479 -0.382788 22
2.280648 -3.7042422 -0.22797546 26
2.5562584 -4.158391 -0.085202649 39
2.1854804 -3.5248177 0.072392583 36
2.3776186 -3.8391931 0.23666322 4
2.0223148 -3.2705755 0.33642116 50
2.0027707 -3.2427621 0.46797833 39
2.1530702 -3.4902043 0.64951599 28
1.4311345 -2.3235488 0.53044903 7
1.4264942 -2.318733 0.62851328 6
1.4068593 -2.2895026 0.7200346 5
1.3031732 -2.1332653 -0.66982371 23
1.4139258 -2.3172915 -0.62671363 11
1.567867 -2.5736263 -0.58578366 11
1.7671832 -2.9042215 -0.5384475 6
2.0496228 -3.3723629 -0.48455253 12
2.2377405 -3.6876826 -0.37738436 42
2.390347 -3.9438243 -0.24168746 14
2.5413573 -4.1979327 -0.085656419 18
2.1597774 -3.5382831 0.072357684 41
2.1781685 -3.5726171 0.21928766 35
nan nan nan nan
2.0398986 -3.3550434 0.48211515 28
2.1235251 -3.4967079 0.6479516 39
2.7185695 -4.4818277 1.0189201 19
1.4062335 -2.3219676 0.62671363 3
1.3858422 -2.2910035 0.71744639 6
1.2982038 -2.1588666 -0.67500007 23
1.4077476 -2.343812 -0.63121271 7
1.5448135 -2.5760906 -0.58387554 10
1.7529554 -2.9266558 -0.54032475 6
2.036221 -3.4036248 -0.48698995 12
2.2528088 -3.7716343 -0.38435683 18
2.1744721 -3.6448178 -0.22242783 42
2.6645088 -4.4715295 -0.09085723 24
2.1319332 -3.5481327 0.072252966 37
2.7133074 -4.5210624 0.27633387 35
nan nan nan nan
1.9501635 -3.2584858 0.46627215 37
nan nan nan nan
nan nan nan nan
2.7909548 -4.681869 1.2583762 1
2.889853 -4.85355 1.5135738 1
1.2811328 -2.1645525 -0.6739648 23
1.3943254 -2.3586154 -0.6325624 19
1.5297852 -2.5918844 -0.58502042 11
1.7374966 -2.9473307 -0.54188907 8
2.0537052 -3.4878912 -0.4969832 4
2.1816335 -3.7095976 -0.3765128 28
2.2723503 -3.8700318 -0.23519783 35
2.4025795 -4.096735 -0.08289893 42
2.2139935 -3.7436578 0.075917974 20
nan nan nan nan
2.3730948 -4.0222912 0.40858611 16
1.8790072 -3.1899211 0.45457271 27
1.9032079 -3.2348771 0.59445107 38
1.8092774 -3.078912 0.6941632 11
2.0379472 -3.4722083 0.92949778 1
1.96514 -3.3535213 1.0414879 45
1.2640455 -2.1701047 -0.67292953 15
1.3827254 -2.376714 -0.63481188 12
1.5239439 -2.6226072 -0.58959985 11
1.7114456 -2.9488382 -0.54001182 16
2.016367 -3.4798157 -0.49381462 25
2.1716506 -3.7523289 -0.37930179 50
2.2579498 -3.9061589 -0.23645388 38
2.3229437 -4.0250788 -0.081118785 22
2.3323448 -4.0057607 0.080909356 6
2.0814137 -3.5790997 0.21698491 46
2.3389537 -4.0284219 0.40754023 18
1.8602382 -3.2077889 0.45530388 34
1.8019384 -3.1110091 0.56942153 3
2.0118206 -3.4789636 0.7811721 26
1.7163846 -2.9716668 0.79227763 24
3.0466185 -5.2811551 1.6336659 3
1.2521279 -2.1836865 -0.67448246 13
1.3597364 -2.3742332 -0.63166261 9
1.506572 -2.6348867 -0.58998144 12
1.7055112 -2.986445 -0.54470485 26
2.0093544 -3.5227728 -0.49795815 18
2.1519768 -3.7774105 -0.38034767 38
2.2701223 -3.9912705 -0.24064074 26
2.5355115 -4.4633074 -0.08960066 16
2.33514 -4.0757341 0.081991412 1
2.0930796 -3.6576822 0.22085775 33
2.305547 -4.0338707 0.40649435 27
1.8889579 -3.3103526 0.46797833 32
1.8085411 -3.1732838 0.57849473 20
1.9473017 -3.4209166 0.76514411 17
1.6855227 -2.9646466 0.78732878 11
1.8624513 -3.2811732 1.0109472 1
1.2444463 -2.2058351 -0.67862362 16
1.3479112 -2.3921571 -0.63391209 6
1.4876393 -2.6433694 -0.58959985 12
1.6754645 -2.9807649 -0.54157621 23
2.0089991 -3.5799935 -0.50405163 9
2.2112768 -3.9452875 -0.39568707 17
2.2350979 -3.9926882 -0.23980337 32
2.5101435 -4.4913731 -0.089810088 30
1.9723902 -3.4975739 0.070088863 1
2.0161858 -3.5796137 0.21531016 34
nan nan nan nan
1.9285939 -3.4339049 0.48357758 13
1.7782018 -3.1700146 0.57567888 66
1.7612525 -3.1449425 0.70065069 33
1.9225887 -3.4372489 0.90925223 43
1.9314653 -3.4573672 1.0611582 50
1.2359673 -2.2260773 -0.68224704 22
1.3372679 -2.4115019 -0.63661152 7
1.4767561 -2.6674316 -0.5926528 11
1.6622612 -3.0062187 -0.54407912 15
1.9647698 -3.5591741 -0.49917686 15
2.101912 -3.8123229 -0.38087061 42
2.2360711 -4.0606804 -0.24294353 26
2.4739103 -4.5000257 -0.089635558 20
1.9779975 -3.5654659 0.071170911 8
nan nan nan nan
1.9583671 -3.5388122 0.35385233 37
1.8095375 -3.2752686 0.45944747 6
1.74553 -3.1633265 0.57223737 16
1.7070453 -3.0986958 0.68767565 20
2.571162 -4.6730614 1.2313823 14
1.9519398 -3.5520332 1.0860047 31
1.2172292 -2.2297778 -0.6806941 16
1.3181117 -2.4175878 -0.63571173 7
1.4534037 -2.669055 -0.59074467 11
