# .PCD v0.7 - Point Cloud Data file format
VERSION 0.7
FIELDS x y z intensity
SIZE 4 4 4 4
TYPE F F F F
COUNT 1 1 1 1
WIDTH 1434
HEIGHT 1
VIEWPOINT 0 0 0 1 0 0 0
POINTS 1434
DATA ascii
1.2768168 2.2734003 -0.60196906 31
1.3899568 2.4708099 -0.55105644 28
1.5568866 2.7641592 -0.50246757 21
1.8078209 3.2057514 -0.45189157 30
2.0812836 3.6846561 -0.37023759 16
2.4422538 4.3184276 -0.26000506 8
2.9302957 5.175065 -0.10380692 20
4.0723095 7.2538004 0.14520402 6
4.0408025 7.188859 0.43219036 2
5.8043461 10.313675 1.0354102 15
3.8348286 6.802947 0.95886809 10
5.307055 9.4031496 1.7101418 4
3.7127578 6.5703015 1.4669396 14
3.682179 6.5055881 1.7258246 17
5.2071142 9.1885719 2.8299277 34
1.204687 2.1128967 -0.6517064 48
1.2858943 2.2525842 -0.59881973 33
1.4227644 2.4883149 -0.55716228 23
1.59185 2.7806513 -0.50747347 25
1.8183131 3.1723845 -0.44896671 26
2.0990193 3.6562142 -0.36884311 20
2.447458 4.2579837 -0.25738826 19
2.9384224 5.1059542 -0.10282958 20
4.0841961 7.1574597 0.14384274 17
5.6939535 9.9663963 0.60154951 5
5.5517259 9.7056475 0.97823608 45
2.5845342 4.511024 0.63835168 1
3.9100058 6.816215 1.2445928 33
nan nan nan nan
3.7469444 6.513505 1.7348226 31
5.2721 9.1536694 2.8304453 14
1.220376 2.106107 -0.65222406 47
1.3182123 2.2722082 -0.60646808 28
1.4292525 2.4596486 -0.55296451 33
1.6161906 2.7780075 -0.50903779 15
1.8404161 3.1596129 -0.44896671 33
2.0943727 3.5898433 -0.36361378 26
2.464031 4.2183728 -0.25602752 14
2.9820757 5.099124 -0.10310882 24
4.1049728 7.0786052 0.14283049 26
4.1648469 7.1731954 0.43470252 8
5.4991913 9.4599524 0.9573186 5
2.5640221 4.4036665 0.62567729 15
3.8798954 6.6556411 1.220189 54
4.0861731 7.0010657 1.5757008 20
3.9526341 6.7614126 1.8081566 31
5.4363866 9.2883682 2.8837619 17
1.2340695 2.0958712 -0.6517064 39
1.34295 2.2780588 -0.6105172 24
1.4593647 2.4715884 -0.55792552 19
1.6003604 2.7071412 -0.49808741 21
1.8664724 3.1535215 -0.44994166 31
2.1132891 3.5648501 -0.3625679 20
2.4760909 4.1718698 -0.25424811 4
3.0124938 5.0695848 -0.10293429 22
4.1197729 6.991199 0.14164373 22
4.1508856 7.0355721 0.42810816 14
2.5626638 4.338408 0.44083372 12
2.5785303 4.3583231 0.62177742 13
5.4756308 9.2440577 1.7016943 13
4.0728612 6.8676734 1.5520406 10
3.964906 6.675014 1.7924101 48
3.8481002 6.4706502 2.0172358 11
1.2506549 2.0905201 -0.65274167 46
1.3387942 2.2351916 -0.60151911 10
1.4836539 2.473125 -0.56059688 32
1.6273574 2.7094498 -0.50059032 27
1.8546839 3.0842748 -0.44189829 17
2.1309278 3.5380638 -0.36134771 31
2.4896836 4.1288276 -0.25267801 8
3.0323081 5.0227532 -0.10241073 20
4.1160922 6.8747668 0.13986358 30
4.2420039 7.0766573 0.43239969 2
2.4698558 4.1154113 0.41991636 10
2.5465097 4.2364306 0.60690933 15
5.6317053 9.3579321 1.7298526 12
4.0052047 6.6473675 1.508536 28
3.9077013 6.4753194 1.7460703 40
5.5845208 9.2429771 2.8935969 4
1.2541811 2.0635791 -0.64704764 38
1.3503141 2.2191315 -0.59971952 28
1.4886229 2.4425893 -0.5560174 21
1.6482911 2.7013953 -0.50121611 26
1.8741014 3.0678635 -0.44141081 31
2.1524568 3.5180023 -0.36082479 26
2.4944522 4.0721736 -0.25027055 21
3.0432546 4.9622545 -0.10160792 22
4.1764569 6.866365 0.14028244 27
2.6427207 4.339685 0.26628536 17
2.3989589 3.9347579 0.40318248 20
2.5387802 4.1575594 0.59813482 15
6.1894145 10.123992 1.8794039 3
3.9572186 6.4651928 1.4734272 12
3.9334607 6.4163141 1.7375221 46
4.2412324 6.9102325 2.1725271 27
1.2655135 2.0498412 -0.64549476 26
1.385241 2.2411461 -0.60826772 32
1.4767033 2.3853981 -0.54533213 23
1.6619059 2.681428 -0.49965176 28
1.9122196 3.0816929 -0.44531062 26
2.1664476 3.4859672 -0.35908166 24
2.5059383 4.0275269 -0.2485958 16
3.0693648 4.927309 -0.10132867 18
4.2358537 6.8557544 0.1406664 17
2.4838288 4.015389 0.24744442 13
2.3403511 3.779017 0.38888893 22
2.5300748 4.0790043 0.58936024 11
4.2611794 6.8618793 1.2793212 29
nan nan nan nan
4.0111246 6.4416308 1.751919 17
4.281198 6.8673377 2.168386 12
1.2777406 2.0376825 -0.64445943 35
1.391528 2.2165663 -0.60421854 15
1.4839165 2.3600719 -0.54189759 18
1.67322 2.6580572 -0.49746165 30
1.9347458 3.0699472 -0.44555435 22
2.1864758 3.4640191 -0.3583844 24
2.5286584 4.0014935 -0.24807246 14
3.098346 4.8973098 -0.10115415 22
2.6583886 4.236196 0.08729694 7
2.4246724 3.8592751 0.23886132 13
2.3772831 3.7794526 0.39063203 23
2.6018722 4.1301041 0.59935349 23
4.2984419 6.8152547 1.2761924 31
3.9076912 6.188529 1.4226719 15
4.0622444 6.4233551 1.7546183 40
5.7344971 9.0570755 2.8723738 19
1.2929721 2.0303431 -0.64497709 33
1.3985866 2.1936529 -0.60061932 34
1.5183188 2.3777843 -0.54838508 19
1.683224 2.6329963 -0.4949587 20
1.9518505 3.0496778 -0.44457942 16
2.1906574 3.418859 -0.35524681 19
2.5414324 3.9602084 -0.24660707 14
3.1259725 4.8654671 -0.10094472 15
2.48155 3.8937564 0.08059521 12
2.4010642 3.763119 0.23394175 13
2.3499844 3.6788101 0.38191649 22
2.5728712 4.021544 0.58619159 25
5.9376755 9.2702293 1.7436188 4
4.2104392 6.5660005 1.5161684 76
4.115345 6.410316 1.7586675 19
6.0640116 9.4311819 3.0043716 5
1.308164 2.0228891 -0.64549476 35
1.4149262 2.1854713 -0.60106927 37
1.5483494 2.3888118 -0.5533461 25
1.7064826 2.6297643 -0.49652308 23
1.9471304 2.9960306 -0.43872967 16
2.211211 3.398473 -0.35472387 17
2.5334458 3.8892651 -0.24325755 14
2.655072 4.0697665 -0.084818691 1
2.5188584 3.8935647 0.080944255 12
2.386451 3.6846623 0.23006889 13
2.3354921 3.6004677 0.37546691 18
2.5201814 3.8807383 0.56815493 12
6.5487008 10.072563 1.9028691 39
nan nan nan nan
4.1174316 6.3161273 1.7406714 23
5.7659163 8.8347836 2.8268218 38
1.3250833 2.0187826 -0.64704764 40
1.4254887 2.169275 -0.59926963 28
1.5434039 2.3451443 -0.54571378 20
1.7487117 2.6540749 -0.50340617 17
1.962015 2.9744213 -0.43751097 16
2.2342939 3.3833418 -0.35472387 22
2.5418043 3.8431652 -0.24147813 12
2.5932872 3.916548 -0.081991412 17
2.5009663 3.8073592 0.079513162 12
2.441747 3.7129681 0.23289503 13
2.3643265 3.5911443 0.37616417 31
2.5537677 3.8729947 0.56961739 27
6.3141403 9.5650024 1.8152657 16
4.1241336 6.240346 1.4539646 12
4.189362 6.3318357 1.7528187 27
5.8253193 8.7910929 2.8257864 17
1.3295029 1.9950145 -0.64238888 30
1.4168047 2.1236069 -0.5893718 28
1.5560585 2.3296874 -0.5445689 30
1.7612456 2.6339009 -0.50184184 20
2.0092425 3.0002367 -0.44336072 15
2.2467647 3.3511126 -0.35298076 14
2.534514 3.7760231 -0.23833798 16
2.5257418 3.7572825 -0.079024501 17
2.3892796 3.58393 0.075184964 23
2.378264 3.5633628 0.22452128 15
2.3671956 3.5414221 0.37267792 25
2.5127265 3.7548854 0.55474925 23
4.0086555 5.9835367 1.1407202 14
4.2179127 6.2863975 1.471519 18
4.2204218 6.2830243 1.74742 51
6.2375388 9.2754498 2.995054 12
1.3325732 1.9696834 -0.63721251 36
1.4567306 2.150774 -0.59971952 23
1.5737916 2.3201175 -0.54495054 23
1.7567434 2.5869124 -0.49527156 22
2.0390666 2.9992707 -0.44531062 13
2.2684445 3.3316555 -0.35263211 14
2.5659695 3.7643909 -0.23875666 18
2.5552924 3.7445133 -0.079129212 8
2.4641936 3.6395993 0.076720782 12
2.3980987 3.5379868 0.22399792 28
2.360539 3.4786468 0.36779723 20
2.489321 3.6629267 0.5437811 18
4.061368 5.969399 1.1435361 3
4.1113887 6.0361218 1.4196191 22
4.2070713 6.1673403 1.723575 40
6.2841415 9.2018614 2.9857366 36
1.3462908 1.960333 -0.63721251 41
1.4606688 2.1244946 -0.59522051 38
1.5966312 2.3187757 -0.5472402 36
1.7590648 2.5518157 -0.49089143 28
2.0419157 2.9588211 -0.44141081 15
2.2848504 3.3059049 -0.35158628 8
2.5660477 3.7086108 -0.23634921 20
2.6690476 3.8531597 -0.081816882 3
2.4748182 3.6008835 0.076267019 15
2.381984 3.4619238 0.22022973 26
2.372333 3.4440348 0.36587983 21
2.5452688 3.689575 0.55036199 13
3.2498028 4.7055817 0.9057557 1
4.3599868 6.3060188 1.4902184 29
4.5639791 6.5912266 1.8508974 17
6.205153 8.9513664 2.9184437 38
1.363259 1.9556403 -0.63876545 31
1.4643136 2.098264 -0.59072149 38
1.597034 2.2850449 -0.54189759 33
1.784763 2.5508032 -0.49308151 27
2.0442986 2.9184804 -0.43751097 16
2.2804129 3.2507269 -0.34740278 9
2.5746584 3.6660893 -0.23477912 22
3.2640421 4.6425419 -0.099059857 8
2.5216348 3.6146789 0.076930203 12
2.3775048 3.4042735 0.21761292 34
2.3700612 3.389833 0.36187065 18
2.5265579 3.6082997 0.54085618 13
3.0217807 4.3107462 0.83379585 6
4.2313542 6.0295539 1.4318308 13
4.6087661 6.5576072 1.8504475 61
7.5592375 10.74374 3.5199392 21
1.3768787 1.9460752 -0.63876545 33
1.4834319 2.0943508 -0.59252113 33
1.6208997 2.285048 -0.5445689 27
1.8128222 2.5527754 -0.49589729 23
2.0427711 2.8733964 -0.43287995 19
2.3146074 3.2509577 -0.34914589 8
2.5793233 3.6187501 -0.23289503 20
2.6517339 3.7162232 -0.079687685 3
2.4751637 3.4958024 0.074766114 27
2.3815768 3.3598933 0.2158335 26
2.3809841 3.3553317 0.35995319 23
2.553987 3.5938091 0.54134369 17
3.0563822 4.2959828 0.8350473 15
4.5296092 6.3596663 1.5176948 14
4.5095811 6.3222013 1.79286 27
7.5543456 10.579085 3.4831867 20
1.3791627 1.9207239 -0.63358909 33
1.5025661 2.0902736 -0.59432071 34
1.6184605 2.248183 -0.538463 36
1.8178953 2.5224295 -0.49245578 27
2.0674274 2.8655045 -0.43385491 20
2.3069084 3.1927314 -0.34461379 13
2.6162298 3.616838 -0.23394175 22
2.7374289 3.7802212 -0.081467837 10
2.4645014 3.4297192 0.073718965 23
2.3781497 3.3058941 0.21342604 27
2.3705845 3.2917409 0.35489815 18
2.6057217 3.6129222 0.54694968 13
3.0747361 4.2585258 0.8319186 13
4.545146 6.2881112 1.5081544 9
4.6530223 6.4278998 1.8320014 17
6.328908 8.7334156 2.8899736 38
1.3879874 1.9048032 -0.63151848 47
1.5228646 2.0876048 -0.59657025 31
1.6491719 2.2574379 -0.54342401 27
1.8307962 2.5032985 -0.49120426 27
2.0721369 2.8301792 -0.4306863 16
2.3126478 3.1540537 -0.34217343 16
2.6674168 3.6339061 -0.23624454 16
2.8797977 3.9189363 -0.08488851 11
2.5308027 3.4705954 0.074975535 7
2.3988178 3.285984 0.21321672 31
2.4040897 3.2895877 0.35646698 32
2.554673 3.4905212 0.53110665 27
2.9105837 3.9724462 0.77998233 13
4.6051874 6.2783914 1.513497 41
7.6558189 10.422135 2.9855504 18
nan nan nan nan
1.3955088 1.8873001 -0.62893027 22
1.5188507 2.051861 -0.5893718 31
1.6719056 2.2553334 -0.54571378 23
1.8341005 2.4714217 -0.48744985 21
2.0764537 2.7949302 -0.42751768 13
2.3376288 3.1430361 -0.34269637 17
2.6509643 3.5591333 -0.23258102 39
2.914259 3.9083545 -0.085097939 18
2.5062022 3.3869364 0.073544443 26
2.3955448 3.233849 0.21091393 12
2.3937666 3.2279141 0.35158628 30
2.6215892 3.5299718 0.53988123 16
2.8663533 3.8553283 0.76089734 16
4.736824 6.3642044 1.5421184 15
4.9752402 6.677228 1.9224318 6
3.5607369 4.7718835 1.5953608 14
1.3738701 1.8311529 -0.61340117 54
1.5354801 2.0443232 -0.59027159 31
1.6860396 2.2423308 -0.54533213 45
1.8449415 2.4509883 -0.4858855 32
2.0995002 2.785121 -0.42824891 19
2.3367116 3.0964231 -0.33938447 16
2.6438272 3.4995725 -0.22985955 16
2.5915833 3.4254477 -0.074975535 16
2.4199622 3.2242603 0.070368104 13
2.4115009 3.2094853 0.21039055 24
2.409054 3.2015724 0.3505404 20
2.5822523 3.4280112 0.52696311 13
2.8770657 3.8152263 0.75683004 9
4.9006381 6.4892154 1.5806618 47
4.6750431 6.1837568 1.7897106 12
nan nan nan nan
1.3886412 1.8248341 -0.61443645 37
1.5517206 2.0369251 -0.59117138 22
1.6921256 2.2180192 -0.54227924 42
1.8380272 2.4066515 -0.47962815 23
2.0967066 2.7423799 -0.42386162 19
2.3456244 3.0646241 -0.33764133 13
2.6536138 3.4620078 -0.22860347 22
2.5089333 3.2697046 -0.07193882 15
2.4339311 3.1961522 0.070123769 31
2.3757286 3.1163306 0.20536631 15
2.4501324 3.2104406 0.35332939 20
2.5277689 3.3073823 0.51112008 25
2.9348397 3.8358376 0.76496464 10
4.7775617 6.2375064 1.5272354 12
nan nan nan nan
7.3159189 9.5274115 3.2186739 2
1.404888 1.8196832 -0.61598933 26
1.5611365 2.019875 -0.5893718 32
1.6867602 2.1800532 -0.5357917 22
1.8918649 2.4424973 -0.48932707 25
2.123101 2.7370865 -0.42532405 22
2.3510768 3.0277166 -0.33537531 14
2.6991801 3.4722497 -0.23048759 7
2.749121 3.5314033 -0.078116976 9
2.4898567 3.2238235 0.071101107 25
2.4604106 3.1822517 0.21080926 16
2.4212537 3.1270933 0.3460083 20
2.5246844 3.2571516 0.50600159 27
2.9548264 3.8079684 0.76340026 28
4.81738 6.199347 1.5260904 27
nan nan nan nan
7.2559738 9.3173494 3.1643219 1
1.4267704 1.8222463 -0.62013048 31
1.5796578 2.0153368 -0.59117138 36
1.7189097 2.1898446 -0.54113436 28
1.8893423 2.4043784 -0.48432118 22
2.1343186 2.7132103 -0.42386162 22
2.353663 2.9877527 -0.3327606 29
2.7159348 3.4439118 -0.22985955 18
2.5277541 3.2018423 -0.071205825 18
2.4987357 3.1890478 0.070717148 13
2.4160032 3.0801361 0.20515697 11
2.3908031 3.0447247 0.33868721 20
2.5915358 3.2956219 0.51477611 17
2.9850047 3.7919035 0.76433885 25
5.0879149 6.4563088 1.5978346 11
7.3763218 9.3467541 2.7489021 2
7.244194 9.1694546 3.1311929 1
1.4454648 1.8198047 -0.62271863 41
1.5876248 1.9966329 -0.5889219 38
1.7427164 2.1885417 -0.54380566 37
1.8802243 2.3586919 -0.47775093 18
2.1470175 2.6904857 -0.42264292 23
2.38939 2.9899259 -0.33485237 19
2.6962426 3.370281 -0.22619602 20
2.872551 3.5868139 -0.080211259 14
2.4935627 3.1370876 0.069949247 20
2.4461515 3.0741355 0.20588967 8
2.3846893 2.9936762 0.33485237 10
2.574867 3.2277908 0.50697654 21
2.9966125 3.752449 0.76058447 15
nan nan nan nan
7.3488345 9.1794128 2.7147095 2
7.2826619 9.0870008 3.1203225 5
1.4581335 1.8096696 -0.62271863 46
1.595407 1.9779173 -0.58667237 27
1.750551 2.1671586 -0.54151595 42
1.9040978 2.3547242 -0.47962815 23
2.1595035 2.6677165 -0.42142424 22
2.3913856 2.9499559 -0.33223769 19
2.7096376 3.338969 -0.22535865 28
2.8344774 3.4890685 -0.078466021 6
2.4940662 3.093138 0.069355868 14
2.6055472 3.227937 0.21740359 12
2.490684 3.0823326 0.34670553 10
2.593591 3.2051084 0.50624532 18
2.9804587 3.6792505 0.74994689 12
5.1058393 6.2962003 1.5757008 18
3.5884342 4.4187193 1.3141642 10
7.364203 9.0584211 3.128087 11
1.473177 1.8024375 -0.62375391 35
1.6091765 1.9667311 -0.58667237 41
1.7668812 2.156404 -0.54189759 46
1.921742 2.3429019 -0.47994098 27
2.1490998 2.6172905 -0.41581824 16
2.4043293 2.9239554 -0.33119181 11
2.7239966 3.3091767 -0.22462595 16
2.8218875 3.4244413 -0.077453777 17
2.4662242 3.0152829 0.067994572 15
2.4293675 2.9670498 0.20097008 26
2.505827 3.0571649 0.34583399 16
2.5907159 3.1562345 0.50137055 23
2.9546559 3.595777 0.73711932 16
5.2694044 6.4059548 1.6123362 10
7.4490209 9.0428238 2.7048116 34
7.4235716 9.0023212 3.1265342 31
1.4795605 1.7846721 -0.62116575 45
1.6241132 1.9569479 -0.58712232 38
1.7718538 2.1319373 -0.53884465 40
1.9292079 2.3187988 -0.47775093 23
2.1711309 2.6067991 -0.41654944 12
2.404264 2.8826191 -0.32840282 17
2.7636724 3.3100109 -0.22598669 15
2.7418468 3.2803786 -0.07462649 15
2.5970187 3.1303484 0.070996389 12
2.427052 2.9223621 0.199086 12
2.5525825 3.0702386 0.34932023 12
2.6406305 3.171633 0.50673276 27
3.0049813 3.6054103 0.74337667 18
7.5704026 9.073391 2.2969587 38
3.7509894 4.4893165 1.3506062 13
7.406918 8.8554335 3.0934055 28
1.4944695 1.7772571 -0.62220097 24
1.6264399 1.9321448 -0.58307314 29
1.7841647 2.1165125 -0.53808141 37
1.9542681 2.3158405 -0.47994098 20
2.196964 2.6006758 -0.41801187 13
2.4191825 2.8596797 -0.32770559 14
2.7428274 3.2388148 -0.22242783 19
2.6948533 3.1787894 -0.072741628 24
2.4990699 2.9698458 0.067750245 23
2.4705563 2.9328423 0.20097008 18
2.5084496 2.974664 0.34043032 10
2.6742337 3.1667719 0.50892639 17
3.0211501 3.5737858 0.74118662 13
7.6348276 9.021822 2.2973404 40
7.6778698 9.0598421 2.7417037 42
7.3873258 8.7077541 3.0597589 18
1.5118552 1.77266 -0.62427157 18
1.6373585 1.9177788 -0.58217335 36
1.7899656 2.0935607 -0.53541011 27
1.9395597 2.266124 -0.47243217 36
2.2189405 2.5897982 -0.4187431 8
2.4204319 2.8219738 -0.32526523 15
2.7471545 3.1983747 -0.22096242 19
2.5579259 2.9749126 -0.068483248 17
2.4587286 2.8808379 0.066109717 24
2.4429681 2.8593385 0.19709724 15
2.5615306 2.9949322 0.3447881 7
2.6924028 3.143502 0.50819516 18
3.0884573 3.6020944 0.75151128 15
7.7142482 8.9876671 2.3023016 27
3.6512389 4.2494583 1.2934687 17
7.3912373 8.5900717 3.0364652 39
1.5178746 1.7547566 -0.62168342 12
1.6481559 1.9033549 -0.58127356 29
1.8054605 2.0828116 -0.5357917 28
1.9588237 2.2573452 -0.47337076 45
2.2122271 2.5457745 -0.41411206 11
2.436151 2.8004975 -0.32474229 15
2.7675486 3.1780968 -0.22085775 17
2.6206894 3.0052104 -0.069600195 13
2.493983 2.8821814 0.066528574 27
2.4702206 2.851701 0.19772527 15
2.4883776 2.8686135 0.33223769 12
2.6903098 3.0981233 0.5038079 15
3.2062137 3.6883287 0.77403784 13
nan nan nan nan
3.6731372 4.2150478 1.2907692 3
7.3809595 8.4609499 3.0085127 13
1.51832 1.7313122 -0.6170246 12
1.655931 1.8862344 -0.57947397 27
1.7992169 2.0465648 -0.5296858 29
1.9993311 2.27179 -0.47931525 18
2.2176943 2.5172517 -0.4119184 12
2.4525228 2.7808609 -0.32439366 15
2.8108222 3.1826503 -0.22253251 20
2.5947251 2.9348683 -0.06837853 23
2.4850252 2.8316338 0.065760665 23
nan nan nan nan
2.5302138 2.877043 0.335201 23
2.6738255 3.0360639 0.49673948 28
3.1352158 3.5562053 0.75088555 19
nan nan nan nan
3.9197941 4.4367609 1.3668027 1
2.8776286 3.2525663 1.1636505 20
1.5239503 1.7134525 -0.61443645 16
1.6846092 1.8920932 -0.58487278 22
1.8340062 2.0577202 -0.5357917 39
2.0042274 2.2463365 -0.4768123 18
2.21802 2.4824641 -0.40874982 13
2.4599214 2.7503068 -0.32282487 12
2.8417468 3.1738598 -0.22326522 22
2.5604198 2.8556378 -0.06694743 31
2.5069005 2.817641 0.065830477 25
2.4667964 2.7696447 0.19437577 7
2.5276914 2.8340325 0.33223769 15
2.6732748 2.9941025 0.49283966 28
3.1290708 3.5009089 0.74368954 12
9.1784649 10.254745 2.6751423 3
8.6555882 9.6603737 2.9945486 2
3.0274007 3.3752794 1.2148967 58
1.5407522 1.7087792 -0.61650699 16
1.6896149 1.8719029 -0.58217335 37
1.8246295 2.018651 -0.52892256 34
1.9907018 2.2000659 -0.46992919 30
2.2352967 2.4669187 -0.40874982 16
2.4817395 2.7360177 -0.32317349 16
2.8624928 3.1524646 -0.22316055 18
2.5897093 2.8480508 -0.067191765 24
2.5867929 2.8668807 0.067401193 10
2.5436385 2.8160882 0.19887665 7
2.4720938 2.7340014 0.32247624 22
2.7873816 3.0783699 0.50990134 11
5.1235061 5.6524224 1.2083 5
8.7629251 9.6540079 2.5343251 2
2.9683259 3.2667301 1.0190283 16
7.5147843 8.2615385 2.9924657 24
1.556852 1.7019863 -0.61805987 23
1.6963855 1.8525791 -0.57992387 33
1.8466376 2.0145469 -0.53121227 39
2.0063944 2.1857643 -0.46992919 20
2.2564929 2.4556396 -0.40948102 12
2.5034766 2.7215593 -0.32352212 13
2.841676 3.0848927 -0.21981104 12
2.5810618 2.7990301 -0.066458762 41
2.5878437 2.8280993 0.066912524 9
2.5785675 2.8140121 0.20002805 8
2.5117967 2.738265 0.32509091 19
2.6893096 2.9287028 0.48820862 30
3.1421499 3.4170625 0.73524207 1
3.1047006 3.3727903 0.89107805 4
3.1931067 3.4651878 1.0878634 17
3.2280958 3.4982545 1.2754604 24
1.5673833 1.6896591 -0.61754227 31
1.7026483 1.8335501 -0.57767433 22
1.8556583 1.9955302 -0.5296858 39
1.9960318 2.1442323 -0.46398467 21
2.249644 2.4132917 -0.40509373 16
2.5120142 2.6919205 -0.32212761 22
2.8522363 3.0533023 -0.21897365 21
2.6857221 2.8710296 -0.068622865 13
2.6379454 2.8417513 0.067680433 11
2.6674871 2.8705599 0.20536631 10
2.5254228 2.7148285 0.32439366 21
2.6506634 2.8454733 0.47748414 14
4.9348073 5.2919326 1.146039 17
3.3016064 3.5355909 0.94030684 9
7.4363871 7.9550414 2.5140531 18
3.2405598 3.4629381 1.2708015 4
1.5754614 1.6741799 -0.61598933 25
1.7090431 1.8142278 -0.57542485 27
1.8655047 1.9782408 -0.52854097 41
2.0086122 2.1270218 -0.46335894 10
2.2664361 2.3975286 -0.40509373 13
2.519789 2.6627419 -0.32073313 24
2.831424 2.9878731 -0.21572883 22
2.8336911 2.9871314 -0.071869008 16
2.5727389 2.732991 0.065516338 13
2.5043786 2.6566544 0.19134027 15
2.5201726 2.6706035 0.32125604 18
2.625479 2.779279 0.46944076 16
4.950829 5.2335238 1.1410331 10
nan nan nan nan
3.3624356 3.5469851 1.1283545 27
3.3450575 3.5237267 1.3018599 6
1.5758648 1.6525097 -0.61184824 26
1.7129644 1.7943954 -0.57272542 27
1.8707864 1.956983 -0.52625126 29
2.0199437 2.1107991 -0.46273321 11
2.2809141 2.381011 -0.40485001 20
2.5364776 2.6440897 -0.32055882 25
2.9217312 3.0424976 -0.22106709 43
2.8853147 3.0014288 -0.072671816 12
2.5609102 2.6835887 0.064748429 28
2.5150466 2.6327641 0.19081691 35
2.5433376 2.65959 0.32195333 10
2.6113837 2.7269354 0.46359101 15
4.9471521 5.1606483 1.1322728 12
nan nan nan nan
3.8753004 4.0326672 1.2912191 17
3.1487083 3.273138 1.2169672 4
1.5819904 1.6359138 -0.60977769 33
1.729517 1.7865926 -0.5740751 37
1.8898691 1.9495133 -0.52777767 12
2.0208735 2.0824695 -0.45960453 10
2.2919481 2.3593335 -0.40387502 13
2.5451488 2.6163218 -0.31933865 13
2.8760154 2.9533453 -0.21604285 36
2.8447785 2.9182103 -0.071136013 24
2.8159869 2.9099357 0.07068225 11
2.554209 2.6366606 0.19238698 31
2.7074797 2.7919524 0.34025604 7
2.6524858 2.7314224 0.46749085 12
3.1669092 3.25774 0.71959865 18
3.2326906 3.3219264 0.90100008 24
3.7115915 3.8087275 1.227783 3
3.102684 3.1805511 1.1905677 12
1.6028419 1.6344841 -0.61340117 24
1.7201042 1.7522253 -0.56687671 46
1.8841639 1.9166721 -0.52243507 23
2.0201206 2.0528235 -0.45616296 9
2.3013995 2.3362036 -0.40265635 8
2.5363195 2.5719814 -0.31602672 25
2.8965635 2.9331949 -0.21604285 31
2.7947907 2.8271728 -0.069390766 30
2.6023314 2.6518526 0.064853139 29
2.5459609 2.5916939 0.19039823 25
2.6291165 2.6735418 0.32805422 6
2.7272029 2.7694156 0.47724038 28
3.1438103 3.1891298 0.70927399 21
nan nan nan nan
3.2375548 3.277354 1.0635686 27
3.1275311 3.1615579 1.1916029 24
1.6060404 1.6150352 -0.6102953 30
1.7529178 1.7608904 -0.57362527 33
1.9054825 1.9121459 -0.52472478 32
2.0340481 2.0390246 -0.45616296 9
2.3036225 2.3060367 -0.40021896 4
2.5513945 2.5513954 -0.31567809 16
2.834507 2.8315413 -0.20997187 38
2.7932255 2.7864072 -0.068867192 17
2.6048086 2.6184831 0.064469188 11
2.5663619 2.5771344 0.19060758 33
2.7039919 2.7115538 0.33502665 29
2.7516005 2.7564075 0.47821537 12
3.4586713 3.4610875 0.77497649 33
nan nan nan nan
3.1720893 3.166559 1.0347749 9
3.06143 3.0528944 1.1584741 34
1.6307104 1.6176717 -0.61547172 17
1.7620938 1.7461751 -0.57272542 23
1.9076215 1.887749 -0.52167183 36
2.0538526 2.0303292 -0.45741442 9
2.3055384 2.2759523 -0.39778158 4
2.5719819 2.536319 -0.31602672 10
2.9125421 2.8691506 -0.21426344 22
2.714246 2.670078 -0.066458762 30
2.6272862 2.6044579 0.064573906 23
2.6140933 2.5886674 0.19280569 30
2.718137 2.6888819 0.33450374 11
2.7255857 2.6924882 0.47041571 23
3.2676263 3.2245684 0.72710747 15
3.206461 3.1597936 0.87505013 42
3.3191059 3.2673757 1.0752661 60
nan nan nan nan
1.6311949 1.595156 -0.61133063 35
1.782908 1.7416918 -0.57542485 24
1.9165379 1.8702725 -0.52052695 32
2.0683289 2.0155802 -0.45741442 9
2.3128369 2.251493 -0.39631912 4
1.986856 1.9321331 -0.24246727 3
2.9072077 2.8231902 -0.21237932 35
2.719903 2.6385326 -0.066144623 12
2.6554143 2.5958376 0.064818241 21
2.7268763 2.6619761 0.19971403 12
2.6474438 2.5817282 0.32352212 16
2.7656453 2.6941721 0.47407177 22
3.1192884 3.0344379 0.68925035 18
3.2889843 3.1961648 0.8914597 23
nan nan nan nan
3.4746323 3.3683298 1.2966834 21
1.6325573 1.5743421 -0.60770714 31
1.7823937 1.7170335 -0.57137573 32
1.9468504 1.872843 -0.52510637 32
2.0666816 1.9860367 -0.45397288 7
2.3227699 2.2297938 -0.3953442 13
2.0002954 1.918216 -0.24246727 4
3.0047419 2.8774199 -0.21803163 14
2.746927 2.6277738 -0.066354051 16
2.6566424 2.560118 0.064399377 29
2.6389165 2.5403724 0.19196831 11
2.6180117 2.5176089 0.31776983 9
2.8235121 2.711437 0.48065275 12
3.5138817 3.3708684 0.771222 66
3.8356824 3.6757178 1.0326583 10
3.5854111 3.4322846 1.1459007 26
3.5916219 3.4334319 1.3313652 42
1.62951 1.5495929 -0.60253078 38
1.7844471 1.695153 -0.5682264 33
1.9424653 1.8433299 -0.52052695 28
2.0787196 1.9705632 -0.45366001 15
2.3526971 2.2271693 -0.39778158 12
2.5868967 2.4463062 -0.31149462 25
2.9545681 2.7910669 -0.21300736 22
2.9804854 2.8116179 -0.071519956 16
2.6884995 2.5557544 0.064748429 11
2.6865597 2.5512345 0.19416642 8
2.6297402 2.4937878 0.3170726 41
2.7727275 2.6266272 0.46895328 18
3.3789172 3.1975207 0.73680639 33
3.2505276 3.0717223 0.86932582 7
3.6815562 3.4753938 1.1688458 9
3.0976923 2.9211595 1.1408744 16
1.6470641 1.5450745 -0.60511893 30
1.7973655 1.6843008 -0.56867629 39
1.9538524 1.8283836 -0.52014536 21
2.0159433 1.8845085 -0.43707794 12
2.3678017 2.2111044 -0.39778158 12
2.6024551 2.4268279 -0.3113203 22
2.9374461 2.7363379 -0.21039055 36
3.0083394 2.7994373 -0.071729392 40
2.9440799 2.7598426 0.070437916 8
2.6678603 2.4982855 0.19154961 12
2.7164953 2.5411611 0.32543954 20
2.7938986 2.6099162 0.46944076 21
3.3116157 3.0902956 0.7174086 13
3.6921275 3.4417622 0.9811399 22
3.6401145 3.3885303 1.1481502 17
3.1038616 2.8863084 1.135698 28
1.6620649 1.5374737 -0.60667187 23
1.8047867 1.667744 -0.56732661 38
1.9463698 1.7960591 -0.51480269 45
2.0842431 1.9212654 -0.44896698 10
2.3744185 2.1864519 -0.39631912 15
2.6310656 2.4193902 -0.31271479 21
2.9550059 2.7144144 -0.21028589 45
2.8937304 2.6553361 -0.068553053 11
2.7371373 2.5301843 0.065062575 12
2.7468638 2.5365098 0.19594584 13
2.8791511 2.6558752 0.34269637 7
2.7857716 2.5661373 0.46505347 10
3.4290485 3.1553802 0.73805791 12
3.5773106 3.2883525 0.94450456 12
7.2010303 6.6101031 2.2567091 2
7.1562915 6.5621352 2.601649 28
1.6542035 1.508908 -0.59994256 31
1.8063028 1.645916 -0.56417727 27
1.9457923 1.7705352 -0.5113681 21
2.1107609 1.918626 -0.45178279 10
2.3955035 2.1751602 -0.3972941 12
2.679939 2.4308739 -0.31654966 10
2.9576008 2.6789696 -0.2091345 32
3.0263724 2.7383792 -0.071240723 10
2.7650797 2.5204437 0.065306902 4
2.6921434 2.4513812 0.19081691 30
2.8254032 2.5700183 0.33415511 50
2.7786372 2.5239372 0.46090987 15
3.0413787 2.75969 0.65045458 6
3.6714551 3.3279064 0.96320391 17
3.838166 3.475359 1.19539 11
3.1553237 2.8530543 1.1398392 41
1.6560795 1.4895712 -0.59683669 36
1.8220981 1.6371729 -0.56552702 30
1.9490328 1.7493814 -0.50907844 25
2.1267133 1.9068516 -0.45240852 9
2.4135883 2.1610317 -0.39778158 12
2.7042699 2.4187465 -0.3174212 4
3.0025761 2.6827285 -0.21101859 14
2.9469364 2.6293187 -0.068937011 17
2.9591231 2.6606708 0.069460578 7
2.6939085 2.4196532 0.18977019 33
2.6593609 2.3852706 0.3125405 10
2.7809684 2.4917188 0.45847249 16
3.1204412 2.7929387 0.66328222 18
3.3769572 3.0182891 0.88039279 10
3.2416289 2.8942823 1.0032817 31
3.2539642 2.9022355 1.1683092 6
1.6705149 1.4821113 -0.59838963 33
1.8229902 1.6156851 -0.56237763 35
1.9553174 1.7305273 -0.50755197 30
2.1281343 1.8814905 -0.44990557 9
2.4252665 2.1419246 -0.3972941 15
2.7251532 2.4042375 -0.31794414 3
3.0586977 2.6947086 -0.2136354 21
2.9887836 2.6303363 -0.069495484 19
2.7846053 2.4688134 0.064957857 14
2.7705417 2.4537554 0.19395708 11
2.7740214 2.4542468 0.32404503 24
2.9693763 2.6233916 0.48650244 14
3.3946071 2.9959097 0.71709567 16
3.3370445 2.9420013 0.86474639 37
3.8754818 3.4130933 1.1922406 9
nan nan nan nan
1.6793683 1.4691402 -0.59787202 43
1.8195523 1.5900947 -0.55787861 32
1.9685307 1.7184689 -0.50793356 14
2.1155825 1.84489 -0.44458681 12
2.4341714 2.1197274 -0.39631912 15
2.7253349 2.3707707 -0.31602672 4
3.0694299 2.6672773 -0.21311203 49
3.1837831 2.762747 -0.073579341 12
2.9940212 2.6183016 0.069425672 5
2.8037243 2.4492955 0.19510846 10
2.7400401 2.3902891 0.31811845 20
2.7656724 2.4101007 0.45042911 12
3.3583038 2.9234476 0.70520669 34
3.27601 2.8477924 0.84375745 16
nan nan nan nan
1.9481832 1.6899517 0.69104689 7
1.695179 1.4627239 -0.59994256 24
1.8362372 1.5827628 -0.55967826 32
1.9685761 1.6944381 -0.50488061 12
2.1194236 1.8223481 -0.44270959 13
2.4440272 2.0992279 -0.39558792 11
2.7191362 2.3322284 -0.31341204 13
3.0667439 2.627589 -0.21164663 29
3.2602448 2.7904227 -0.074905731 14
2.9940541 2.5816653 0.069006816 14
2.8722069 2.4739799 0.19866732 3
2.7879615 2.3988736 0.32177898 11
3.0444119 2.6158373 0.49283966 12
3.0788403 2.6426184 0.6426329 15
nan nan nan nan
1.9658202 1.6831273 0.59747005 7
1.9569975 1.6737983 0.69001162 6
1.6788642 1.4283209 -0.59062505 30
1.8472424 1.5699049 -0.55967826 35
1.9683816 1.6704918 -0.50182766 10
2.1260662 1.8023987 -0.44145811 12
2.4525626 2.0769839 -0.39461297 12
2.7292666 2.3080423 -0.31271479 13
3.1689279 2.6770036 -0.21740359 17
3.2017052 2.7018213 -0.073125578 19
3.0561881 2.5982606 0.070019051 8
2.8193817 2.3943946 0.19385241 7
2.7590628 2.3406825 0.31654966 38
2.9065917 2.4623556 0.46773461 9
nan nan nan nan
2.000072 1.6907917 0.50907844 9
1.9909238 1.6806766 0.60151911 6
1.983403 1.67255 0.69518799 9
1.7065561 1.4314636 -0.59683669 35
1.8626385 1.5607252 -0.561028 39
1.9830073 1.6592288 -0.50259089 11
2.1461761 1.7938462 -0.44302243 15
2.22015 1.8537028 -0.35512727 25
2.7422516 2.2863817 -0.31236616 24
3.2059546 2.6701548 -0.21865964 19
2.9253421 2.4338448 -0.066423863 16
3.0068204 2.5203412 0.068483248 11
2.8344965 2.3733723 0.19374773 13
2.7952027 2.3379827 0.31881571 10
2.0430946 1.7064748 0.3268536 6
2.0127492 1.6793408 0.41517711 7
2.0193684 1.6830713 0.51098651 6
2.0071023 1.6704762 0.60286885 9
1.9712631 1.6389016 0.68690574 5
1.7209742 1.4232082 -0.59838963 27
1.8719864 1.5464424 -0.56057805 28
1.9809126 1.6341006 -0.49915636 10
2.1281576 1.7536949 -0.43676507 21
2.4797904 2.0412767 -0.39436921 8
2.7643034 2.2722423 -0.31306344 22
3.1812978 2.6122193 -0.21572883 15
2.9577222 2.4260459 -0.066772908 15
3.0490055 2.5196698 0.069041722 10
2.8371344 2.3420825 0.19280569 13
2.0567138 1.6960278 0.23322876 8
2.0335038 1.6745044 0.32344127 6
2.0442557 1.6815629 0.41924441 7
2.0416873 1.677657 0.51365787 10
2.021729 1.6588947 0.60376865 5
1.9766812 1.6202003 0.68483526 4
1.7143981 1.3977311 -0.59269565 43
1.8646048 1.5185685 -0.55517924 24
1.9953189 1.6227089 -0.49991959 10
2.1556809 1.7512504 -0.43989375 22
2.2411926 1.8187701 -0.3543961 11
2.6655517 2.1600633 -0.30016437 9
3.2056663 2.5949728 -0.21614751 22
2.9590378 2.3927646 -0.066423863 13
2.9285438 2.3859103 0.065935194 12
2.0602841 1.6767377 0.13921365 9
2.0685043 1.6816278 0.23322876 6
2.0543916 1.667774 0.3249037 7
2.0682197 1.6772041 0.42174736 9
2.0411448 1.6534773 0.51060492 4
2.0181103 1.6324838 0.59926963 5
1.9999651 1.6160746 0.68897635 4
1.718091 1.380887 -0.59062505 28
1.8751609 1.505514 -0.55517924 26
2.0065987 1.6087394 -0.49991959 10
2.163229 1.7324538 -0.43895519 25
2.2259328 1.780759 -0.35000879 11
2.8191104 2.2520766 -0.31567809 16
2.1605854 1.7241546 -0.14486594 5
2.1156507 1.6864841 -0.047226213 11
2.0954223 1.6829588 0.04691207 7
2.0688233 1.6598146 0.13900432 4
2.0957398 1.6796069 0.23497188 8
2.075284 1.6608332 0.32636613 8
2.062906 1.649156 0.41830578 5
2.0388317 1.6281613 0.50717038 8
2.0294571 1.618356 0.59926963 7
4.2626514 3.3955293 1.4602571 14
1.7231464 1.3652606 -0.58907217 25
1.8856251 1.4923872 -0.55517924 41
2.0039184 1.5837356 -0.49648505 10
2.1799223 1.7209814 -0.43989375 38
2.2102537 1.7430494 -0.3456215 28
2.2083383 1.7396644 -0.24595349 3
2.1521618 1.6929767 -0.1435052 8
2.1273723 1.671674 -0.047226213 5
2.1118245 1.6720117 0.047016785 6
2.0960269 1.6577195 0.14005104 7
2.1027253 1.6612285 0.23444894 7
2.0837104 1.6438464 0.32587865 6
2.0588531 1.6224884 0.41517711 10
3.5248964 2.7748199 0.87199712 22
3.7101455 2.9174981 1.089663 11
nan nan nan nan
1.7280682 1.3496302 -0.58751929 18
1.8883156 1.4731933 -0.55292976 39
2.0069094 1.5640244 -0.49457693 10
2.1650877 1.6854748 -0.43457499 33
2.1972916 1.7080842 -0.34172165 16
2.1511891 1.6704383 -0.2382838 5
2.1746826 1.6868571 -0.14423791 5
2.1579618 1.6714755 -0.04764507 8
2.131037 1.6637523 0.047191311 7
2.1198606 1.653241 0.14088841 4
2.1001244 1.6354909 0.23288015 6
2.0838842 1.6210917 0.32417247 6
nan nan nan nan
3.7303121 2.8945701 0.91779137 45
3.4239168 2.653949 1.0001324 27
nan nan nan nan
1.7402761 1.3401939 -0.58855456 20
1.8828537 1.4484236 -0.54843074 28
2.0333488 1.5619354 -0.49839315 11
2.1815033 1.6739261 -0.43551362 24
2.2151701 1.6979176 -0.34269661 7
2.1909842 1.677559 -0.24142142 6
2.1911659 1.6752731 -0.14455192 8
2.1629324 1.6518933 -0.04750545 5
2.1394305 1.6463951 0.047121495 4
2.1155162 1.6262289 0.13984169 5
2.1080468 1.618732 0.23253153 6
2.9694433 2.2768874 0.45944747 15
3.1772149 2.4335606 0.63387251 33
nan nan nan nan
3.5797024 2.7358997 1.0401738 40
3.3847146 2.583133 1.1408744 50
1.7449735 1.3245077 -0.58700162 14
1.8929198 1.4352435 -0.54843074 39
2.0439327 1.5480595 -0.49839315 21
2.216476 1.676917 -0.44020665 6
2.2285538 1.6836082 -0.34294036 8
2.2026424 1.6622223 -0.24142142 6
2.1881647 1.6494993 -0.14360988 5
2.174412 1.6367528 -0.04750545 5
2.1410296 1.624542 0.04691207 5
2.1201696 1.6069657 0.139423 5
2.9994249 2.2700927 0.32910007 33
2.9927902 2.2626081 0.46066615 22
3.2299623 2.4392579 0.64106852 25
nan nan nan nan
3.7714899 2.8409922 1.0901129 37
3.4114797 2.5670049 1.1439801 39
1.7510841 1.3099788 -0.58596635 12
1.9044544 1.42316 -0.54888058 25
2.0423703 1.5240009 -0.4953402 13
2.2315865 1.6633742 -0.44083238 16
2.2450292 1.6715665 -0.34367159 7
2.2237847 1.6539395 -0.24246727 3
2.1934986 1.6290356 -0.14319119 6
2.1697257 1.6096184 -0.047156405 5
2.1493964 1.6067848 0.046842258 5
3.0325909 2.2645419 0.19835329 42
3.0088117 2.2443326 0.32840282 28
3.0264165 2.2541778 0.46334729 14
3.1776018 2.3642001 0.62730229 21
3.9487705 2.9347541 0.95633471 37
3.9570894 2.9377224 1.1378025 11
3.704453 2.7461598 1.2356021 12
1.7539675 1.2931355 -0.5838958 12
1.9127752 1.4086733 -0.54843074 31
2.04479 1.5042458 -0.4934321 9
2.2540004 1.6563326 -0.44302243 11
2.2406397 1.6441089 -0.34123421 5
2.1967103 1.6101062 -0.2382838 5
2.219039 1.624687 -0.14413324 1
3.8630021 2.8241875 -0.083527215 22
3.1357918 2.3110611 0.067994572 27
3.0479338 2.2438486 0.19835329 15
3.0035369 2.2079327 0.32613677 25
3.0400891 2.2323518 0.46310353 18
3.3051176 2.4243011 0.64920312 33
4.3286996 3.1704493 1.042962 21
4.2873359 3.1367056 1.2264332 17
3.7480166 2.7391169 1.2438843 46
1.7471014 1.2698096 -0.57871938 12
1.9207417 1.3944767 -0.54798079 41
2.0647781 1.4968485 -0.49572179 10
2.2383094 1.6208616 -0.43770367 7
2.2517788 1.6288191 -0.34123421 5
2.9347117 2.1196961 -0.31672394 9
3.3576403 2.4224963 -0.21698491 26
4.0800571 2.9404647 -0.087785602 16
4.0174742 2.9177983 0.086668648 12
3.1411219 2.2788126 0.20337754 11
3.1459484 2.2797966 0.33990738 22
3.1102788 2.2506402 0.47139066 15
3.3235631 2.4023254 0.64951599 12
3.9347389 2.8409579 0.94335973 22
3.9771702 2.8673723 1.1319537 21
3.7607763 2.7083702 1.2418139 12
1.7606351 1.260957 -0.58027232 12
1.9129953 1.368562 -0.54303187 29
2.0735803 1.481256 -0.4953402 10
2.2640421 1.6155223 -0.44051951 11
2.5831616 1.8411918 -0.38949445 8
2.4527242 1.7456394 -0.26338464 3
3.3598189 2.3885829 -0.21604285 26
4.0890718 2.903806 -0.087541275 13
5.5582051 3.9778171 0.11930466 8
3.1634545 2.2614727 0.20379624 25
3.1747582 2.2670426 0.34130189 21
3.1097527 2.2173469 0.46895328 18
3.3193364 2.3641658 0.64544868 12
4.0744557 2.8987756 0.97198111 17
3.8064513 2.7041059 1.0779655 8
3.768564 2.6742227 1.2381904 45
1.7772874 1.254204 -0.58286053 18
1.9177256 1.3518043 -0.54168218 28
2.0854764 1.4678736 -0.49572179 10
2.2833455 1.6053578 -0.44208387 10
2.5959525 1.823113 -0.38949445 9
2.9640205 2.0785155 -0.31672394 9
3.3682327 2.3593392 -0.21551949 22
3.9126298 2.7376192 -0.083352692 10
3.5757217 2.5214596 0.076371737 27
3.1546729 2.2220802 0.20222615 42
3.4414463 2.4213822 0.36814582 8
3.1024165 2.1796064 0.46554092 25
3.2824013 2.3034892 0.63512403 33
4.0270729 2.8229311 0.95595312 33
4.0535369 2.8372643 1.1423014 6
4.0420456 2.8260689 1.3215301 10
1.7796561 1.2373537 -0.58078998 12
1.9271162 1.338383 -0.54168218 24
2.0892193 1.4488044 -0.49419534 10
2.2993679 1.5927532 -0.44302243 9
2.6020875 1.8004274 -0.3885195 8
2.9817376 2.0600371 -0.3170726 9
3.3879101 2.3380361 -0.21572883 17
3.767005 2.5967433 -0.079862215 10
5.517952 3.8336477 0.11728017 9
nan nan nan nan
3.3076229 2.2928696 0.35210916 32
3.1387765 2.1725817 0.46870953 28
3.3455226 2.313096 0.64419717 18
4.2292275 2.9208186 0.99907589 9
nan nan nan nan
4.1253147 2.8416164 1.3422357 21
1.7818756 1.2205322 -0.57871938 12
1.9315878 1.3215953 -0.5403325 18
2.0992835 1.4341825 -0.49419534 10
2.3104322 1.5766606 -0.44302243 9
2.608032 1.777745 -0.38754454 8
2.9825156 2.0307226 -0.31567809 9
3.4256208 2.3289263 -0.21708956 7
3.5848713 2.4344475 -0.075638726 8
3.7722943 2.5819788 0.079792403 35
3.3436701 2.2860334 0.21227466 4
3.2281199 2.2045536 0.34199914 3
3.1485713 2.1478117 0.46797833 33
3.3256719 2.265219 0.63731414 18
4.3047042 2.9287703 1.012051 1
3.9568834 2.6890955 1.1045097 29
nan nan nan nan
1.7805346 1.2018909 -0.57561362 12
1.9292278 1.3007915 -0.53718311 22
2.110625 1.4209572 -0.49457693 10
2.3178315 1.558694 -0.4423967 9
2.6233675 1.7621667 -0.38803205 9
2.5280497 1.6962198 -0.26634794 2
3.4646254 2.3211164 -0.21855497 3
3.6329353 2.4311204 -0.076301925 17
3.557688 2.3996897 0.074905731 11
3.4850395 2.3480341 0.22022973 8
3.272805 2.2025511 0.34513673 29
3.2240753 2.167305 0.47699666 27
3.3246121 2.2315204 0.63418543 21
nan nan nan nan
4.0738659 2.7282455 1.1319537 22
4.2101817 2.8163433 1.3572472 22
1.7886745 1.1897434 -0.57561362 14
1.9396605 1.2887081 -0.53763306 8
2.1251571 1.4098128 -0.49572179 10
2.3218017 1.5385152 -0.44114524 9
2.6339502 1.7427139 -0.3877883 8
2.9936082 1.9784236 -0.31393498 6
3.4724092 2.2913737 -0.21803163 3
3.7132642 2.4475193 -0.077628307 17
3.6139081 2.4019852 0.075743444 17
3.5242352 2.3397245 0.22169513 12
3.3312776 2.208272 0.34966883 13
3.2391262 2.1447456 0.47699666 28
3.4517615 2.2829404 0.65546048 13
20.812506 13.744172 4.8480754 8
3.9854503 2.6289182 1.1022602 16
4.1882796 2.7585163 1.3437886 10
1.7971423 1.1769134 -0.57561362 12
1.9162163 1.2534597 -0.52863503 15
2.1319034 1.3924222 -0.49495855 10
2.3393693 1.5261788 -0.4423967 9
2.6330466 1.7151532 -0.38583836 8
3.004349 1.9547781 -0.31358635 9
3.4602444 2.2479696 -0.21625218 7
3.7877169 2.457895 -0.078815073 17
5.5736742 3.6473117 0.11626793 8
3.7966747 2.481637 0.23770994 10
3.4070601 2.2235789 0.35594404 37
3.2610424 2.1258481 0.47797161 34
3.4878738 2.2711165 0.65921491 15
nan nan nan nan
4.0254068 2.6141291 1.108109 17
3.9210079 2.5424445 1.2521666 6
1.8022705 1.1619296 -0.57457829 12
1.9366057 1.2471009 -0.5317843 8
2.1385095 1.3750085 -0.49419534 10
2.3469055 1.5072657 -0.44177097 9
2.6499698 1.6999434 -0.38656959 9
3.0216155 1.9353786 -0.31393498 7
3.5179141 2.2506666 -0.21886899 3
4.1384187 2.6445959 -0.085726224 13
5.5878639 3.5997534 0.1160236 6
3.8680825 2.4889894 0.24105945 12
3.4811628 2.2374425 0.36204496 15
3.3296328 2.1367664 0.48577127 23
3.4291992 2.1981289 0.64513582 25
7.0021234 4.4832153 1.6161523 5
6.9288368 4.4294705 1.8985871 10
6.838522 4.3666925 2.1740801 8
1.8021837 1.144142 -0.57199007 12
1.9485562 1.2356378 -0.53268409 8
2.1414218 1.3558445 -0.49266884 10
2.364049 1.4950678 -0.44302243 9
2.6466675 1.6718618 -0.38437593 6
3.0249424 1.9078593 -0.3128891 7
2.6362143 1.6607563 -0.16328819 27
4.099237 2.5794284 -0.084539458 7
5.5892186 3.5456583 0.11553493 16
5.8811898 3.7265606 0.36488631 11
3.4596603 2.1896434 0.35821009 32
3.3948116 2.1452825 0.49308339 15
3.4895637 2.2026031 0.65358323 25
7.0100012 4.4195633 1.6108096 4
6.9233065 4.3581538 1.8886893 10
6.8295894 4.2941647 2.1616566 9
1.7986606 1.1243645 -0.56836665 12
1.9604412 1.2240684 -0.53358394 9
2.1591651 1.3460546 -0.49457693 9
2.3727522 1.477483 -0.44270959 7
2.6768172 1.6648762 -0.38705707 9
3.0381877 1.8866947 -0.3128891 7
2.6409562 1.6380993 -0.16286951 12
3.8077638 2.3590724 -0.07818678 17
5.6002655 3.4980791 0.11525569 8
5.6579685 3.530005 0.34949955 22
5.7305646 3.5711272 0.59074163 8
5.9783626 3.7197566 0.86454117 11
5.5567651 3.4534025 1.0362221 9
7.0006523 4.3456664 1.6016507 5
4.6379175 2.8745117 1.259726 10
6.8314772 4.2290974 2.1528571 12
1.8114017 1.1148186 -0.56991959 12
1.9639581 1.2072914 -0.53223425 9
2.1634905 1.3278672 -0.4934321 9
2.3729045 1.4546875 -0.44083238 7
2.6849892 1.6440747 -0.38656959 9
3.0478857 1.8633598 -0.3125405 7
3.586437 2.1900303 -0.22022973 5
4.1689949 2.5427692 -0.085237555 7
5.6381793 3.4672744 0.11553493 11
5.7760773 3.54791 0.3552565 11
5.6857271 3.4883144 0.5835948 35
nan nan nan nan
5.6548777 3.4598899 1.0499883 11
6.987267 4.2700658 1.5917287 4
4.6495543 2.8369875 1.2574764 5
6.8311415 4.1632051 2.1435394 12
1.8191404 1.1021456 -0.56991959 12
1.9640032 1.1885055 -0.52998471 10
2.1743875 1.3137468 -0.49381369 11
2.3830016 1.4380872 -0.44083238 7
2.6708989 1.6099197 -0.38291353 8
3.0570838 1.8405163 -0.31219187 6
3.6136212 2.1721416 -0.22096242 3
4.1660719 2.5012503 -0.084818691 3
5.5955329 3.3874397 0.11417364 13
5.9408526 3.592241 0.3638396 2
6.0510378 3.6545415 0.61845714 12
5.6081295 3.381705 0.80409402 25
5.6213622 3.3856723 1.0393507 17
6.9698014 4.1928482 1.5810434 5
6.9054184 4.1491947 1.8598955 12
6.8832302 4.1293302 2.1507864 9
1.8284501 1.0904071 -0.57043719 12
1.9873207 1.1837405 -0.53403383 9
2.1765313 1.2948997 -0.49228725 12
2.3893397 1.4198141 -0.44020665 7
2.6837811 1.5922456 -0.38315722 9
3.0767157 1.8231903 -0.3128891 7
3.6197295 2.1424079 -0.22043908 12
2.6822174 1.5849955 -0.054381698 8
5.5119643 3.2857924 0.11200955 9
5.944572 3.5394614 0.36258355 7
5.7869678 3.4401529 0.5889985 28
5.6839299 3.3748739 0.81164992 21
5.7564139 3.413837 1.0600001 16
6.9955244 4.1420875 1.5802802 3
6.9627318 4.1177483 1.8675437 6
6.9511008 4.1059589 2.1632097 75
1.8225023 1.0701116 -0.5662961 12
1.9970125 1.1711726 -0.53448373 10
2.1838236 1.2786821 -0.4919056 12
2.4043083 1.4060917 -0.44114524 9
2.6965458 1.5744715 -0.38340098 6
3.0721579 1.7916293 -0.31114599 7
3.6432269 2.1221113 -0.22096242 7
4.2247896 2.4569125 -0.08530736 7
5.5951376 3.2826459 0.11323121 8
7.05475 4.1340313 0.42852688 8
5.8085327 3.399673 0.58882421 31
5.7244916 3.3451254 0.81408727 21
5.7306309 3.3446896 1.0509269 16
7.0955138 4.1346626 1.5963081 4
6.9980464 4.0729599 1.8693434 46
7.0113292 4.075778 2.1730449 100
1.8250945 1.054144 -0.56474322 12
2.0053422 1.1568522 -0.53448373 11
2.1943984 1.2643852 -0.49228725 12
2.4040349 1.3829406 -0.43926802 9
2.7143569 1.5595634 -0.38437593 5
3.0776789 1.7661713 -0.31044877 7
3.6531205 2.093008 -0.22064841 7
4.2314258 2.4213991 -0.085097939 16
5.5486455 3.2035134 0.11183503 11
7.1083751 4.0974102 0.42999226 8
5.8258047 3.3540447 0.5881269 16
5.9043059 3.3951252 0.83626753 12
5.8212309 3.3419533 1.0631288 24
nan nan nan nan
7.0685854 4.0482211 1.880591 99
6.9967117 4.0005698 2.1595864 49
1.8324094 1.0413767 -0.56474322 13
2.003201 1.1370523 -0.5317843 11
2.2016819 1.2476821 -0.4919056 13
2.413631 1.3661237 -0.43926802 9
2.7320902 1.5444845 -0.38535091 8
3.0902386 1.7441027 -0.31044877 6
3.6363256 2.0497997 -0.21876432 7
4.2534552 2.3947423 -0.085202649 3
5.5314326 3.1410153 0.11103221 13
7.1124849 4.0338902 0.42852688 8
5.8334746 3.3044562 0.58655816 24
5.8316855 3.2980676 0.82261819 10
5.7979813 3.2750008 1.0546813 16
7.1457129 4.031332 1.5947818 61
7.0803928 3.9879718 1.8760918 78
nan nan nan nan
1.8413204 1.0295024 -0.56526077 12
2.0008817 1.1173389 -0.52908486 11
2.2103386 1.232281 -0.4919056 11
2.4265614 1.3511621 -0.43989375 9
2.718518 1.5118657 -0.38193855 8
3.1058223 1.724422 -0.31079736 7
3.6505466 2.0243652 -0.21876432 7
4.2508259 2.3543339 -0.084818691 7
5.5567174 3.1042724 0.11110201 13
7.0358262 3.9257479 0.42224655 17
5.8912101 3.2830479 0.59004438 4
5.7973251 3.2254226 0.81457478 3
5.8310657 3.2401977 1.0565585 17
7.1393509 3.9622927 1.5871494 58
nan nan nan nan
nan nan nan nan
1.8552344 1.0203454 -0.56733137 12
2.0086334 1.1033428 -0.52908486 10
2.2068374 1.2102129 -0.4892343 7
2.4290042 1.330394 -0.43864229 9
2.7342322 1.4957069 -0.38266978 9
3.1174889 1.7032399 -0.31079736 6
3.6575766 1.9950049 -0.21834564 7
4.2917428 2.3379927 -0.08530736 7
5.5064011 3.0259185 0.10967092 11
7.0753179 3.8832595 0.42297927 20
7.0897942 3.8863764 0.70735598 1
5.9415965 3.2515826 0.83163649 16
5.8622098 3.20415 1.0581229 17
7.1392651 3.8973064 1.5810434 73
10.17337 5.5467048 2.675118 2
10.297748 5.6051888 3.1415458 1
1.8470196 0.99909633 -0.56267262 12
2.0180018 1.0902194 -0.52953482 10
2.2115688 1.1932979 -0.48847106 9
2.451916 1.3213252 -0.44114524 9
2.7481029 1.4784642 -0.38315722 9
3.125793 1.6795496 -0.31044877 7
3.6851504 1.9776175 -0.21918301 7
4.2445064 2.2739756 -0.084050797 19
5.5251107 2.987416 0.10963602 13
7.1525497 3.8625307 0.42601472 17
7.0571241 3.8046422 0.70142943 1
7.019279 3.7794974 0.97885466 6
5.953474 3.2015965 1.0706376 4
7.1386237 3.8325114 1.5749376 70
10.253065 5.4976473 2.6859157 2
10.194308 5.4592724 3.0985816 1
1.8469557 0.98287171 -0.56060207 12
2.0253756 1.0764589 -0.52953482 11
2.2146425 1.1750697 -0.4873262 9
2.4436264 1.2949258 -0.43801656 9
2.751085 1.4560099 -0.3821823 9
3.1301067 1.6545098 -0.30975151 3
3.695334 1.9499779 -0.21897365 7
4.2581158 2.244101 -0.084015884 22
5.529942 2.9403217 0.10932188 11
7.1705213 3.8078187 0.42549136 28
7.054698 3.7415781 0.69864047 2
7.0437412 3.7294693 0.97861093 2
6.976284 3.6890771 1.2499115 10
7.128089 3.7645779 1.5669236 67
10.27646 5.4204564 2.6823165 2
10.237302 5.3906703 3.1001346 3
1.8537729 0.9699527 -0.56060207 12
2.0172975 1.0541691 -0.52548569 12
2.2243304 1.1608751 -0.48770785 10
2.4418738 1.2727842 -0.43613935 9
2.764704 1.4386022 -0.38266978 9
3.1380446 1.6307812 -0.30940288 7
3.6819308 1.9109784 -0.21740359 5
4.2772298 2.2161589 -0.084085695 15
5.4984393 2.8757391 0.10830963 13
7.1024461 3.7099161 0.41994375 8
7.0594478 3.6811814 0.6965487 2
7.0196652 3.6557636 0.97178626 3
6.9766984 3.6287444 1.2455313 10
7.11238 3.6930099 1.5577648 68
10.33135 5.3575521 2.6868155 2
10.752364 5.5687366 3.2445557 2
1.8587812 0.95610362 -0.5600844 12
2.0211411 1.0382791 -0.52458584 9
2.2378213 1.147616 -0.48885265 11
2.4614682 1.2606809 -0.43801656 9
2.7570076 1.4102247 -0.38023239 9
3.149354 1.6088322 -0.30940288 7
3.6919515 1.8827691 -0.21719423 7
4.3032875 2.1916914 -0.084295124 14
5.5544477 2.8546007 0.10900773 11
7.1519117 3.6708536 0.42130449 31
7.0530591 3.6154511 0.69341105 2
7.0032344 3.5837355 0.96593654 3
6.9673071 3.5607486 1.239274 10
7.1082616 3.628093 1.5512772 76
10.4692 5.3366256 2.7129099 2
nan nan nan nan
1.8688586 0.94484782 -0.56111974 12
2.0283399 1.0241444 -0.52458584 9
2.2350628 1.1270545 -0.48656297 13
2.4629347 1.2403443 -0.43676507 9
2.7667854 1.3909427 -0.38023239 11
3.1605091 1.5868063 -0.30940288 7
3.7046826 1.8575933 -0.21719423 7
4.3363671 2.1705441 -0.084644176 17
5.518425 2.788764 0.10792568 11
7.1071959 3.5869875 0.41722229 16
7.0567756 3.5553658 0.69131935 3
7.0097308 3.5270631 0.96349907 2
6.9525514 3.4937277 1.2323909 10
7.1106029 3.5669391 1.5463161 73
10.41734 5.2188954 2.6899648 2
nan nan nan nan
1.8648673 0.92694485 -0.55801392 12
2.0405011 1.0129128 -0.52593559 10
2.2358398 1.1079363 -0.48503649 11
2.480386 1.2275003 -0.4383294 10
2.7906663 1.3786281 -0.3821823 11
3.150068 1.5541265 -0.30731115 6
3.7229345 1.8343346 -0.21750826 7
4.3621812 2.1455131 -0.084853604 16
5.5431304 2.752841 0.10803039 13
7.1052237 3.5239747 0.41565222 19
7.048676 3.4913316 0.68818176 3
7.0199499 3.4709983 0.96154922 2
6.9307218 3.4223647 1.2242563 10
7.1036348 3.5015867 1.5394472 64
20.490931 10.08724 5.2728529 9
nan nan nan nan
1.8662435 0.91103566 -0.55646098 10
2.0441933 0.9965784 -0.5250358 10
2.2435205 1.0923002 -0.48503649 11
2.4784465 1.2045388 -0.43645221 10
2.7895076 1.3539114 -0.38071984 11
3.1644268 1.5338351 -0.30765978 6
3.7305717 1.8050371 -0.21719423 7
4.3590469 2.1063089 -0.084504552 17
5.5118937 2.6895218 0.10705306 9
7.0925517 3.4546738 0.41345412 22
7.0286875 3.4190147 0.68382394 7
7.0118694 3.4062953 0.9571619 2
6.9372597 3.3640628 1.2211275 10
7.0961032 3.4365025 1.532578 65
20.631033 9.977869 5.2908492 9
nan nan nan nan
1.8743008 0.89881921 -0.55697864 9
2.0423131 0.97807431 -0.52278626 9
2.2477369 1.0745246 -0.48427325 11
2.4760995 1.1821005 -0.43457499 10
2.8024755 1.3361126 -0.38120735 9
3.1750579 1.5117058 -0.30765978 7
3.7340634 1.7746624 -0.21667089 7
4.3808718 2.0792553 -0.084644176 8
5.4534526 2.6128571 0.10555216 11
7.116497 3.4050744 0.41345412 24
7.0380039 3.3629901 0.68242943 10
6.9930639 3.3355217 0.95131218 2
6.9391747 3.3053594 1.2173731 10
7.0844626 3.3700151 1.5249456 67
20.950132 9.952343 5.3547354 9
nan nan nan nan
1.8822778 0.88653529 -0.55749625 10
2.0385108 0.95881593 -0.52008688 11
2.2585528 1.0608691 -0.48503649 10
2.4876649 1.1668965 -0.43520072 10
2.8045437 1.3131479 -0.38023239 9
3.1999729 1.4962541 -0.30905426 4
3.7460566 1.7492042 -0.21667089 7
4.4260931 2.0629818 -0.085237555 13
5.4910116 2.5850477 0.1059361 14
7.0889001 3.3327615 0.41052327 24
7.0450773 3.3061557 0.68086064 11
