# .PCD v0.7 - Point Cloud Data file format
VERSION 0.7
FIELDS x y z intensity
SIZE 4 4 4 4
TYPE F F F F
COUNT 1 1 1 1
WIDTH 1463
HEIGHT 1
VIEWPOINT 0 0 0 1 0 0 0
POINTS 1463
DATA ascii
0.3437044 43.763477 3.8289261 20
nan nan nan nan
nan nan nan nan
nan nan nan nan
nan nan nan nan
nan nan nan nan
0.041254159 3.1100078 -0.83339739 50
0.048525121 3.5190904 -0.81252325 24
0.05824187 4.0203233 -0.78155369 24
0.068931922 4.5922337 -0.72742033 19
0.090310335 5.8136339 -0.7139107 2
0.12042727 7.4186811 -0.64913595 2
0.1839447 10.977392 -0.57538158 3
0.67317975 38.956253 -0.68008536 52
0.52980316 38.914467 0.67931753 14
nan nan nan nan
nan nan nan nan
nan nan nan nan
nan nan nan nan
nan nan nan nan
nan nan nan nan
nan nan nan nan
0.062966585 3.1096442 -0.83339739 28
0.072444275 3.4874926 -0.80532485 24
0.085970454 4.0041165 -0.7785008 24
0.10099007 4.5916405 -0.72742033 19
0.1300486 5.7751546 -0.7092796 2
0.16962329 7.3061161 -0.63937455 2
0.25374568 10.688316 -0.56030881 3
0.94472265 38.934612 -0.67980617 52
0.79971623 38.825848 0.67785144 14
nan nan nan nan
nan nan nan nan
nan nan nan nan
nan nan nan nan
nan nan nan nan
nan nan nan nan
nan nan nan nan
0.085146293 3.1265087 -0.83805609 30
0.096788131 3.4869018 -0.80532485 23
0.1124723 3.9523945 -0.76857871 37
0.13241604 4.5691037 -0.72397882 23
0.16743642 5.6748948 -0.69709271 2
0.21930218 7.260941 -0.63553965 2
0.32026097 10.422771 -0.5464921 3
1.2141594 38.851116 -0.67847979 52
1.0706421 38.815327 0.6777817 14
nan nan nan nan
nan nan nan nan
1.2785873 43.593735 5.3549395 23
nan nan nan nan
nan nan nan nan
nan nan nan nan
nan nan nan nan
0.1059142 3.0949464 -0.8297739 23
0.12038457 3.4647181 -0.80037588 22
0.13978241 3.9436648 -0.76705217 35
0.16253382 4.5187154 -0.71615702 24
0.20379013 5.5843182 -0.68612444 2
0.26569626 7.1437545 -0.62542957 3
0.38263455 10.144855 -0.53204739 3
1.4280503 37.343018 -0.65230119 48
1.3407689 38.782921 0.6773628 14
nan nan nan nan
1.5529513 43.597713 3.8167243 20
nan nan nan nan
nan nan nan nan
nan nan nan nan
nan nan nan nan
nan nan nan nan
0.12648427 3.0690389 -0.8230446 31
0.14587016 3.494946 -0.80757433 26
0.1667283 3.9288623 -0.76438087 27
0.19255029 4.4819465 -0.71052545 28
0.24027 5.5252452 -0.67905599 2
0.31115913 7.0701241 -0.61915439 3
0.43632153 9.7588453 -0.51195037 3
nan nan nan nan
1.6104957 38.748642 0.67694396 14
nan nan nan nan
nan nan nan nan
nan nan nan nan
1.9067378 43.497509 6.8959446 34
nan nan nan nan
nan nan nan nan
nan nan nan nan
0.14892891 3.0893068 -0.82873863 25
0.16874824 3.4626994 -0.80037588 20
0.19172882 3.8923409 -0.75751179 30
0.22275887 4.4746132 -0.7095868 26
0.27543476 5.4560261 -0.67076892 2
0.35705948 7.0001259 -0.61322778 3
0.48998761 9.508317 -0.49897105 3
nan nan nan nan
1.8726662 38.704823 0.67638546 14
nan nan nan nan
nan nan nan nan
nan nan nan nan
2.2012734 43.453934 6.891252 33
nan nan nan nan
nan nan nan nan
nan nan nan nan
0.1683629 3.0592875 -0.82097405 27
0.19155751 3.4478505 -0.79722661 23
0.21834642 3.8811066 -0.75560367 33
0.25208831 4.4394217 -0.70426804 24
0.30711472 5.3588967 -0.65906948 2
0.39946267 6.886076 -0.60346633 3
0.55169231 9.4249105 -0.49478418 3
nan nan nan nan
2.1414859 38.666851 0.67596662 14
nan nan nan nan
nan nan nan nan
2.6434021 46.266529 5.6900802 28
nan nan nan nan
nan nan nan nan
nan nan nan nan
nan nan nan nan
0.18911709 3.0483971 -0.81838584 26
0.21476996 3.4328146 -0.79407728 31
0.24270925 3.8363822 -0.74720806 28
0.28068584 4.4000974 -0.69832355 26
0.34107926 5.3031349 -0.65248853 2
0.44235283 6.8035917 -0.5964939 3
0.60728377 9.265377 -0.48661977 3
nan nan nan nan
2.4113977 38.650955 0.67596662 14
2.4477332 38.905582 2.0429866 33
2.7581456 43.476196 3.8113208 20
nan nan nan nan
nan nan nan nan
nan nan nan nan
nan nan nan nan
nan nan nan nan
0.20946278 3.0335116 -0.81476241 22
0.23778349 3.4176233 -0.79092801 15
0.26810816 3.8150101 -0.74339187 33
0.31111634 4.3940902 -0.69769776 28
0.37371293 5.239243 -0.64493263 2
0.48237017 6.7129836 -0.58882421 3
0.65778887 9.0656929 -0.4763619 3
nan nan nan nan
2.684773 38.685043 0.6768741 14
nan nan nan nan
nan nan nan nan
3.0885003 43.405468 5.3429961 47
3.1057439 43.327366 6.8799887 33
nan nan nan nan
nan nan nan nan
2.2510283 30.653221 8.2356224 17
0.22829254 3.0011547 -0.80648017 31
0.26000172 3.3945062 -0.78597903 28
0.29241121 3.7915649 -0.7391941 24
0.34040919 4.3839927 -0.6964463 26
0.40655926 5.1890097 -0.63908291 4
0.52201402 6.6180868 -0.5808059 3
0.70904785 8.9296007 -0.46945357 3
nan nan nan nan
2.9708171 38.964962 0.68210989 14
nan nan nan nan
nan nan nan nan
3.3835723 43.379478 5.3425088 23
3.3999743 43.297348 6.8787374 33
nan nan nan nan
nan nan nan nan
2.4556069 30.58712 8.2221642 17
0.2480755 2.9918301 -0.80440962 31
0.27985883 3.3538184 -0.776981 18
0.31656948 3.7620423 -0.73385143 31
0.36750692 4.3401747 -0.68987608 20
0.4385024 5.1465635 -0.63420814 2
0.56343257 6.5586987 -0.57592511 3
0.75692379 8.7572861 -0.46066111 3
nan nan nan nan
3.7206745 44.682533 0.78263569 20
nan nan nan nan
3.6551116 43.346008 3.8057425 20
nan nan nan nan
nan nan nan nan
3.1190186 36.23333 7.0690918 19
1.9810892 22.827482 5.2899494 9
2.6670687 30.546137 8.2159519 17
0.26826411 2.9823291 -0.80233908 30
0.30010521 3.3168483 -0.76888275 15
0.34228918 3.7538753 -0.73270655 27
0.38931692 4.245048 -0.6751712 28
0.46876684 5.082099 -0.62665224 3
0.60330683 6.4911218 -0.57034713 3
0.80577493 8.6205416 -0.45375276 3
1.610576 17.133848 -0.30039081 6
4.0318069 44.647499 0.78249609 20
nan nan nan nan
3.9594474 43.339275 3.8074856 20
nan nan nan nan
nan nan nan nan
2.1268337 22.839853 4.4588251 7
2.869092 30.579796 7.0909076 17
2.8815117 30.540237 8.2195759 17
0.28553602 2.9438498 -0.79250389 30
0.32193139 3.301095 -0.76573342 25
0.36580095 3.7240403 -0.72736394 36
0.41758445 4.228466 -0.67298114 22
0.49776307 5.0135155 -0.61860883 3
0.64067644 6.4074526 -0.5633747 3
0.85974157 8.5531025 -0.45050797 3
1.5556432 15.395247 -0.27009344 5
4.3406949 44.590401 0.78200746 20
nan nan nan nan
nan nan nan nan
4.5638347 46.048882 5.6817927 28
3.0511675 30.622765 4.8741856 13
3.0753803 30.702829 5.9978905 84
3.0829 30.562899 7.0918074 17
3.093498 30.507845 8.2164698 17
0.30308077 2.9129624 -0.78473938 55
0.34314382 3.2813239 -0.7616843 18
0.39055562 3.709681 -0.72507423 22
0.44501799 4.2058034 -0.66985244 22
0.53212452 5.0039954 -0.6178776 1
0.67648655 6.3196177 -0.55605364 6
0.91152841 8.4734163 -0.4466351 3
1.5528283 14.36411 -0.25218728 10
4.6228194 44.280567 0.77712077 19
nan nan nan nan
nan nan nan nan
3.2564399 30.673977 3.7874558 11
3.2642372 30.59483 4.8732471 13
3.2904739 30.688421 5.9994168 96
3.290772 30.490253 7.0801096 51
3.3061991 30.483582 8.2159519 17
0.32362303 2.9126956 -0.78525704 60
0.36452994 3.2652915 -0.75853503 21
0.41447365 3.6893048 -0.72163963 31
0.46949282 4.1594105 -0.66296935 21
0.56212252 4.9567647 -0.61251533 3
0.7124573 6.2434778 -0.5497784 3
0.95337719 8.3160419 -0.43867999 3
1.5935897 13.836411 -0.24311201 19
4.9322653 44.25119 0.77719057 19
nan nan nan nan
4.0169554 35.699486 3.1430101 11
2.5820525 22.803938 2.8178632 7
3.4781961 30.575218 4.8738728 13
4.5468245 39.783554 7.7834811 100
3.5037622 30.468475 7.0805597 86
3.516259 30.436729 8.2097406 17
0.34553528 2.923795 -0.78888047 52
0.38341177 3.2297692 -0.75088662 20
0.4385902 3.6726758 -0.71896833 33
0.49499062 4.1266117 -0.65827632 21
0.59125221 4.9073906 -0.60690933 1
0.75267178 6.2106614 -0.54733807 3
0.99258345 8.1545401 -0.43051565 3
1.6520427 13.513318 -0.23763196 18
5.2245998 44.076675 0.77474725 19
nan nan nan nan
2.7324631 22.84729 2.0131233 6
3.6801336 30.590046 3.7830684 23
3.6939363 30.569801 4.8770013 27
3.8853941 32.0135 6.2684574 13
3.7173314 30.45101 7.0823593 100
3.7293673 30.417192 8.2112932 17
0.36401787 2.9059763 -0.78473938 48
0.40011144 3.1806102 -0.740089 30
0.45978442 3.634465 -0.71209919 13
0.52279198 4.1152172 -0.65702486 22
0.6197201 4.8578529 -0.60130334 3
0.78130865 6.0906363 -0.53722799 3
1.0349443 8.0345011 -0.42454931 6
1.6788802 12.97988 -0.228452 8
5.5082788 43.848644 0.77139634 19
nan nan nan nan
3.8779864 30.611475 2.6995618 19
3.8935883 30.56361 3.7830684 35
3.9075148 30.545227 4.8773141 27
4.1015415 31.929123 6.2573905 13
3.9293294 30.420448 7.0814595 86
3.9463494 30.426815 8.2211285 17
0.38353747 2.897619 -0.7831865 25
0.4197408 3.1584215 -0.73559004 35
0.48436484 3.6253293 -0.71095431 21
0.54783022 4.0840578 -0.65264469 22
0.64487374 4.7884865 -0.59325999 13
0.81151456 5.9942117 -0.52920967 3
1.0697604 7.8707333 -0.41628024 5
0.7586087 5.559629 -0.097942911 21
nan nan nan nan
nan nan nan nan
nan nan nan nan
4.1068821 30.535681 3.7830684 23
4.1196079 30.509375 4.8760629 13
4.165585 30.728544 6.0276566 12
4.141068 30.388416 7.0805597 86
4.1602435 30.410007 8.2242346 17
0.40028813 2.8699973 -0.77645719 22
0.44637397 3.1882226 -0.74323833 22
0.50555909 3.5926979 -0.70523006 19
0.57273918 4.0547056 -0.64857739 22
0.6704874 4.7288356 -0.58643532 15
0.84153432 5.9055567 -0.52188861 6
0.79550445 5.561686 -0.29444212 60
0.79058075 5.5066915 -0.09710519 27
1.5172489 10.850767 0.19124347 1
nan nan nan nan
4.3019423 30.532646 2.6976445 59
4.3227444 30.525921 3.785506 11
4.3327808 30.481827 4.8763757 13
4.3633709 30.582098 6.0047593 60
4.3606009 30.410847 7.0927072 52
4.3674903 30.345804 8.2149172 17
0.41695085 2.8441958 -0.77024549 23
0.46861953 3.185029 -0.74323833 22
0.52488744 3.5502377 -0.69759774 15
0.59726322 4.0252066 -0.64451009 26
0.69325107 4.6553192 -0.57790446 17
0.83085102 5.5527377 -0.49120975 33
0.83223945 5.542171 -0.29370943 45
0.83079594 5.5129018 -0.097314619 31
1.5731943 10.705377 0.18886994 3
4.5123529 30.594593 1.6207401 17
4.5138288 30.493986 2.6969473 59
4.5357361 30.495001 3.785506 35
4.546339 30.456697 4.8773141 27
4.5843153 30.601376 6.0146813 36
4.589046 30.487579 7.1179018 100
4.5792375 30.314575 8.2149172 17
0.43562278 2.8335781 -0.76817495 16
0.48668414 3.1547165 -0.73693973 13
0.54785419 3.5348465 -0.69530803 17
0.61806238 3.9740932 -0.63700122 16
0.72603828 4.6523275 -0.57814825 15
0.86651295 5.5271182 -0.48946664 45
0.8690486 5.5243878 -0.2930814 37
0.87051016 5.5148683 -0.097454235 46
1.6503298 10.709943 0.18914919 3
2.1898706 14.162024 0.75102103 10
4.7302871 30.485353 2.699039 59
4.7479086 30.458666 3.7850182 35
4.7606878 30.435925 4.8791914 13
4.8091049 30.640388 6.028801 12
nan nan nan nan
4.7943697 30.304766 8.2211285 17
0.45447361 2.8247457 -0.76662207 22
0.5052802 3.1300797 -0.73199081 15
0.56811953 3.5038044 -0.68996537 22
0.6451574 3.9657819 -0.63637549 21
0.75530225 4.6275539 -0.57571083 19
0.90507579 5.5209346 -0.48946664 45
0.90888888 5.5260696 -0.29350007 62
0.90931296 5.5106306 -0.097489148 57
1.5598431 9.6735535 0.17103358 1
2.2567821 13.949231 0.74055386 19
4.943624 30.455523 2.6993876 59
4.9617124 30.432617 3.7859933 11
4.9730687 30.401945 4.8791914 13
5.2111373 31.752972 6.2547193 13
5.6192932 34.091152 7.9767652 25
5.0108628 30.30105 8.2294111 17
0.46985245 2.7987244 -0.76041043 33
0.52722156 3.1304111 -0.73289061 20
0.5890094 3.4824345 -0.68653083 22
0.66585809 3.9242952 -0.630431 17
0.77545816 4.555769 -0.5674237 21
0.9429704 5.5166101 -0.48964092 54
0.94749528 5.5256605 -0.29381409 52
0.94408971 5.4885468 -0.097209901 29
1.5765517 9.3708591 0.16586767 1
2.3390484 13.858707 0.73657632 9
5.1534748 30.43688 2.7007821 39
5.1720743 30.417709 3.7884309 35
5.1822042 30.381025 4.881382 27
5.4284616 31.724504 6.2562456 13
5.2218704 30.389542 7.1188016 52
5.2163582 30.262432 8.2283754 17
0.4863815 2.77825 -0.75575161 37
0.5453555 3.105541 -0.72794163 30
0.60955691 3.4569695 -0.68233299 16
0.69117439 3.9078796 -0.62855375 17
0.80377698 4.5306988 -0.56498629 15
0.98215938 5.5138154 -0.48998958 36
0.98851013 5.5326734 -0.29454678 42
0.98485577 5.4956002 -0.097454235 31
1.4684767 8.3708773 0.14834546 1
2.4191227 13.747624 0.73155206 26
5.3765597 30.460987 2.7061858 9
5.3856893 30.388678 3.7894058 35
5.393486 30.340216 4.8807559 27
5.4254565 30.427601 6.0078125 48
5.4208522 30.279449 7.1017051 52
5.4274883 30.225281 8.2283754 17
0.50299287 2.7595828 -0.75161052 37
0.56001258 3.063319 -0.7189436 27
0.63084102 3.4371819 -0.67928004 17
0.7148636 3.8835318 -0.62542504 19
0.82998186 4.4956961 -0.56133026 14
1.0138642 5.475657 -0.48720059 6
1.0245538 5.5118928 -0.29381409 37
1.0231957 5.4885912 -0.097454235 44
1.4553903 7.968955 0.1413994 3
2.5024517 13.661639 0.72788858 22
5.5909009 30.432505 2.7070572 9
5.5984163 30.354244 3.7898932 24
5.6073103 30.31348 4.8826332 27
5.6212611 30.30019 5.9902577 36
5.6368284 30.295492 7.1143026 35
5.6412053 30.201843 8.2325163 17
0.51972836 2.7427173 -0.74798709 40
0.57374471 3.0191305 -0.70949566 31
0.65091473 3.4154513 -0.6758455 16
0.73683155 3.855293 -0.62167066 16
0.84975094 4.4293561 -0.55377436 27
1.0437833 5.4254031 -0.48336574 6
1.0639375 5.5145969 -0.29433745 62
1.0622487 5.4852405 -0.097524047 48
1.4264956 7.5207443 0.13361563 1
2.595006 13.642328 0.72778392 13
5.8080816 30.418173 2.7093234 9
5.8064098 30.323229 3.790868 24
5.8183756 30.299826 4.8867002 13
5.8349032 30.271774 5.9925475 36
6.790885 35.132469 8.2611036 27
5.8518 30.189299 8.2397633 17
0.53764033 2.7353249 -0.74695182 24
0.59315157 3.0094197 -0.70814598 28
0.65607446 3.3164535 -0.65714622 20
0.75565696 3.8093648 -0.61510038 18
0.8760016 4.3999529 -0.55084944 9
1.070325 5.3613214 -0.4783107 5
1.1008452 5.4992008 -0.29391876 47
1.1024864 5.487493 -0.097698569 29
2.7064142 13.743932 0.24450821 17
2.7118509 13.733607 0.7336455 9
6.0188532 30.397482 2.7110665 9
6.0202713 30.29364 3.7923305 36
6.0359292 30.289467 4.8917065 13
6.071125 30.355433 6.0173526 24
7.0850377 35.328773 8.3186913 27
6.065465 30.162859 8.2439041 17
0.55874467 2.7389791 -0.74902231 14
0.61584276 3.0108256 -0.70949566 27
0.68197113 3.3252549 -0.65981752 16
0.77652532 3.7729027 -0.61009449 28
0.89506525 4.3373504 -0.5437811 16
1.0968283 5.3010402 -0.47360432 5
1.142602 5.5029159 -0.29454678 35
1.1411744 5.4816213 -0.097733475 31
2.7971048 13.69923 0.24405445 28
2.7868035 13.600367 0.72757453 16
6.2422328 30.382908 2.7136812 29
6.239625 30.289757 3.7972052 36
6.2557201 30.260975 4.8942094 27
6.2888746 30.341145 6.023077 36
7.3560901 35.39674 8.3465843 28
6.2850938 30.137596 8.2490807 17
0.57306057 2.7123301 -0.74281067 28
0.63442433 2.9950142 -0.70679629 23
0.70044225 3.2953253 -0.6548565 20
0.80243272 3.7654581 -0.60978162 27
0.92490906 4.3290544 -0.54353732 14
1.1259631 5.2521448 -0.46994376 2
1.1814141 5.4967575 -0.29465145 40
1.1781546 5.4676557 -0.097628765 36
2.9799368 14.07992 0.25120994 25
2.8957794 13.647007 0.73113334 16
6.4599977 30.365871 2.7161214 59
6.4570417 30.248213 3.7976928 24
6.4693093 30.228153 4.8960867 13
6.5062943 30.323378 6.02842 49
7.6953273 35.743267 8.4410639 29
6.499824 30.113756 8.254775 17
0.59033215 2.7007141 -0.74074018 30
0.6503123 2.967669 -0.70139742 42
0.72596037 3.3018596 -0.65714622 17
0.82402384 3.7385445 -0.60634005 22
0.94654095 4.2837253 -0.53866255 17
1.1419035 5.1507888 -0.46157682 2
1.2219265 5.4981241 -0.29517484 42
1.2176019 5.4651527 -0.097733475 40
3.1230695 14.263883 0.25487494 16
2.98456 13.597196 0.7295633 9
6.6727047 30.323921 2.71647 59
6.6749048 30.233414 3.8015926 36
6.6861606 30.209255 4.9004669 13
6.7148557 30.2638 6.0257483 24
6.7336078 30.248444 7.1543436 89
6.7111473 30.073303 8.2563276 17
0.60831958 2.6927586 -0.73970485 29
0.66713965 2.9459517 -0.6973483 46
0.74246967 3.2679942 -0.65142196 31
0.84484005 3.7095878 -0.60258561 18
0.97465658 4.2692719 -0.5376876 14
1.1658235 5.0943427 -0.45721903 5
1.2575967 5.4777803 -0.29454678 35
nan nan nan nan
3.1426938 13.888711 0.24855718 27
3.0962024 13.650044 0.73354083 6
6.8908548 30.305744 2.7190847 9
6.8911228 30.209297 3.8045175 36
6.9030771 30.188797 4.9048467 27
6.9075651 30.135807 6.0097208 36
8.3514967 36.347885 8.6102266 30
6.9252744 30.044544 8.2615042 17
0.62227786 2.6677511 -0.73401088 31
0.68325466 2.9222465 -0.69284928 35
0.75887328 3.2380154 -0.64646095 30
0.8678121 3.6941364 -0.60102129 16
0.99214238 4.2101951 -0.53110665 22
1.1908284 5.0414815 -0.45320985 5
nan nan nan nan
2.1550786 9.0741777 -0.16279604 6
3.312614 14.190257 0.25435138 29
3.1954081 13.655881 0.73500621 22
7.1113663 30.295689 2.7225709 10
7.097487 30.165558 3.8050051 24
7.112926 30.160339 4.9079752 13
7.1277137 30.128883 6.018116 24
nan nan nan nan
7.1336417 30.013624 8.2661629 17
0.63003331 2.6202526 -0.72210521 56
0.70130229 2.9099503 -0.69104964 40
0.78238302 3.2364552 -0.64722413 30
0.88055629 3.6342328 -0.59226096 16
1.0198424 4.1994858 -0.53061914 11
1.2146763 4.9865866 -0.44902641 5
1.5291172 6.2631922 -0.33788097 2
2.1920793 8.9582949 -0.16098098 3
3.3516803 13.917937 0.24988356 21
3.2747395 13.567227 0.7314474 22
8.5570555 35.370628 3.1837993 12
7.3153992 30.146141 3.8089049 24
7.3256454 30.119543 4.9095397 13
7.3386745 30.104467 6.023077 36
nan nan nan nan
7.3480606 29.98373 8.2718573 18
0.64598709 2.6064146 -0.71951699 52
0.7154932 2.8803971 -0.68520099 38
0.79736322 3.2004342 -0.64111823 30
0.89872825 3.5992486 -0.58756793 24
1.0423887 4.1653042 -0.52720684 13
1.2484895 4.9741201 -0.44867775 2
1.5567263 6.188446 -0.33442679 2
2.2149701 8.7857132 -0.15815371 12
3.4121518 13.746696 0.24723078 24
3.3925209 13.637068 0.73647165 9
7.5409327 30.245024 2.727103 10
7.5314598 30.117445 3.8118296 36
7.5439048 30.100241 4.9148583 27
7.5572734 30.086771 6.0299463 24
nan nan nan nan
7.5680838 29.974779 8.283762 18
0.66225749 2.5943534 -0.71744639 36
0.73848403 2.8866589 -0.68790036 26
0.81627172 3.181478 -0.63844693 37
0.91989666 3.5775819 -0.58506501 24
1.0684685 4.1463919 -0.52574438 13
1.2653779 4.8999176 -0.44275117 2
1.6104078 6.21803 -0.33662489 8
2.2476165 8.6597071 -0.15616412 3
3.5233858 13.782601 0.24831285 33
3.0757282 12.005257 0.64948928 8
3.5595813 13.863647 1.2522538 15
7.7484655 30.091043 3.8152421 24
7.7583027 30.064056 4.9176745 27
7.7720499 30.052286 6.0337625 24
7.788878 30.052437 7.1673908 36
7.783967 29.947392 8.2910089 18
0.67593551 2.5728509 -0.71278769 28
0.75266486 2.8588188 -0.68250155 20
0.83390325 3.1606615 -0.63539398 27
0.93514007 3.5368614 -0.57943332 36
1.0856901 4.0946984 -0.52013838 16
1.2529984 4.7157364 -0.42688882 4
1.5648187 5.8768921 -0.318726 2
2.2760301 8.5240221 -0.15400003 3
3.6272886 13.796979 0.24901094 27
3.1268382 11.868163 0.64320898 2
3.6287909 13.73444 1.2428409 21
7.9581761 30.056799 3.8176794 24
7.9774399 30.065924 4.9267478 13
7.984694 30.008678 6.0360518 36
7.9994984 30.001095 7.1682906 36
7.998105 29.932907 8.3018799 18
0.68990642 2.5551353 -0.70916426 37
0.75632739 2.7953155 -0.66855454 29
0.84772164 3.1244471 -0.62928808 23
0.95358849 3.5073726 -0.57567888 34
1.1088387 4.0699768 -0.51794475 15
1.3128768 4.8089671 -0.43612733 2
1.6105554 5.8831615 -0.31966805 8
2.2980299 8.3771973 -0.15162651 3
3.749625 13.867837 0.25075617 28
3.198132 11.803632 0.64090616 14
3.7211571 13.705575 1.2424922 15
8.1782475 30.038815 3.8225541 36
8.1918249 30.026649 4.9295635 27
8.2011976 29.999083 6.0452108 24
8.2189703 30.002331 7.1817875 54
8.2114735 29.89311 8.3065386 18
0.71134275 2.5632873 -0.71278769 27
0.78156829 2.8106196 -0.67350352 14
0.86422831 3.101583 -0.62585354 27
0.97212988 3.4817741 -0.57255018 28
1.1302682 4.0372858 -0.51477611 19
1.3421129 4.784338 -0.43473285 5
1.6954188 6.031651 -0.32835582 2
2.3054619 8.180028 -0.14834546 3
3.8765662 13.959528 0.25288537 34
3.2885702 11.818149 0.64289492 8
3.8413739 13.767541 1.2505106 15
8.3964233 30.032156 3.8288913 36
8.4045458 30.000626 4.9345694 27
8.4189253 29.971338 6.0513167 37
10.729712 38.121063 9.142911 35
8.424736 29.871845 8.3163738 18
0.72083652 2.5305166 -0.70502311 27
0.7996105 2.801487 -0.67260373 18
0.87829667 3.0690496 -0.62051088 35
0.989878 3.4521167 -0.5687958 30
1.1474582 3.9911394 -0.50990134 21
1.3528711 4.6963549 -0.42758605 11
1.7175498 5.9505858 -0.32458761 2
2.3219335 8.023509 -0.1457974 6
3.3733075 11.826442 0.21466459 14
3.3885591 11.856355 0.64624447 8
3.8867292 13.57252 1.2351712 20
8.6146479 30.003334 3.8327911 12
8.6225243 29.971598 4.9395752 14
8.6410036 29.957109 6.0604753 37
11.084303 38.352257 9.2166948 36
8.6491823 29.867977 8.3319035 18
0.73187315 2.5011904 -0.69829381 33
0.81031668 2.7639029 -0.66495538 22
0.89859462 3.0590758 -0.61974764 31
1.0095329 3.427891 -0.56597996 24
1.1752917 3.983032 -0.50990134 18
1.3873173 4.6925282 -0.42810899 19
1.7300023 5.8366532 -0.31904003 11
2.3892813 8.0454407 -0.14649549 6
3.5041196 11.967646 0.2176664 10
3.4457488 11.7379 0.64111555 14
3.9916232 13.57112 1.2376115 12
8.8317566 29.96912 3.8362033 24
8.8462896 29.941332 4.9448938 14
8.8605223 29.931822 6.0677261 25
11.463717 38.65134 9.3075762 38
8.8505774 29.764582 8.3205156 36
0.75042778 2.4997203 -0.69932908 29
0.8267861 2.7488475 -0.66270584 27
0.92159539 3.0563266 -0.62051088 32
1.0328683 3.4188685 -0.56566709 20
1.1967441 3.9538305 -0.50722027 21
1.4102141 4.6503153 -0.42514572 26
1.7509558 5.7594628 -0.31548119 2
2.4226635 7.9539609 -0.14513421 12
3.562608 11.852259 0.21602589 16
3.6842597 12.233737 0.6695863 9
3.636205 12.051293 1.1013 2
9.051733 29.924154 3.8386409 12
9.0671358 29.918545 4.9514642 28
9.0744028 29.886141 6.0711608 37
nan nan nan nan
9.0745001 29.755653 8.3355265 55
0.76217598 2.4759572 -0.69415271 29
0.84595519 2.7430089 -0.66270584 16
0.94295603 3.0518591 -0.62089252 40
1.0426792 3.3683577 -0.55847108 26
1.2207879 3.9340041 -0.50575781 15
1.4355472 4.6175261 -0.42305395 21
1.7705189 5.6844831 -0.31202701 5
2.4030383 7.6963429 -0.14073621 12
3.6237814 11.764667 0.21487403 28
3.6113834 11.702634 0.64184827 11
3.7361484 12.077005 1.1060064 6
9.2681389 29.903564 3.8440032 12
9.2840471 29.899523 4.9586601 14
9.2933283 29.855803 6.0780301 37
9.329483 29.916746 7.2348766 55
9.2906561 29.737452 8.34795 55
0.78307927 2.4836085 -0.69777614 37
0.85462958 2.7055967 -0.65505755 15
0.96305519 3.0414579 -0.62012929 40
1.0667683 3.3628786 -0.55878401 27
1.2397217 3.9010088 -0.50258923 18
1.466537 4.6035957 -0.42270535 21
1.7980136 5.6339307 -0.30993357 2
2.4480591 7.6569524 -0.14031734 18
3.7401335 11.847779 0.2168636 24
3.7676685 11.913271 0.65482759 8
3.7159603 11.728409 1.0763733 14
9.4802847 29.849482 3.8454654 61
9.5045376 29.871628 4.9649177 14
9.5106459 29.836746 6.0871892 25
12.633656 39.538826 9.5829153 41
9.510993 29.712341 8.3593378 56
0.79149139 2.4505064 -0.69001162 31
0.86629701 2.6773157 -0.64965874 27
0.97336251 3.0010455 -0.61326015 26
1.0853362 3.3403196 -0.55628103 33
1.2595527 3.8696077 -0.49966437 19
1.4961705 4.5856676 -0.42200807 16
1.8106232 5.539608 -0.30543268 13
2.4467003 7.4724374 -0.13724573 11
3.8812072 12.002133 0.22017956 25
3.8575177 11.907578 0.65597892 11
3.7774539 11.639643 1.0706211 18
9.7043943 29.831656 3.8518028 73
9.7238531 29.838358 4.9705496 14
9.7369785 29.825615 6.0986376 38
12.936049 39.531155 9.6027117 41
9.7296267 29.680098 8.369173 37
0.80069423 2.421077 -0.68328232 30
0.88374126 2.6675026 -0.64875889 40
0.99243236 2.9885879 -0.61211532 35
1.0980279 3.3007967 -0.55096221 41
1.2790041 3.8381212 -0.49673948 18
1.506687 4.5108585 -0.41608149 26
1.836578 5.4889512 -0.30333924 2
2.473388 7.3793335 -0.13584954 20
3.9661665 11.978541 0.22024937 19
3.8563035 11.626331 0.64195293 8
3.8642817 11.630002 1.0721899 20
9.9274759 29.80838 3.8576524 61
9.9419289 29.799725 4.9755554 14
9.9567862 29.79229 6.1058879 38
13.231502 39.49902 9.6171083 42
9.9451857 29.637094 8.37642 37
0.82562894 2.4392166 -0.69001162 19
0.88482118 2.6095929 -0.63616163 27
1.0050602 2.9574215 -0.60715425 26
1.1210451 3.2930508 -0.55096221 34
1.2987202 3.8084311 -0.49405837 21
1.5349181 4.4908047 -0.41520998 18
1.8619118 5.4382048 -0.30124578 2
2.4988928 7.2862258 -0.13445334 17
4.0522571 11.958137 0.22038898 46
3.9579151 11.659649 0.64530241 8
3.9569199 11.636698 1.0753275 16
10.146877 29.772163 3.86204 61
10.170166 29.789408 4.9855671 28
10.17344 29.748055 6.1112304 25
10.219295 29.814186 7.2762671 38
10.18949 29.676571 8.4074783 19
0.84074134 2.4279165 -0.68845868 37
0.91387469 2.6346512 -0.64380997 24
1.0211697 2.9373522 -0.60448295 32
1.1420587 3.2795477 -0.55002367 23
1.3187383 3.7805285 -0.49162099 21
1.5601929 4.4652057 -0.41381544 18
1.8793684 5.3666387 -0.29800096 2
2.5073364 7.1478362 -0.13221943 11
4.1500516 11.971122 0.2211569 25
4.066081 11.709089 0.64959395 17
4.0367541 11.605025 1.0749789 18
10.367534 29.738092 3.8669145 61
10.3922 29.758717 4.9924502 14
10.397715 29.724491 6.1211529 38
10.398812 29.677723 7.2600708 18
10.416281 29.661213 8.4235249 19
0.86154008 2.4329143 -0.6915645 42
0.94332063 2.6594296 -0.65145832 24
1.031938 2.9044337 -0.59914029 32
1.1623685 3.266115 -0.54908502 26
1.3357629 3.7450533 -0.48820862 22
1.5779237 4.4166789 -0.41032922 18
1.8916314 5.2860236 -0.29423279 2
2.5146472 7.0115728 -0.13002042 19
4.2040534 11.865318 0.21972579 29
4.1577125 11.715021 0.65147805 23
4.1430464 11.647894 1.0816028 20
10.603026 29.760332 3.8791015 24
10.61444 29.743101 5.0018363 14
10.625473 29.708485 6.1329832 39
10.620193 29.644768 7.2699685 37
10.662946 29.715094 8.4592419 58
0.87150687 2.408828 -0.68638813 34
0.9467929 2.6126401 -0.64156049 29
1.0635828 2.9285295 -0.60562783 23
1.1777138 3.2375004 -0.54564345 16
1.3571464 3.724684 -0.48674619 13
1.5888989 4.3512821 -0.40527418 15
1.9154509 5.2370505 -0.29224399 2
2.5148523 6.8647351 -0.12761199 16
4.2874732 11.837558 0.21976072 21
4.2393975 11.685709 0.65147805 17
4.212709 11.593207 1.0791624 16
10.862823 29.829214 3.8978693 37
10.827257 29.683117 5.0043392 29
10.847672 29.690784 6.1444311 26
10.883176 29.723616 7.3077602 38
10.884768 29.679827 8.4706297 58
0.89031339 2.4081204 -0.68794107 39
0.97313142 2.6278958 -0.6469593 37
1.065558 2.8713369 -0.5953241 32
1.2002856 3.2292001 -0.54564345 26
1.3713406 3.6834931 -0.48260266 23
1.6067017 4.3064828 -0.40213659 21
1.9330894 5.1730361 -0.28941786 2
2.5346773 6.7720976 -0.1262158 16
4.3922215 11.867349 0.22087765 36
4.3257351 11.668937 0.65221077 17
4.3087993 11.604606 1.0829972 18
11.078436 29.773111 3.9005504 75
11.06318 29.684549 5.0174794 14
11.068405 29.651123 6.1520638 39
14.720752 39.35157 9.6998901 43
8.1134148 21.654194 6.1961279 16
0.90027797 2.3837736 -0.68276465 29
0.98800653 2.6119246 -0.64470977 33
1.0981036 2.8968723 -0.60219324 27
1.2213997 3.2170477 -0.54501772 15
1.39773 3.6756845 -0.48284638 17
1.6303405 4.2784057 -0.40056777 23
1.9534891 5.1183634 -0.28711507 2
2.5733254 6.731823 -0.12579694 19
4.4784942 11.84575 0.22105218 29
4.4092107 11.644059 0.65252477 20
4.386878 11.566792 1.0822999 24
11.300125 29.732155 3.9054253 75
11.289825 29.658283 5.0262399 14
11.289129 29.609819 6.1596961 26
4.2238159 11.055293 2.7322557 12
8.0848713 21.127922 6.0615425 24
0.91828716 2.3810358 -0.68379998 31
0.99638534 2.5795138 -0.6384111 30
1.1211369 2.8964584 -0.60371965 23
1.2352608 3.1863408 -0.54126334 15
1.4140165 3.6417804 -0.47967777 19
1.680398 4.3189101 -0.40544853 18
1.9695946 5.0543547 -0.28428894 11
2.5817266 6.6149631 -0.12394699 13
nan nan nan nan
4.6258116 11.963208 0.67220312 6
4.4747181 11.554463 1.0840431 22
11.52177 29.68956 3.9103003 75
11.516641 29.630295 5.0350003 14
4.3073664 11.064938 2.3080258 8
4.1875815 10.735055 2.6602712 44
8.0479879 20.59952 5.9259214 22
0.93134892 2.3655791 -0.68121177 37
1.0122249 2.5670564 -0.63706142 36
1.1240146 2.8447399 -0.59456086 30
1.2320338 3.1133523 -0.5303129 19
1.4357494 3.6225927 -0.47845906 20
1.7053629 4.2941103 -0.4042283 15
1.978259 4.973671 -0.28052074 7
2.5797429 6.4760256 -0.12167817 26
3.7951214 9.6295547 0.18066731 1
4.6622925 11.811723 0.6655041 12
4.5882411 11.606318 1.0918871 17
13.800649 34.838726 4.6010556 15
11.738503 29.587738 5.0415702 14
4.3910284 11.051019 2.3114603 29
4.152854 10.430361 2.5918863 36
8.0134315 20.096014 5.797029 28
0.93487674 2.3267531 -0.67189431 34
1.0315768 2.5635428 -0.63796127 23
1.1365055 2.8186154 -0.59074467 31
1.2803671 3.1706152 -0.54157621 13
1.4490949 3.5830371 -0.47455928 27
1.7135993 4.2285509 -0.39917332 17
2.0136847 4.9615898 -0.28062543 4
2.5789595 6.3448548 -0.11954898 21
4.2301254 10.517467 0.19787538 3
5.7110238 14.178017 0.80105424 3
4.6669207 11.56846 1.0913641 21
14.052461 34.763618 4.6039805 15
4.4839301 11.075842 1.8925444 22
4.4717655 11.029189 2.3133683 17
4.1500177 10.215157 2.5455463 22
4.1965275 10.31415 2.9836662 34
0.95402873 2.3273199 -0.6739648 60
1.0376083 2.5274343 -0.63076282 25
1.1456993 2.7851932 -0.58540201 27
1.2881747 3.1268966 -0.53563172 15
1.4596889 3.5379672 -0.46992823 28
1.7103463 4.1373115 -0.39167792 21
2.0941112 5.0581331 -0.28690574 14
2.636209 6.358099 -0.12014236 15
4.1045589 10.002978 0.18873031 5
4.778924 11.629093 0.65890974 9
4.7862368 11.629565 1.1002541 19
8.89293 21.565165 2.8641734 48
8.869688 21.476892 3.6802776 23
4.2530146 10.282906 2.1630108 30
4.2152629 10.171533 2.5419469 28
4.2388148 10.213228 2.9629607 46
0.97323394 2.3277321 -0.6760354 67
1.0477 2.5021541 -0.6262638 32
1.1605572 2.7662654 -0.58311236 37
1.3061488 3.1087208 -0.53406733 17
1.4874344 3.5350087 -0.47090316 22
1.7244822 4.0903878 -0.38836598 22
2.1014059 4.9771504 -0.28313756 21
2.653276 6.2750769 -0.1189207 18
4.1982255 10.031264 0.18981238 7
5.0607243 12.07437 0.68612444 9
4.8673096 11.595867 1.1002541 19
9.0332527 21.478773 2.8610051 80
4.4955149 10.673547 1.8343508 22
4.3353767 10.27829 2.1683536 20
4.2239695 9.9946632 2.5050552 20
4.5246105 10.690421 3.1104875 16
0.98870325 2.3191037 -0.67551774 33
1.0620821 2.4876099 -0.62446415 29
1.1813867 2.7617054 -0.58387554 36
1.3215955 3.085001 -0.53156441 17
1.5026835 3.5026474 -0.46797833 16
1.7617224 4.1005216 -0.39045769 25
2.1297865 4.9476814 -0.28230017 21
2.6764402 6.2086539 -0.11801317 7
4.4086423 10.330934 0.19606033 10
5.239861 12.260972 0.69878972 6
4.9583306 11.585419 1.1025201 14
9.1884584 21.427956 2.8627112 8
4.5636849 10.627382 1.8318479 18
4.4768324 10.410093 2.2026992 20
4.4468322 10.325435 2.5954854 46
4.0687246 9.4293537 2.7517643 24
1.0025585 2.3068299 -0.6739648 45
1.076311 2.4729879 -0.62266457 27
1.1954511 2.7428012 -0.58158582 27
1.3409834 3.0723126 -0.53093863 17
1.5239186 3.4847963 -0.46700338 16
1.8118863 4.1373997 -0.39516413 17
2.1345351 4.8672233 -0.27853197 28
2.6794963 6.0982804 -0.11626793 10
4.3010507 9.891737 0.18827656 12
5.3614769 12.312917 0.70381403 3
5.1235466 11.744092 1.1209971 14
9.3674793 21.441317 2.8729482 8
4.6335421 10.590642 1.8309091 15
4.344471 9.9110813 2.1034784 20
nan nan nan nan
4.103272 9.3342361 2.732094 31
1.0057255 2.2716882 -0.66568261 34
1.0947 2.4691668 -0.62356436 29
1.2105843 2.7254181 -0.57967776 27
1.3479472 3.0303888 -0.525307 22
1.5548716 3.4906633 -0.46919701 27
1.8294553 4.101316 -0.39289808 19
2.1668327 4.848556 -0.27832264 30
2.7037902 6.0415707 -0.11553493 15
nan nan nan nan
5.2634077 11.86078 0.68005347 18
5.2583866 11.832752 1.1328503 6
4.6845918 10.521765 1.4141719 27
4.6824288 10.502105 1.8212101 33
4.5142851 10.110743 2.1523256 13
4.5458212 10.167073 2.5711906 36
4.530046 10.112838 2.969172 34
1.0247378 2.2716556 -0.66775316 30
1.1062957 2.4490325 -0.62041503 30
1.2282999 2.7153256 -0.57929617 30
1.3652842 3.0139453 -0.52405554 16
1.5677197 3.4544153 -0.46578467 16
1.847327 4.0648642 -0.39063203 21
2.1915128 4.8155165 -0.27727592 28
2.7069094 5.9370327 -0.11389441 17
4.2379618 9.3904095 0.1798296 7
5.3357944 11.806479 0.67900676 18
5.2644339 11.626961 1.1166394 19
4.709373 10.386585 1.4002789 35
4.7627845 10.489778 1.8246518 12
4.6879997 10.305937 2.2007911 38
4.7225146 10.367408 2.6301279 40
4.5891562 10.060678 2.9629607 22
1.0353378 2.2540951 -0.66464734 42
1.1253819 2.4467573 -0.62176478 39
1.2464035 2.7049017 -0.57891452 23
1.3862908 3.0043411 -0.52405554 23
1.5978564 3.4580812 -0.46773461 24
1.8790081 4.0591002 -0.39132929 21
2.1948392 4.7348657 -0.27350774 27
2.7228451 5.8658671 -0.11288217 15
4.3192863 9.3951149 0.1804928 10
5.5408664 12.035632 0.69439352 18
4.9005351 10.630077 1.02408 13
4.7634635 10.313804 1.3949165 40
4.6791868 10.117409 1.7655195 15
4.7077141 10.165117 2.1775124 28
4.9768534 10.726626 2.7300062 30
5.1509256 11.086597 3.2756138 6
1.0543244 2.2538109 -0.66671789 42
1.1325175 2.4176638 -0.61636597 41
1.251912 2.6676977 -0.57280862 33
1.4038708 2.9874384 -0.52280408 27
1.6228045 3.4486377 -0.46797833 17
1.8911561 4.0116429 -0.38801736 22
2.217608 4.6977549 -0.27225167 24
2.7603092 5.8394856 -0.11274255 15
4.1193571 8.7978859 0.16956758 6
5.6188149 11.984001 0.69366086 9
4.9974847 10.644303 1.0287864 33
4.8801312 10.375502 1.4078349 35
4.6874204 9.9522514 1.7423673 13
4.7869396 10.14976 2.1813285 13
4.8226848 10.207077 2.6062829 18
4.4177008 9.3372793 2.7678108 13
1.0758476 2.2586048 -0.67034137 39
1.1627904 2.4378414 -0.62356436 41
1.2705069 2.6588922 -0.57280862 42
1.4153156 2.9579632 -0.51936251 25
1.6434118 3.4300628 -0.46700338 12
1.921703 4.0037308 -0.3885403 20
2.2373726 4.6551566 -0.27068159 22
2.7064857 5.6236668 -0.10893792 16
4.3734469 9.1732435 0.17738625 12
5.7075052 11.955297 0.69428885 15
5.1679177 10.810481 1.0483093 6
4.9087143 10.249873 1.3954041 16
4.6653867 9.7287035 1.7088903 10
3.4341974 7.1517053 1.5421184 24
4.8414497 10.06428 2.5783892 22
4.4727192 9.2853251 2.7615993 9
1.0781026 2.2232265 -0.66205913 39
1.1653107 2.3998632 -0.61591601 30
1.2847432 2.6411307 -0.57090056 27
1.4359303 2.9480109 -0.51936251 31
1.6464316 3.3756862 -0.46115363 20
1.9294922 3.9490433 -0.38453114 22
2.2548978 4.6089234 -0.26890215 20
2.7404048 5.5938597 -0.1087285 4
4.3561783 8.9751816 0.17414011 14
5.7314639 11.793008 0.68717122 9
5.1456165 10.573489 1.0287864 7
4.8853331 10.02086 1.3688365 14
4.9429011 10.125483 1.7846047 4
3.667685 7.5032477 1.6234031 46
4.7007613 9.5996952 2.4677131 30
7.6995969 15.702968 4.6861777 33
1.0910323 2.210449 -0.66050619 58
1.1898074 2.4073925 -0.61996514 31
1.308377 2.6426539 -0.57319027 31
1.4441925 2.9131367 -0.51498228 25
1.6734887 3.3712223 -0.46212861 23
1.9419316 3.9051495 -0.38156784 24
2.2959194 4.6109486 -0.2699489 20
2.7267447 5.469007 -0.10666911 19
4.5498128 9.2098932 0.17930602 15
5.1184955 10.347395 0.60500371 25
5.0884271 10.273072 1.0029882 9
5.159874 10.399057 1.4253839 11
4.8904185 9.8430586 1.7408029 7
3.6508954 7.3385973 1.5932552 14
4.8050418 9.6416426 2.4870591 12
4.5518928 9.1217155 2.7315764 13
1.1107719 2.2114103 -0.6630944 63
1.1960769 2.3781366 -0.61456633 27
1.320611 2.6211822 -0.57051897 38
1.4698335 2.9135654 -0.51685953 31
1.684453 3.3346508 -0.45871624 23
1.9655491 3.8843863 -0.38087061 26
2.3081946 4.5556121 -0.2676461 27
2.79562 5.5104699 -0.10785587 21
4.4289722 8.8098602 0.17211564 14
5.1250529 10.181178 0.59736264 20
5.2353511 10.386747 1.0176305 41
5.019403 9.94104 1.3673741 16
3.942971 7.7989917 1.3841324 5
3.4706066 6.8557625 1.4936529 9
4.7453184 9.357585 2.4222732 42
4.891849 9.6340294 2.8951499 14
1.1217889 2.1950002 -0.66050619 55
1.2073249 2.359319 -0.61186689 41
1.3343989 2.6031637 -0.56861085 27
1.4865286 2.8962042 -0.51560807 25
1.701339 3.3104515 -0.45701009 20
1.9810023 3.8496592 -0.37877885 26
2.3280461 4.5163078 -0.26628536 18
2.8138444 5.4517255 -0.10708796 16
4.5131345 8.8232327 0.17298825 11
5.1941853 10.141595 0.59715331 20
nan nan nan nan
4.9707623 9.6762114 1.3356882 18
4.9189467 9.5630236 1.7032586 19
3.6019838 6.9936848 1.5291433 31
4.8758917 9.4549665 2.4560158 18
nan nan nan nan
1.1290653 2.1716888 -0.65584749 39
1.2345645 2.3715756 -0.61726576 27
1.3457363 2.5818331 -0.56593949 38
1.517177 2.9070325 -0.51936251 23
1.7179725 3.2861779 -0.45530388 23
1.9967434 3.8145518 -0.37668711 20
2.3448262 4.4738216 -0.26471528 20
2.8202293 5.3717518 -0.1059012 16
4.448514 8.5528107 0.1682761 11
5.2640142 10.107779 0.59725797 2
5.2499247 10.063568 0.99305254 5
3.542098 6.7811794 0.93936896 7
3.7461808 7.162745 1.2802597 12
3.688076 7.039669 1.5447898 23
3.6744258 7.0046906 1.8261527 34
5.0367923 9.5896101 2.9023969 24
1.1393064 2.1554141 -0.65325934 37
1.2397388 2.3424489 -0.61186689 36
1.3591291 2.5637031 -0.56403142 28
1.5189103 2.8614745 -0.51310509 11
1.739368 3.272656 -0.45506018 37
2.0011327 3.7604194 -0.37267792 16
2.3694255 4.4450054 -0.26398259 9
2.8350747 5.3118544 -0.1050984 21
4.0415049 7.6395178 0.1508586 1
5.2344241 9.8819313 0.58605814 20
6.6084437 12.46013 1.233951 2
5.5200043 10.390375 1.4446392 29
5.0809412 9.5518475 1.7135834 10
3.6454637 6.8445873 1.5073912 13
3.6770885 6.8952608 1.8041075 6
nan nan nan nan
1.1424354 2.1252868 -0.64653003 30
1.256063 2.3337364 -0.61186689 36
1.3653731 2.5336523 -0.559452 29
1.5308498 2.8371608 -0.51060218 30
1.7536782 3.2447159 -0.45286649 20
2.032078 3.7551191 -0.37354952 15
2.4062853 4.4410677 -0.26471528 6
2.853966 5.2585392 -0.1044352 22
4.4286852 8.2352915 0.16321491 11
5.4682121 10.155578 0.60448033 8
5.35886 9.9358654 0.9876489 11
3.7041156 6.8592048 0.9571619 27
5.0932274 9.419734 1.6960627 10
3.6314507 6.7050333 1.4822044 55
3.6498909 6.7306628 1.7676655 4
5.1952648 9.5684862 2.9174082 36
1.1720695 2.1443822 -0.65481222 40
1.2667108 2.3146544 -0.60916752 31
1.3778051 2.5134883 -0.55716228 34
1.536855 2.800159 -0.50590914 25
1.7877618 3.2532697 -0.45579138 17
2.0425642 3.7108092 -0.37058622 16
2.4100463 4.3730078 -0.2616798 14
2.8838425 5.2262316 -0.10419086 18
4.2187896 7.7121687 0.15344156 11
5.5273118 10.091664 0.60301495 20
5.2786446 9.6256866 0.96045625 5
3.7253883 6.7820668 0.95009351 13
5.3470845 9.7222977 1.7573849 6
3.6440766 6.6176081 1.4684662 19
3.6998434 6.7077856 1.7685653 23
4.9180503 8.9053564 2.7258823 20
1.1851348 2.1327698 -0.65377688 33
1.2781019 2.29724 -0.60691798 33
1.395319 2.503808 -0.55716228 24
1.5505912 2.7790112 -0.5040319 25
1.8075243 3.2355113 -0.45506018 27
2.0625832 3.6860271 -0.36954033 22
2.4248979 4.3281975 -0.26000506 8
2.9359138 5.2338748 -0.10474934 23
4.3473644 7.8170938 0.15612923 9
5.6131768 10.08075 0.60468972 11
5.4543767 9.7835054 0.97997916 10
3.9323392 7.0418663 0.99031037 30
5.2673354 9.4209309 1.709516 27
3.6748435 6.5645967 1.4623603 16
3.6684291 6.5424109 1.7316734 40
5.2136922 9.2868881 2.853739 25
1.1999954 2.124444 -0.65377688 46
1.2854747 2.2729945 -0.60286885 31
1.4050237 2.48034 -0.55410933 27
1.5748272 2.7767098 -0.50559622 23
1.8153651 3.1969206 -0.45140409 26
2.0895951 3.6753662 -0.36988899 16
2.4520926 4.3059554 -0.25969106 6
2.9505913 5.1750326 -0.10398144 20
4.0928254 7.2399483 0.14516912 16
5.5437121 9.7945013 0.58982629 8
3.700361 6.5297265 0.65663135 3
3.764843 6.6327138 0.9364441 12
nan nan nan nan
3.6399965 6.3971529 1.4306859 22
3.7582116 6.5968738 1.7528187 31
5.296586 9.2821445 2.863574 23
1.2138349 2.1143401 -0.65325934 45
1.302282 2.265655 -0.60331875 33
1.4346033 2.4928405 -0.55907035 23
1.6074967 2.7898889 -0.50997645 23
1.8267249 3.1652565 -0.44872296 31
2.1092224 3.6503377 -0.36884311 16
2.4513392 4.2373018 -0.25655088 21
2.9655919 5.1179752 -0.10324844 24
4.0962024 7.1321526 0.14356351 22
5.7456603 9.9920101 0.60406166 5
5.4253769 9.4197969 0.95104349 17
2.5852206 4.4831533 0.63542682 10
5.2801814 9.145545 1.6725975 10
3.6619668 6.3324938 1.4219086 13
3.7514508 6.4794044 1.7285241 19
5.3819332 9.2843161 2.8754797 40
1.2262533 2.1026907 -0.65222406 45
1.3284835 2.2752495 -0.60826772 31
1.4341329 2.4522588 -0.55220127 27
1.6119642 2.7530279 -0.50528342 21
1.8472238 3.1510365 -0.44847921 28
2.1053975 3.5856988 -0.36378807 24
2.4778247 4.2149196 -0.25623688 14
2.9750018 5.0545864 -0.10237581 22
4.1186748 7.0567532 0.14262106 27
5.8011661 9.927515 0.60259628 5
nan nan nan nan
2.5823326 4.406764 0.62713969 12
3.8944697 6.6379638 1.2189375 17
4.0709076 6.9303784 1.5623442 16
3.7481701 6.3707576 1.7064788 34
5.5201507 9.3713598 2.9143026 12
1.2409019 2.094079 -0.65222406 42
1.3403568 2.2592161 -0.60646808 21
1.4682676 2.4708788 -0.55868876 28
1.6170048 2.7179399 -0.50090319 25
1.8783199 3.1534131 -0.45067286 22
2.1181314 3.5503798 -0.3616963 29
2.479537 4.1512218 -0.25341073 6
3.0040591 5.023396 -0.10216638 20
4.1351995 6.9727883 0.14150412 35
4.2449522 7.1493201 0.4357492 5
2.6307614 4.4254313 0.45042086 11
2.5399125 4.2658234 0.60959053 16
4.0064631 6.7209039 1.239274 10
4.0789456 6.8343563 1.5470794 24
3.8815448 6.4933028 1.7465202 23
5.9852509 10.000628 3.1229107 5
1.2534982 2.0820549 -0.65118873 29
1.3460364 2.2331135 -0.60196906 11
1.4925834 2.4723339 -0.56136012 36
1.6298089 2.6964414 -0.499026 30
1.8735679 3.096066 -0.44433567 26
2.1408007 3.5320985 -0.36134771 29
2.4846268 4.0945382 -0.25100327 6
3.0276349 4.9835024 -0.10178243 20
4.1435328 6.8769484 0.14014283 27
2.6183307 4.3404546 0.26565734 14
2.4401388 4.0402784 0.41294393 15
2.549083 4.2140179 0.60471576 23
5.9300108 9.7916203 1.8130757 9
3.7438264 6.174499 1.403591 23
3.9470127 6.4993591 1.7555182 23
4.199204 6.9064779 2.1657977 21
1.2649794 2.0683088 -0.64963585 39
1.374823 2.2452672 -0.60781777 25
1.47491 2.4049513 -0.54838508 30
1.6527271 2.6917319 -0.50027746 27
1.8972144 3.0862937 -0.44482315 30
2.1622736 3.511977 -0.36082479 28
2.5089595 4.0702915 -0.25058457 14
3.0644529 4.9656477 -0.10185225 20
4.1914387 6.8478551 0.14014283 19
2.6036959 4.2488427 0.26115644 9
2.347424 3.8261478 0.39272377 13
2.5462244 4.1436868 0.5971598 11
4.44666 7.2279406 1.344085 19
3.8136134 6.1916718 1.4135132 25
3.9503386 6.4036469 1.7370722 23
4.25036 6.8819265 2.1673508 9
1.2742918 2.0512216 -0.64704764 31
1.383261 2.2240303 -0.6046685 42
1.4937398 2.3979287 -0.54914832 24
1.6704334 2.678452 -0.49996459 23
1.9145093 3.0662384 -0.44384819 17
2.1772294 3.4815934 -0.35925597 22
2.5086963 4.0069709 -0.24775843 20
3.0778017 4.9102473 -0.10115415 20
4.2497015 6.8354087 0.14049187 6
2.4412048 3.9219613 0.24210617 16
2.3456256 3.7640123 0.38801736 15
2.5351508 4.0618181 0.58789778 11
4.2803268 6.8499517 1.2793212 80
4.134757 6.6092892 1.5154052 20
4.0249577 6.4238 1.7501193 17
5.477849 8.7324381 2.7621171 27
1.2823948 2.0324731 -0.64394182 31
1.3945899 2.2077293 -0.60286885 21
1.4653105 2.3160999 -0.53273875 18
1.680637 2.6533737 -0.49746165 25
1.9209872 3.0293269 -0.44043583 24
2.191869 3.4511716 -0.35768715 26
2.5216057 3.9657636 -0.24629304 16
3.1130803 4.890327 -0.10118905 22
2.6926301 4.2642622 0.088029936 13
2.4941397 3.9453399 0.24461828 13
2.3782392 3.7576463 0.38906324 30
2.6048927 4.1094103 0.59740359 22
4.3375669 6.8349147 1.282137 10
3.9249566 6.1775932 1.4226719 46
4.0833063 6.4169168 1.755968 19
6.6389418 10.421048 3.3108134 6
1.3017641 2.0316038 -0.64653003 30
1.401551 2.1848176 -0.59926963 40
1.5260139 2.3751872 -0.54876673 18
1.6895013 2.6266243 -0.49464583 18
1.9388635 3.0108359 -0.43970463 16
2.1829224 3.385936 -0.35245782 19
2.5481489 3.9463835 -0.24618836 14
3.1352062 4.8499999 -0.1008051 9
2.5560997 3.9861283 0.082654595 16
2.3813508 3.7093394 0.23101093 13
2.3354712 3.6336844 0.37790731 13
2.5980606 4.0360422 0.58936024 11
4.1861434 6.4956255 1.2239434 12
4.0701685 6.3084116 1.4593072 11
nan nan nan nan
5.9948339 9.2666082 2.9572666 28
1.3148611 2.0208476 -0.64601237 33
1.4125152 2.1684482 -0.59747005 21
1.5528702 2.3811896 -0.55258286 25
1.71814 2.6316042 -0.49777454 22
1.9587495 2.9955652 -0.4394609 19
2.2141461 3.3822823 -0.35367799 17
2.5322537 3.8638003 -0.24210617 20
2.6730096 4.0723672 -0.085028127 11
2.5646305 3.940145 0.082061216 11
2.4207213 3.7147963 0.23237166 15
2.3379147 3.5822525 0.37424675 20
2.5831268 3.9534533 0.57985443 22
6.5021882 9.9401731 1.8812811 1
4.1700559 6.3652382 1.4791514 11
4.088027 6.2329068 1.7208757 17
5.7884426 8.8154182 2.8257864 38
1.3296517 2.0134621 -0.64653003 35
1.4293921 2.1620345 -0.59836984 40
1.5466933 2.3359151 -0.5445689 23
1.7572063 2.6508291 -0.50371903 16
1.9725083 2.972239 -0.43799844 16
2.2432191 3.3750391 -0.35454956 15
2.5392504 3.8160975 -0.24022207 18
2.6031063 3.9076254 -0.081956498 21
2.4641805 3.7286232 0.078012258 10
2.3992076 3.6261816 0.22787078 15
2.3765471 3.5878491 0.3765128 37
2.5601847 3.8592305 0.56864244 15
6.2905574 9.4716368 1.8008738 3
4.1871972 6.2974696 1.4699926 10
4.160604 6.2480102 1.733023 42
6.8357129 10.2536 3.3020134 20
1.3361454 1.9928982 -0.64290655 31
1.4238161 2.1212599 -0.5898217 34
1.5662506 2.3299477 -0.54571378 31
1.7591273 2.6139135 -0.499026 20
2.0131757 2.9880295 -0.44238573 13
2.2388649 3.3180075 -0.35019177 29
2.5345242 3.7519381 -0.23729126 12
2.5563874 3.780031 -0.079652779 11
2.3954458 3.5701835 0.075045347 32
2.3620973 3.5165 0.22200914 30
2.368181 3.5215721 0.37128347 17
2.5415995 3.7737563 0.55864912 23
6.3841362 9.4684362 1.8086954 18
4.2145834 6.2436752 1.4642683 23
4.1626482 6.1574621 1.7159268 42
6.189239 9.144908 2.9588194 20
1.340242 1.9691488 -0.63824779 35
1.4671199 2.1531396 -0.60151911 34
1.5846918 2.3221998 -0.54647696 32
1.7617327 2.5787339 -0.49464583 26
2.0250218 2.9607937 -0.44043583 20
2.2732351 3.3187335 -0.35193488 14
2.5764709 3.7572114 -0.23875666 12
2.5578156 3.7258227 -0.078884877 14
2.4619637 3.6145239 0.076336823 15
2.3877149 3.501574 0.22211383 27
2.3848467 3.4934335 0.37006328 30
2.5096226 3.6707091 0.54597467 13
6.5973558 9.6388121 1.8499942 4
4.5144172 6.5882115 1.5524222 13
4.2077394 6.131465 1.7168266 48
6.3688893 9.2702579 3.0136893 30
1.3506624 1.954976 -0.63669485 45
1.4632709 2.1155984 -0.59387082 39
1.5818594 2.2836449 -0.53998947 42
1.7774402 2.5631263 -0.4940201 26
2.0479054 2.9498467 -0.44092333 13
2.2849751 3.2864234 -0.35019177 10
2.5604212 3.6784806 -0.2348838 22
2.5997701 3.7308445 -0.079373546 1
2.4848652 3.5939574 0.076267019 12
2.3825495 3.4421203 0.21939236 30
2.3535721 3.396455 0.36152202 17
2.5702732 3.7036557 0.55353063 16
3.2178435 4.6315985 0.89324087 3
4.3181639 6.2083979 1.4699926 21
4.5266738 6.4985042 1.8284023 23
6.233439 8.9387579 2.9199965 40
1.3598411 1.9391721 -0.6346243 27
1.4768862 2.1037357 -0.59342092 34
1.6180885 2.3014543 -0.54685861 29
1.7952909 2.5506551 -0.4940201 26
2.0444376 2.9014008 -0.43580481 16
2.3003998 3.2610269 -0.34914589 5
2.5572271 3.6197357 -0.23226699 18
3.2642915 4.6154504 -0.098675907 6
2.4731355 3.5241444 0.075150065 26
2.3801129 3.3878162 0.21698491 20
2.3749325 3.376683 0.36117339 15
2.5400548 3.6060979 0.54158741 11
2.9575362 4.1941271 0.81283355 19
4.5527511 6.4491539 1.5344861 12
4.4752059 6.3322682 1.7901605 40
nan nan nan nan
1.3811871 1.9406488 -0.63824779 35
1.4937977 2.0965488 -0.59432071 33
1.6177557 2.2680104 -0.54151595 42
1.8183509 2.5464137 -0.49558446 22
2.046169 2.8612213 -0.431905 20
2.3057144 3.2205861 -0.34653121 11
2.5980973 3.6249712 -0.2337324 22
2.5723145 3.5837152 -0.077000014 9
2.4263177 3.4078598 0.073020868 23
2.3718181 3.3276234 0.21415874 16
2.4181268 3.3875883 0.36413667 15
2.5564613 3.5774205 0.53988123 12
3.0067024 4.2028184 0.81846523 13
4.383842 6.1187763 1.4631234 27
7.664299 10.685674 3.0359395 19
6.3279228 8.8127327 2.9070556 26
1.3683547 1.8951784 -0.62634212 38
1.5103171 2.0894909 -0.59522051 34
1.6335498 2.2566612 -0.54151595 30
1.8256514 2.5192611 -0.49276862 20
2.076587 2.8613269 -0.43409866 19
2.3094029 3.178622 -0.34374225 19
2.62099 3.6035159 -0.23352307 20
2.8445199 3.9051023 -0.08433003 15
2.4945538 3.4524302 0.07434725 16
2.396162 3.3126025 0.21426344 12
2.3955555 3.3081152 0.35733855 13
2.5813742 3.5594859 0.53988123 13
2.923398 4.026669 0.78811693 9
4.4657063 6.1420112 1.4760985 22
7.6504083 10.510589 3.0012972 38
nan nan nan nan
1.3933017 1.9009193 -0.63151848 38
1.5252304 2.07863 -0.59522051 30
1.6620495 2.2626064 -0.54571378 27
1.8389499 2.4997678 -0.49151716 27
2.0953348 2.8451612 -0.43385491 12
2.3232615 3.1511962 -0.34252208 17
2.6739945 3.621623 -0.23593052 20
2.8122823 3.804744 -0.082584791 15
2.5020416 3.4123538 0.073858589 25
2.4162574 3.2905428 0.21394941 24
2.4109058 3.2796512 0.35611835 30
2.6085138 3.544575 0.54036868 13
2.8443182 3.8593504 0.75933295 25
4.7753959 6.4724598 1.563489 30
4.6103091 6.2418623 1.7915102 6
3.5476117 4.7960749 1.5984664 12
1.3788683 1.8539439 -0.61909521 31
1.5292295 2.0538642 -0.59117138 31
1.6758507 2.2475076 -0.54495054 28
1.8374504 2.4615407 -0.48651123 27
2.0949459 2.8034313 -0.42971134 15
2.3284955 3.1125648 -0.34008169 13
2.6477199 3.5341346 -0.23142964 22
2.9083633 3.877805 -0.084609263 10
2.5192318 3.3847375 0.073649161 13
2.3783123 3.1919131 0.20861115 21
2.4611423 3.2994716 0.36012751 11
2.5969818 3.4765182 0.53281283 13
2.8995829 3.8773677 0.76684189 13
4.8181157 6.4358182 1.5627258 15
4.6327391 6.1814528 1.7834121 10
3.5728903 4.7603755 1.594843 7
1.3801409 1.8288522 -0.61391884 65
