# .PCD v0.7 - Point Cloud Data file format
VERSION 0.7
FIELDS x y z intensity
SIZE 4 4 4 4
TYPE F F F F
COUNT 1 1 1 1
WIDTH 1461
HEIGHT 1
VIEWPOINT 0 0 0 1 0 0 0
POINTS 1461
DATA ascii
2.6322947 2.786494 0.47065943 15
4.9444866 5.2286472 1.1397816 8
nan nan nan nan
3.3677981 3.5526421 1.1301541 27
3.7646608 3.9671247 1.4654335 13
1.5801535 1.6564283 -0.61340117 26
1.7078942 1.7884592 -0.57092583 28
1.8724858 1.9580746 -0.52663285 29
2.0066528 2.0961759 -0.45960453 11
2.288198 2.3877778 -0.40606871 20
2.5286617 2.6350214 -0.31951293 25
2.9208784 3.0405474 -0.22096242 42
2.9038577 3.0196631 -0.073125578 10
2.5475705 2.6686771 0.064399377 28
2.5251637 2.6424339 0.19154961 32
2.5341594 2.6490691 0.32073313 10
2.615979 2.7307799 0.46432224 16
4.9466858 5.1583595 1.1319599 7
nan nan nan nan
3.8854597 4.0418229 1.2943684 15
3.1332066 3.2558832 1.2107556 6
1.5863063 1.6398025 -0.61133063 36
1.7244053 1.780692 -0.57227552 37
1.8943094 1.9534116 -0.52892256 10
2.0143573 2.0750301 -0.45804018 9
2.282676 2.3489683 -0.40216887 13
2.5511646 2.6215875 -0.32003587 12
2.8667765 2.9428272 -0.21531016 35
2.8397052 2.9119859 -0.070996389 31
2.6662827 2.7542725 0.066912524 10
2.5546703 2.6362135 0.19238698 38
2.7481992 2.8329504 0.34531105 9
2.652961 2.7309606 0.46749085 14
3.1716075 3.2614372 0.72053725 18
3.2195742 3.3072963 0.89718395 26
3.7054546 3.8011029 1.2255335 10
3.1045883 3.181392 1.1910853 15
1.6031263 1.634205 -0.61340117 24
1.7245053 1.756097 -0.5682264 48
1.8789932 1.9107431 -0.52090853 24
2.0177083 2.0496547 -0.45553723 9
2.2934458 2.3273191 -0.40119389 9
2.5400147 2.5739334 -0.31637534 27
2.8956716 2.9312682 -0.21593818 26
2.7854416 2.8167319 -0.069146432 28
2.5999925 2.6485443 0.064783335 27
2.5352139 2.5798531 0.18956086 22
2.6463499 2.6901269 0.33014596 7
2.717936 2.7590394 0.47553423 27
3.1485293 3.1927993 0.71021259 25
nan nan nan nan
3.2304783 3.2679086 1.0608692 24
3.1348758 3.1678791 1.1941911 24
1.6049597 1.6133852 -0.60977769 27
1.7504748 1.7578226 -0.57272542 36
1.8950596 1.9003593 -0.52167183 32
2.0375507 2.0411103 -0.45678869 9
2.2984123 2.3000181 -0.39924401 5
2.5536945 2.5519128 -0.3158524 16
2.8425627 2.8376069 -0.21049525 42
2.7852147 2.7774491 -0.068657771 19
2.6141872 2.6260769 0.064678617 13
2.5729001 2.5818973 0.19102626 45
2.7058723 2.7124922 0.335201 24
2.738533 2.7414031 0.47577798 13
3.4570851 3.4570863 0.7743507 36
nan nan nan nan
3.0959353 3.0883784 1.0095805 9
3.0638652 3.0531876 1.1589917 33
1.6189281 1.6048614 -0.61081296 14
1.7696277 1.7524153 -0.57497495 22
1.9082804 1.8870828 -0.52167183 36
2.0475349 2.0226712 -0.45585006 9
2.3087614 2.2783384 -0.39826906 4
2.5742862 2.5368197 -0.31620103 10
2.92066 2.87514 -0.21478678 19
2.7090089 2.6639962 -0.066319145 28
2.6253524 2.6007271 0.064504094 24
2.6107376 2.5835404 0.19249167 31
2.7020721 2.6711245 0.332412 12
2.736414 2.7012987 0.47212186 24
3.2518733 3.2067831 0.72335303 12
3.2112076 3.1633668 0.87619489 33
3.3160782 3.2621169 1.0739164 68
nan nan nan nan
1.6273297 1.5908191 -0.60977769 32
1.7790301 1.7372953 -0.5740751 22
1.9312472 1.8833092 -0.52434313 33
2.0587759 2.0055707 -0.45522434 9
2.333147 2.2704716 -0.39973149 5
1.9903879 1.9342164 -0.24281588 3
2.9091337 2.824074 -0.21248402 43
2.7462032 2.6631162 -0.066772908 12
2.6463058 2.5851302 0.064573906 22
2.7330573 2.6670811 0.20013271 16
2.6421864 2.5757046 0.32282487 18
2.7608957 2.6876681 0.47309685 22
3.1509752 3.0641897 0.69613349 22
3.2839088 3.1901186 0.88993317 15
nan nan nan nan
3.4668958 3.3596568 1.2935777 27
1.6356137 1.5767386 -0.60874242 27
1.7714628 1.7059093 -0.5677765 32
1.9485933 1.8738631 -0.52548802 31
2.0698783 1.9884118 -0.45459861 7
2.3288891 2.234885 -0.39631912 12
2.0063841 1.9233811 -0.24316452 3
2.987931 2.8603218 -0.21677555 12
2.7603924 2.6397328 -0.06666819 15
2.6527691 2.5554924 0.064294666 28
2.6278467 2.5288327 0.19113094 11
2.6313782 2.5295792 0.31933865 9
2.8153918 2.702697 0.47919029 12
3.5301514 3.3852966 0.77466357 55
3.8178918 3.6573949 1.0276973 10
3.5972717 3.4424391 1.1494999 19
3.5992064 3.4394767 1.3339534 39
1.6381807 1.5572953 -0.6056366 38
1.7875684 1.6975263 -0.56912625 33
1.9385128 1.8389382 -0.51938212 25
2.0876656 1.9783539 -0.45553723 15
2.3473172 2.221302 -0.3968066 12
2.5873222 2.4458559 -0.31149462 25
2.9739316 2.8083797 -0.2143681 29
2.9664292 2.7973771 -0.071170911 16
2.7063401 2.5718155 0.065167286 10
2.6710711 2.5356395 0.19301502 7
2.6460819 2.5084054 0.31898999 36
2.7746286 2.6275067 0.46919701 20
3.3665614 3.1847117 0.73399061 27
3.281034 3.0994668 0.87733978 7
3.6467302 3.4413145 1.1575983 11
3.0925789 2.9153183 1.1388038 17
1.6473337 1.544787 -0.60511893 30
1.8033483 1.6893162 -0.57047588 41
1.9470036 1.8213357 -0.51823723 19
2.0177164 1.8855045 -0.43739083 13
2.3725417 2.2147539 -0.39851278 13
2.6014199 2.4250162 -0.31114599 25
2.939384 2.7371881 -0.21049525 28
3.0117564 2.8016365 -0.071799204 40
2.9547744 2.7689016 0.07068225 10
2.6668372 2.4964561 0.19144495 13
2.7169375 2.5406883 0.32543954 22
2.8045099 2.6189122 0.47114691 18
3.2933772 3.0722008 0.7133413 16
3.6941638 3.442456 0.98152149 23
3.6364272 3.3839102 1.1468005 22
3.1043665 2.8857651 1.135698 22
1.6438944 1.5201329 -0.59994256 24
1.8079406 1.6700736 -0.5682264 34
1.943797 1.7930571 -0.51403946 45
2.0787678 1.9155471 -0.44771552 10
2.3937867 2.2035151 -0.39948773 15
2.6226881 2.4108398 -0.31166893 24
2.9554808 2.7138975 -0.21028589 45
2.8986161 2.6588852 -0.068657771 11
2.7243607 2.5174923 0.064748429 12
2.7487741 2.537385 0.19605052 15
2.9045162 2.6783321 0.34565967 9
2.7935195 2.5723755 0.46627215 11
3.3365519 3.0691936 0.71803427 12
3.5677638 3.2784314 0.94183326 11
7.209363 6.6154342 2.2589588 2
7.1346517 6.54 2.5933669 21
1.6573219 1.5112227 -0.60097784 30
1.8080307 1.6469131 -0.56462723 24
1.9461014 1.7701956 -0.5113681 21
2.0994 1.9076302 -0.44927984 10
2.4047022 2.1827471 -0.3987565 13
2.6866922 2.4352906 -0.31724688 10
2.9595485 2.6797936 -0.20923917 32
3.0238843 2.735168 -0.071170911 13
2.7655194 2.5199611 0.065306902 1
2.7029102 2.4603219 0.19154961 27
nan nan nan nan
2.7599728 2.5061047 0.45774129 18
3.059418 2.775085 0.65420902 9
3.6574891 3.3140817 0.95938772 23
3.8278191 3.4635594 1.1917908 9
3.1558204 2.852505 1.1398392 38
1.6635215 1.4957415 -0.59942496 33
1.8136851 1.6290416 -0.56282759 33
1.9496434 1.748701 -0.50907844 27
2.1214938 1.9008362 -0.45115703 9
2.4050906 2.1526668 -0.39631912 12
2.7080848 2.4204581 -0.31776983 4
2.9856346 2.6657183 -0.20976254 15
2.9682882 2.6474388 -0.069425672 17
2.9615402 2.6609726 0.069495484 6
2.6977253 2.421381 0.18997954 32
2.6612604 2.3861368 0.31271479 9
2.7759223 2.4854512 0.45749757 16
3.127305 2.7971168 0.66453367 19
3.3145308 2.9614527 0.86398321 8
3.2426391 2.8931508 1.0032817 31
nan nan nan nan
1.6724784 1.4828089 -0.59890729 35
1.8206372 1.6124638 -0.56147784 37
1.9559205 1.7298456 -0.50755197 30
2.1317508 1.8833642 -0.4505313 9
2.4141068 2.1305695 -0.3953442 15
2.7155306 2.394063 -0.31672394 3
3.0581391 2.6923213 -0.21353073 21
2.9776886 2.6187282 -0.069216244 17
2.7869635 2.4691675 0.064992763 13
2.754946 2.4382279 0.19280569 11
2.7808483 2.4585569 0.32474229 24
2.970293 2.6223536 0.48650244 15
3.3912082 2.9908049 0.71615702 16
3.3439641 2.9460278 0.86627293 37
3.8795991 3.4143155 1.1931405 9
nan nan nan nan
1.6769718 1.4660108 -0.59683669 43
1.8318498 1.5997142 -0.56147784 35
1.9661714 1.7152005 -0.50717038 14
2.1251616 1.851938 -0.446464 12
2.43641 2.1201797 -0.39656287 13
2.7231562 2.367204 -0.31567809 4
3.0779023 2.6727521 -0.2136354 47
3.1635971 2.7432926 -0.07309068 13
3.0130053 2.6330454 0.069844536 6
2.8015709 2.4456885 0.19489913 8
2.7378695 2.3867154 0.31776983 21
2.7844768 2.4247806 0.453354 13
3.3697553 2.9313526 0.70739675 42
3.2829318 2.8517985 0.84528393 26
nan nan nan nan
1.9370948 1.6791487 0.68690574 7
1.6825219 1.4507782 -0.59528387 24
1.8486018 1.5922961 -0.56327748 41
1.9706551 1.6950321 -0.50526226 12
2.1140656 1.8164598 -0.44145811 13
2.4477713 2.1009619 -0.3960754 11
2.7044168 2.3187866 -0.31166893 13
3.0782807 2.6356113 -0.21237932 33
3.2703369 2.7970829 -0.075115159 14
2.9873819 2.5740921 0.068832293 11
2.8715575 2.471673 0.19856264 3
2.7797353 2.3901052 0.32073313 11
3.0513501 2.6199455 0.49381462 13
3.094758 2.6544027 0.64576155 16
nan nan nan nan
1.9705555 1.6865857 0.59881973 9
1.9575809 1.6731161 0.69001162 6
1.6764199 1.4252315 -0.58958983 31
1.8492762 1.5705205 -0.56012815 39
1.9791536 1.6790378 -0.50449902 10
2.1203539 1.7969183 -0.44020665 13
2.4502568 2.0735631 -0.39412549 11
2.7266252 2.3049948 -0.31236616 13
3.1510835 2.6609871 -0.21614751 19
3.2057045 2.7032835 -0.07319539 19
3.0520689 2.5938439 0.069914341 7
2.8350241 2.4068301 0.19489913 7
2.7613981 2.3410091 0.31672394 40
2.9100511 2.4644141 0.46822205 9
2.0329413 1.7197953 0.42174736 2
1.9796661 1.6723553 0.50373578 9
1.9971753 1.6853553 0.60331875 6
1.9792643 1.6684674 0.69363505 10
1.7142076 1.4373722 -0.59942496 33
1.8524532 1.5516407 -0.55787861 37
1.9817911 1.6576233 -0.50220931 10
2.144973 1.7922051 -0.44270959 16
2.2174256 1.8507712 -0.3546398 22
2.745312 2.2889335 -0.31271479 24
3.1895378 2.6555367 -0.21750826 19
2.933454 2.4397278 -0.066598386 16
3.0225878 2.5326595 0.068832293 13
2.8379748 2.3754401 0.19395708 13
2.8093684 2.3489954 0.3203845 9
2.0296774 1.6946685 0.32465994 6
2.0191095 1.6840516 0.4164286 6
2.013628 1.6776928 0.50946003 5
2.010098 1.6729693 0.60376865 7
1.9804642 1.6459655 0.69001162 4
1.7242006 1.4253697 -0.59942496 26
1.8692511 1.5436339 -0.55967826 28
1.979398 1.6328512 -0.49877474 10
2.1342556 1.7587198 -0.43801656 22
2.455621 2.0206623 -0.39046943 8
2.7704599 2.277303 -0.31376067 21
3.1782103 2.6096842 -0.21551949 14
2.951961 2.4204566 -0.066633284 15
3.0459228 2.517122 0.06897191 10
2.8232722 2.3306391 0.19186363 12
2.0631592 1.7007378 0.233926 9
2.0396335 1.679552 0.32441622 6
2.0412047 1.6790532 0.41861868 7
2.0389459 1.6748085 0.51289463 8
2.0096772 1.6490057 0.60016948 5
1.9796695 1.6226497 0.68587047 4
1.7103925 1.3934717 -0.59114271 45
1.8742033 1.525298 -0.55787861 24
1.9913143 1.6182977 -0.49877474 10
2.1624269 1.755478 -0.44114524 22
2.24491 1.8204895 -0.35488355 11
2.6663065 2.1591315 -0.30016437 9
3.2096789 2.5963643 -0.21635687 22
2.9427648 2.3779051 -0.066039905 12
2.9293766 2.3848882 0.065935194 11
2.0717161 1.6848394 0.13994636 9
2.0629053 1.6758806 0.23253153 6
2.0673065 1.6770617 0.3268536 7
2.0534577 1.6640453 0.41861868 8
2.0432477 1.654 0.51098651 5
2.0126171 1.6268802 0.59747005 5
1.9885038 1.6056678 0.68483526 5
1.7050167 1.3694009 -0.58596635 26
1.8802456 1.5085189 -0.55652899 31
1.9979669 1.6006737 -0.49762988 11
2.1561222 1.7255273 -0.43739083 27
2.223453 1.7775028 -0.34952128 11
2.8183384 2.2498507 -0.31550378 16
2.1705558 1.7308728 -0.14549398 5
2.1193666 1.6882384 -0.047296021 10
2.0960102 1.6822263 0.04691207 7
2.0771947 1.6653378 0.13952768 4
2.0823307 1.6676652 0.23340309 8
2.0789649 1.6625874 0.3268536 7
2.0588522 1.6447362 0.41736722 5
2.040935 1.628673 0.50755197 9
2.0330701 1.6200767 0.60016948 7
4.2487216 3.38201 1.4550807 16
1.7251381 1.3658575 -0.58958983 26
1.8800325 1.4868925 -0.5533796 37
2.010633 1.5879041 -0.4980115 10
2.1696661 1.7116572 -0.43770367 40
2.2202158 1.749651 -0.3470839 33
2.2089446 1.7388946 -0.24595349 5
2.1511827 1.6909913 -0.14340053 8
2.1279557 1.6709315 -0.047226213 6
2.1092715 1.668793 0.046946973 6
2.113842 1.6706102 0.14120242 6
2.1048689 1.661729 0.23462325 6
2.0749314 1.6357442 0.32441622 6
2.0780435 1.6364343 0.41893157 11
3.5320385 2.7784431 0.87352359 43
3.619226 2.8439622 1.0626689 11
nan nan nan nan
1.7331086 1.3525919 -0.58907217 19
1.8765354 1.462948 -0.54933053 39
2.0244937 1.5765929 -0.49877474 10
2.1641166 1.683506 -0.4342621 37
2.2010238 1.7097517 -0.34220913 13
2.1612163 1.6770158 -0.23932965 6
2.1721141 1.6836509 -0.14402856 5
2.1601267 1.6719463 -0.047679976 7
2.1300409 1.6617783 0.047156405 7
2.1188629 1.6512721 0.14078373 4
2.1038389 1.637206 0.23322876 6
2.070344 1.6094004 0.32197884 6
nan nan nan nan
3.7235644 2.8872526 0.91588324 41
3.41714 2.6467874 0.99788296 22
nan nan nan nan
1.7499297 1.3466554 -0.59166032 19
1.8864491 1.4501417 -0.54933053 31
2.0323358 1.5600309 -0.4980115 11
2.1820874 1.6731647 -0.43551362 24
2.1936996 1.6802455 -0.33928427 6
2.2076881 1.6885158 -0.24316452 5
2.1980989 1.6793582 -0.14497061 8
2.1587398 1.6474985 -0.047400735 5
2.1400058 1.6456472 0.047121495 4
2.1018293 1.6145393 0.13889964 4
2.1086123 1.617995 0.23253153 6
2.979691 2.2830961 0.46090987 13
3.1812017 2.4348528 0.6344983 42
3.5856075 2.7414041 0.87733978 11
3.5455089 2.7068267 1.0298259 37
3.3856161 2.5819514 1.1408744 42
1.7377405 1.3180604 -0.58441341 13
1.9058473 1.4439967 -0.55202997 46
2.0384803 1.542251 -0.49686664 21
2.2173536 1.6757562 -0.44020665 6
2.2243874 1.679243 -0.34220913 8
2.2098765 1.6658661 -0.24211864 6
2.198601 1.6555618 -0.14423791 5
2.1526103 1.6191652 -0.047016785 5
2.132318 1.6161734 0.046702638 6
2.1241956 1.6082666 0.13963234 6
3.000217 2.2690458 0.32910007 32
2.9971428 2.2634332 0.46115363 22
3.2202001 2.4292393 0.63887841 24
nan nan nan nan
3.7776482 2.8425326 1.0914626 35
3.4066474 2.5605741 1.1419097 37
1.7391627 1.3001139 -0.58182526 12
1.9096361 1.4259921 -0.55023032 26
2.0397542 1.5209407 -0.49457693 12
2.2274151 1.6590543 -0.43989375 14
2.2360573 1.6636719 -0.34220913 6
2.2051735 1.6389005 -0.24037553 3
2.2004817 1.633032 -0.14360988 6
2.1799252 1.6160072 -0.047365833 6
2.1531613 1.608428 0.04691207 4
3.0445852 2.2718458 0.199086 40
2.9984119 2.2349486 0.32718265 27
3.0383503 2.2614179 0.46505347 13
3.1752563 2.3607333 0.6266765 25
3.9734366 2.9509342 0.96205902 31
3.9283783 2.9142809 1.1292545 11
3.6836801 2.728766 1.2283553 13
1.7497523 1.2890866 -0.58234286 12
1.9022791 1.3999209 -0.54528135 28
2.0563872 1.5116726 -0.49610341 9
2.2370634 1.6426861 -0.43958092 12
2.2508192 1.6503682 -0.34269661 6
2.2004876 1.6116928 -0.23863243 5
2.216383 1.6215527 -0.14392389 1
3.8817506 2.8358128 -0.083911166 21
3.1349895 2.3087795 0.067959674 28
3.0583708 2.2498844 0.19898133 13
3.0043073 2.2068841 0.32613677 25
3.0392675 2.2301161 0.46285981 19
3.3123364 2.4278181 0.65045458 33
4.3171301 3.1596642 1.0399091 27
4.293148 3.1386611 1.227783 19
3.759892 2.7457855 1.2475078 45
1.7569225 1.2760121 -0.58182526 12
1.9086087 1.3846524 -0.54438156 37
2.0684805 1.4984313 -0.49648505 10
2.2388747 1.6200802 -0.43770367 7
2.2620001 1.6350104 -0.34269661 5
2.9354506 2.1186728 -0.31672394 9
3.3471432 2.4131494 -0.21625218 31
4.1102905 2.9600773 -0.088413894 16
4.0136385 2.9128702 0.08656393 11
3.1419182 2.2777147 0.20337754 13
3.1515841 2.2822056 0.34043032 20
3.1014135 2.242574 0.46992823 15
3.3179967 2.3965368 0.64826447 12
3.9484684 2.8487716 0.94641262 23
3.9418042 2.8397844 1.121606 13
3.7617211 2.7070572 1.2418139 13
1.7642175 1.2625901 -0.58130759 13
1.9182296 1.3712932 -0.54438156 28
2.0772932 1.4828135 -0.49610341 10
2.2742565 1.621613 -0.4423967 11
2.5773363 1.8356835 -0.3885195 8
2.4565809 1.7470928 -0.2637333 3
3.3704219 2.3943501 -0.21667089 24
4.0819306 2.8965919 -0.087366745 13
5.5563397 3.9735503 0.11923484 8
3.1528676 2.2522416 0.20306353 27
3.178793 2.2682486 0.34165049 22
3.1056764 2.2128055 0.46822205 21
3.3137238 2.3584254 0.64419717 10
4.0898671 2.907593 0.97541571 15
3.7930944 2.6926227 1.0739164 13
3.7789536 2.6796103 1.2412962 42
1.765095 1.2446762 -0.57871938 18
1.9261632 1.3567457 -0.54393172 31
2.0795653 1.4626278 -0.49419534 10
2.2936034 1.6113739 -0.44396105 10
2.5868394 1.815365 -0.38803205 8
2.9680092 2.0797677 -0.3170726 9
3.3788738 2.3650353 -0.21614751 22
3.8513086 2.6927116 -0.08202631 10
3.5896788 2.5294261 0.07665097 27
3.1652479 2.2278764 0.20285419 40
3.3493886 2.3548636 0.35821009 7
3.1145501 2.1865075 0.4672471 27
3.2702663 2.2932699 0.63262105 42
4.0634341 2.8463054 0.96434873 35
4.0577211 2.838083 1.1432014 9
4.0050244 2.7981038 1.3091067 10
1.7721552 1.2312211 -0.57820177 12
1.93879 1.3454877 -0.54483151 23
2.0961802 1.4525468 -0.49572179 10
2.2836821 1.5807068 -0.43989375 9
2.6059813 1.8017768 -0.38900697 6
2.962781 2.045413 -0.31498083 9
3.3969467 2.3425224 -0.21625218 15
3.7810853 2.6045029 -0.080141447 7
5.5160027 3.8294437 0.11721037 6
nan nan nan nan
3.2822165 2.2735646 0.34932023 32
3.1542282 2.181649 0.47090316 25
3.3447046 2.3108053 0.64388436 18
4.2367101 2.9238026 1.0006025 8
nan nan nan nan
4.1167579 2.8336041 1.3391298 24
1.7807069 1.21882 -0.57820177 12
1.9336571 1.3220217 -0.54078233 19
2.1078916 1.4389844 -0.49610341 10
2.3044541 1.5714027 -0.44177097 9
2.6152153 1.7813047 -0.3885195 8
2.9865189 2.0319228 -0.31602672 9
3.4033058 2.3120162 -0.21562417 7
3.5923395 2.4376874 -0.075778343 11
3.756691 2.569371 0.07944335 33
3.3510652 2.2893713 0.21269335 4
3.2420561 2.2124097 0.34339362 3
3.1365714 2.1372206 0.46602839 29
3.3362591 2.2707281 0.63919127 18
4.2927356 2.9184389 1.008998 1
3.9997377 2.7161789 1.1162072 24
nan nan nan nan
1.7811637 1.2009585 -0.57561362 12
1.9137453 1.2888954 -0.53268409 22
2.1176374 1.4246029 -0.49610341 10
2.3167367 1.5567821 -0.44208387 9
2.6127508 1.7530507 -0.38632584 9
2.5156968 1.6860222 -0.26495346 2
3.4504967 2.3099086 -0.21761292 3
3.63587 2.4303288 -0.076336823 16
3.5518918 2.3939793 0.074766114 11
3.5007689 2.3568578 0.22117178 6
3.2822254 2.2063949 0.3460083 31
3.2186174 2.1611903 0.47602168 27
3.3319528 2.2347612 0.63543689 27
nan nan nan nan
4.0720549 2.7239451 1.131054 24
4.2148681 2.8162851 1.3582823 22
1.8086059 1.2016356 -0.58182526 13
1.9273454 1.2790718 -0.53403383 8
2.114439 1.4011087 -0.49305046 10
2.330843 1.5427508 -0.44270959 9
2.6262794 1.7363192 -0.38656959 8
2.9979701 1.9790498 -0.31428361 7
3.4765446 2.2923586 -0.21824095 3
3.7241395 2.4528205 -0.077837728 19
3.6401548 2.4166832 0.076267019 15
3.6136799 2.3963816 0.22724274 13
3.3453372 2.2159114 0.35106334 13
3.2369373 2.1408591 0.47650915 28
3.4430671 2.2745998 0.65358323 15
20.817293 13.736917 4.8480754 8
3.975435 2.6193256 1.099111 16
4.2360406 2.7878535 1.3588001 12
1.7959363 1.1752282 -0.57509595 12
1.9166538 1.2527907 -0.52863503 15
2.1291006 1.389533 -0.49419534 10
2.348175 1.530757 -0.44396105 9
2.6350093 1.7157769 -0.38608211 8
3.0016911 1.9515557 -0.31323773 9
3.4606376 2.2473638 -0.21625218 7
3.79318 2.4604969 -0.078919783 16
5.5816441 3.6497409 0.11640756 8
3.7992136 2.4814019 0.23781461 10
3.4024434 2.2197168 0.3554211 40
3.2734275 2.1322939 0.47967777 33
3.4555514 2.2483528 0.65295756 13
nan nan nan nan
4.0263176 2.6127257 1.108109 16
3.9052405 2.5312526 1.2469902 6
1.7959778 1.1574291 -0.57250774 12
1.9499321 1.2552012 -0.53538352 9
2.1321433 1.3703892 -0.49266884 10
2.345506 1.5057889 -0.44145811 9
2.6402397 1.6930531 -0.38510716 8
3.0051739 1.9241079 -0.31219187 7
3.5216722 2.2522049 -0.21907835 3
4.1473064 2.6492565 -0.085900746 13
5.5716796 3.5879512 0.11567455 8
3.8886738 2.5012798 0.2423155 12
3.479877 2.2357581 0.36187065 15
3.3366897 2.1404712 0.48674619 23
3.4279208 2.1964631 0.64482296 28
6.9996009 4.4798732 1.6153891 5
6.9328909 4.4303627 1.8994868 10
6.8457947 4.3696589 2.1761506 8
1.7991213 1.1417572 -0.57095486 12
1.9553556 1.2394711 -0.53448373 8
2.153271 1.3628204 -0.4953402 10
2.3626404 1.4935997 -0.44270959 9
2.6654227 1.6830583 -0.38705707 8
3.0219042 1.9052062 -0.3125405 7
2.634814 1.6592319 -0.16318353 33
4.0607543 2.5542266 -0.083736651 8
5.5763268 3.5361156 0.11525569 16
5.8902764 3.7308774 0.36540967 14
3.4566753 2.1869092 0.35786149 32
3.3884728 2.1404495 0.49210843 15
3.493289 2.2041023 0.65420902 27
6.9941635 4.4078727 1.6069933 5
6.9323153 4.3621316 1.8909386 12
6.8237967 4.2888613 2.1595864 9
1.80541 1.1281455 -0.57043719 12
1.9523891 1.2185671 -0.53133446 9
2.1610665 1.346716 -0.49495855 10
2.3545623 1.4655864 -0.43926802 7
2.6518202 1.6486874 -0.38340098 9
3.0317459 1.8819612 -0.31219187 7
2.6225691 1.6260625 -0.16171812 10
3.8999786 2.4152644 -0.080071643 19
5.6008778 3.4970992 0.11525569 6
5.6670594 3.5342991 0.35002291 20
5.700747 3.5511649 0.58760399 9
5.9520411 3.7019384 0.86064136 16
5.5640793 3.4566023 1.0374736 9
6.9947386 4.3403044 1.6001244 4
4.6317945 2.8695948 1.2579265 8
6.8355021 4.2299352 2.1538923 12
1.8198236 1.1195629 -0.57250774 12
1.96749 1.2089882 -0.53313404 9
2.1653953 1.328516 -0.49381369 9
2.3849483 1.4614984 -0.44302243 7
2.6734242 1.6363519 -0.38486344 9
3.0482118 1.8628263 -0.3125405 7
3.5851154 2.1883621 -0.22012506 3
4.1643176 2.5389168 -0.085132837 5
5.6507077 3.4736233 0.11577927 13
5.7766948 3.5469046 0.3552565 6
5.6948266 3.492533 0.5844664 38
nan nan nan nan
5.6521125 3.4568388 1.0493625 13
6.9913616 4.2708969 1.592492 4
4.6400671 2.8300874 1.2547771 3
6.8384662 4.1660328 2.1456099 12
1.8127228 1.0978248 -0.56784898 12
1.9742142 1.1942154 -0.53268409 10
2.1662147 1.3082916 -0.4919056 11
2.3917105 1.442772 -0.4423967 7
2.6796823 1.6145746 -0.38413221 8
3.0539916 1.8379264 -0.31184325 7
3.6003046 2.1632817 -0.22012506 5
4.176796 2.5066974 -0.085028127 3
5.5790157 3.3761101 0.1138246 13
5.9466071 3.5943041 0.36415362 2
6.0260911 3.6380398 0.61584246 11
5.6189179 3.3868773 0.80555642 25
5.6084123 3.376543 1.0368477 16
6.9839897 4.1997285 1.5840963 4
6.9044704 4.1469898 1.8594456 12
6.8806396 4.1261387 2.1497512 9
1.8120459 1.080197 -0.56526077 12
2.000922 1.1913702 -0.53763306 9
2.1733818 1.2925138 -0.49152401 12
2.3912849 1.4204069 -0.44051951 7
2.6891804 1.5948163 -0.38388845 9
3.0598907 1.8125007 -0.31114599 6
3.6407294 2.1539814 -0.22169513 12
2.6773283 1.5814762 -0.054276984 2
5.5108199 3.2838068 0.11197464 8
5.9692178 3.5527248 0.36404896 4
5.78757 3.4391401 0.5889985 38
5.7220755 3.3961687 0.81701219 23
5.7723045 3.421895 1.0628159 14
6.9928684 4.1388664 1.579517 4
6.9668059 4.1185169 1.8684436 6
nan nan nan nan
1.8226889 1.0697936 -0.5662961 12
1.9837676 1.1629397 -0.5308845 11
2.1857417 1.2792916 -0.49228725 12
2.3994384 1.40268 -0.44020665 9
2.7016888 1.5774744 -0.38413221 8
3.0687158 1.7896219 -0.31079736 7
3.6297882 2.1134374 -0.22012506 5
4.2247896 2.4569125 -0.08530736 7
5.5819087 3.2735791 0.11295197 8
7.067533 4.1398702 0.42925957 8
5.8125639 3.4006746 0.58917278 31
5.7216468 3.3421237 0.81359977 17
5.7175651 3.335726 1.0484239 16
7.0819445 4.1267557 1.5932552 4
7.0064683 4.0778618 1.871593 42
7.0103698 4.0735836 2.1725271 54
1.8334588 1.0589751 -0.56733137 12
1.9935262 1.1500359 -0.53133446 10
2.2012024 1.2683057 -0.49381369 13
2.4089298 1.3863162 -0.44020665 9
2.7057509 1.5546187 -0.38315722 5
3.0845912 1.7701379 -0.31114599 7
3.6354268 2.0837135 -0.21960169 8
4.2366328 2.4243789 -0.085202649 16
5.5451818 3.2015138 0.11176521 11
7.1059299 4.0976534 0.42988759 8
5.8327112 3.3580213 0.58882421 13
5.8767719 3.3792925 0.83236772 12
5.8035197 3.3331285 1.0600001 17
nan nan nan nan
7.0635118 4.0453153 1.8792411 100
6.9976883 4.0027537 2.1601038 100
1.8475254 1.0499673 -0.56940192 13
1.9981167 1.1341664 -0.53043461 11
2.1965575 1.2447782 -0.49076074 12
2.4205074 1.3700157 -0.44051951 9
2.7098932 1.5313106 -0.3821823 8
3.1041191 1.7519368 -0.31184325 6
3.6502445 2.0576458 -0.21960169 7
4.2434168 2.3881154 -0.084993221 3
5.5453434 3.1489146 0.11131145 13
7.0933747 4.0230517 0.42737547 8
5.8317409 3.3034739 0.58638382 26
5.8679714 3.3185885 0.82773668 11
5.808301 3.2808299 1.0565585 17
7.1515446 4.0329809 1.5959265 60
7.0702057 3.982234 1.8733925 51
nan nan nan nan
1.838128 1.0272952 -0.56422555 12
2.0078831 1.1207889 -0.5308845 10
2.2103386 1.232281 -0.4919056 11
2.4285233 1.3516992 -0.44020665 9
2.7170472 1.5104269 -0.38169482 9
3.1093061 1.7263563 -0.31114599 6
3.6543941 2.0256629 -0.21897365 7
4.2407413 2.3477786 -0.084609263 7
5.5567174 3.1042724 0.11110201 13
7.0417452 3.9274347 0.42256054 14
5.8796 3.2752299 0.58882421 4
5.814672 3.2350738 0.81701219 6
5.8143606 3.2295909 1.0534298 17
7.1589236 3.9715264 1.5913471 59
nan nan nan nan
nan nan nan nan
1.8350973 1.0088545 -0.56111974 12
2.0173666 1.1076829 -0.53133446 10
2.2070489 1.2098267 -0.4892343 7
2.4240391 1.327123 -0.43770367 9
2.7362342 1.4961834 -0.38291353 9
3.1002991 1.6931475 -0.30905426 7
3.6649389 1.9981906 -0.21876432 7
4.2886386 2.335331 -0.085237555 7
5.4999185 3.0211065 0.10953131 11
7.0847492 3.8868272 0.42350259 20
7.0398021 3.8573747 0.70230097 1
5.9560981 3.2581639 0.83358634 18
5.8558359 3.1993358 1.0568714 19
7.1399474 3.8960569 1.5810434 73
10.223964 5.5719686 2.6881654 2
10.288542 5.597857 3.1384399 1
1.8437954 0.99693638 -0.56163734 12
2.0113335 1.0861633 -0.52773523 10
2.218689 1.1966397 -0.48999751 9
2.4312773 1.3096555 -0.43739083 10
2.7518578 1.4798651 -0.38364473 9
3.1225755 1.6771187 -0.31010011 4
3.6714153 1.9694215 -0.21834564 7
4.2590046 2.2807889 -0.08433003 19
5.5010023 2.9731433 0.10914735 13
7.1620097 3.8660297 0.42653811 20
7.0507736 3.7996264 0.70073211 1
7.0199404 3.7782691 0.97885466 7
5.9644723 3.2061694 1.0725149 4
7.123723 3.8229105 1.5715029 67
10.236849 5.4866529 2.6814167 2
10.188449 5.4538465 3.0965111 1
1.8471272 0.98254943 -0.56060207 12
2.0186796 1.0724484 -0.52773523 11
2.232192 1.1838808 -0.49114239 9
2.4455976 1.295424 -0.4383294 9
2.7495842 1.4546014 -0.38193855 9
3.1377316 1.6571389 -0.31044877 3
3.6709421 1.9362876 -0.21750826 7
4.2602768 2.2442899 -0.084050797 22
5.5339851 2.9412363 0.10939168 11
7.1605988 3.800952 0.42486331 31
7.0623913 3.7440796 0.69933766 2
7.0268469 3.7189538 0.97617352 2
6.9804206 3.6897061 1.2505373 10
7.1218009 3.7596674 1.5653971 65
10.285246 5.4205031 2.6841161 2
10.269013 5.4050798 3.1094522 3
1.8573651 0.97142065 -0.56163734 12
2.02439 1.0574269 -0.52728528 12
2.2195134 1.1573755 -0.48656297 10
2.454582 1.2783189 -0.4383294 9
2.7455835 1.4280423 -0.37998864 9
3.149224 1.6351931 -0.31044877 6
3.687917 1.9124515 -0.2177176 7
4.270514 2.2117338 -0.083946079 15
5.5065331 2.8775213 0.10844925 13
7.0736418 3.6917243 0.41816431 5
7.0706911 3.6854746 0.69759458 1
7.035027 3.6606469 0.97373611 3
6.9709516 3.622669 1.2442799 10
7.116509 3.6935773 1.5585279 70
10.315917 5.3449807 2.6823165 2
10.73715 5.5561051 3.2393794 2
1.8537933 0.95313001 -0.55853152 12
2.02999 1.0423771 -0.52683538 9
2.2257917 1.1409576 -0.48618135 10
2.4704792 1.2647535 -0.43958092 10
2.7660902 1.4142631 -0.38145107 9
3.1428168 1.6041098 -0.30870563 7
3.6993985 1.885751 -0.21761292 5
4.2894149 2.1836805 -0.084015884 14
5.5513897 2.8518009 0.10893792 9
7.1436682 3.6650431 0.42078111 28
7.0572381 3.616034 0.69375974 2
7.0179982 3.589745 0.96788639 3
6.9573736 3.5541406 1.2373967 8
7.1211362 3.6330979 1.5539485 79
10.464114 5.3294387 2.7111104 2
nan nan nan nan
1.8569545 0.93842137 -0.55749625 12
2.0389574 1.0290577 -0.52728528 10
2.2319493 1.1245073 -0.4857997 13
2.4616029 1.2385967 -0.43645221 9
2.7758968 1.3949163 -0.38145107 11
3.1539383 1.5821311 -0.30870563 7
3.7124724 1.8598802 -0.21761292 5
4.3385329 2.1706841 -0.084679075 17
5.5193963 2.7868402 0.10792568 11
7.1191454 3.5899055 0.41785032 16
7.0342627 3.542484 0.6890533 3
7.0145106 3.5263965 0.96398658 3
6.9502401 3.4895279 1.2317652 10
7.1006966 3.5604148 1.5440264 72
10.434849 5.223105 2.6940141 1
nan nan nan nan
1.8651904 0.92629468 -0.55801392 12
2.0373623 1.0104697 -0.5250358 10
2.2432649 1.1106392 -0.48656297 12
2.4755027 1.2240068 -0.43739083 10
2.7820079 1.3737453 -0.38096359 11
3.1684811 1.5618358 -0.30905426 6
3.7128236 1.8277423 -0.21688022 7
4.3697338 2.1482809 -0.084993221 15
5.5369263 2.7473509 0.10789078 13
7.1136117 3.5250416 0.41607088 19
7.0409656 3.4844525 0.68731016 5
7.0033622 3.4597588 0.95911181 2
6.942543 3.4251928 1.2261335 10
7.093679 3.4951408 1.5371574 67
20.532927 10.098999 5.2827511 9
nan nan nan nan
1.8750839 0.91494495 -0.55904913 10
2.0391116 0.99366063 -0.52368605 10
2.2474325 1.0932347 -0.4857997 11
2.4751027 1.2023798 -0.43582645 9
2.7915301 1.3542911 -0.38096359 11
3.1793082 1.5396761 -0.30905426 7
3.7254939 1.8017757 -0.21688022 7
4.3630166 2.1072853 -0.084574364 17
5.5164275 2.6893506 0.10712288 9
7.0823803 3.4481902 0.41282606 22
7.0436201 3.4247546 0.68521845 7
7.0130582 3.4038477 0.9571619 1
6.9396229 3.3637171 1.2214404 12
7.0896325 3.4318457 1.5310514 64
20.638018 9.972373 5.2917485 9
nan nan nan nan
1.8814257 0.9018321 -0.55904913 9
2.0354528 0.97435236 -0.52098668 10
2.2443814 1.0724394 -0.48351002 11
2.4887853 1.1876234 -0.43676507 10
2.7973328 1.3330615 -0.38047612 9
3.1863804 1.5157325 -0.30870563 7
3.7415891 1.7774386 -0.21708956 7
4.3866544 2.0810621 -0.084748887 10
5.4737473 2.6214061 0.1059361 9
7.0954695 3.3934915 0.41219804 24
7.0511756 3.3677723 0.68364966 10
6.9757266 3.3257582 0.94887477 2
6.9397511 3.3041482 1.2173731 10
7.092144 3.3721471 1.526472 70
20.93248 9.9350033 5.3493361 9
nan nan nan nan
1.8754407 0.88291627 -0.5554257 10
2.0457325 0.96177661 -0.52188647 11
2.2500365 1.0559105 -0.4831284 10
2.5023818 1.1727343 -0.43770367 9
2.8029752 1.3118169 -0.37998864 9
3.1932745 1.4917639 -0.308357 3
3.7539067 1.7512741 -0.21708956 7
4.4155774 2.0571425 -0.085028127 13
5.5045815 2.5890863 0.10618044 14
7.0991025 3.3345327 0.41104665 24
7.0366354 3.3006954 0.6799891 11
6.9915838 3.2736104 0.94789982 2
6.9214921 3.2363746 1.2101772 12
7.0852714 3.3084352 1.5199846 76
21.188557 9.8758907 5.3970261 10
nan nan nan nan
1.8780524 0.86817968 -0.55439043 10
2.0523973 0.94747126 -0.52188647 10
2.2555697 1.039356 -0.48274681 10
2.4961514 1.1486309 -0.43520072 9
2.8084576 1.2905588 -0.37950116 9
3.196367 1.4661117 -0.30765978 7
3.7696733 1.7266879 -0.21729892 7
4.3952794 2.0104616 -0.084364928 8
5.4807677 2.5313094 0.10537763 9
7.1058855 3.2773621 0.4101046 30
7.0215039 3.2339864 0.67632854 12
6.9854097 3.2114532 0.94400001 2
6.9116039 3.1731393 1.2045455 12
7.0778565 3.2449806 1.513497 81
21.388117 9.787734 5.4303188 10
nan nan nan nan
1.8858265 0.85584551 -0.55490804 10
2.0536368 0.9307065 -0.52053678 10
2.2627714 1.0235827 -0.48274681 11
2.4969094 1.1279224 -0.43394926 9
2.8354938 1.2790831 -0.38193855 9
3.1992569 1.4404906 -0.30696252 7
3.7506676 1.6864063 -0.21551949 7
4.405561 1.9780877 -0.084295124 7
5.3981376 2.4475703 0.10345787 11
7.0630908 3.19802 0.4063364 16
7.0257545 3.1766832 0.6745854 13
6.9533787 3.1381102 0.93668783 3
6.9137783 3.1158817 1.2011039 10
7.0573716 3.1761518 1.5043381 79
6.9985075 3.1437869 1.7712648 12
nan nan nan nan
1.8864609 0.84030169 -0.5533551 10
2.0440588 0.90921962 -0.51648766 10
2.2698624 1.0077606 -0.48274681 11
2.5065286 1.1112639 -0.4342621 10
2.8207572 1.2488096 -0.37876993 6
3.2238157 1.4245614 -0.308357 7
3.7550414 1.6569536 -0.2151008 5
4.3991327 1.9384152 -0.083911166 1
5.336534 2.3748641 0.10195696 29
7.0815949 3.1470101 0.40612707 33
7.0331936 3.1210885 0.67319095 20
6.9279256 3.0685911 0.93035066 7
nan nan nan nan
nan nan nan nan
nan nan nan nan
6.9239192 3.0480406 2.0270708 45
1.9046726 0.83252746 -0.55697864 12
2.0521426 0.89570683 -0.51693755 10
2.2678428 0.98797011 -0.48083872 10
2.5196593 1.0961031 -0.43520072 9
2.8257649 1.2275062 -0.37828246 8
3.2336822 1.4020202 -0.308357 9
3.7683506 1.6314918 -0.21520546 5
4.3226185 1.868773 -0.082200833 3
5.3548174 2.3383479 0.10199186 11
7.0356555 3.0679533 0.40225419 15
nan nan nan nan
4.3184319 1.8768134 0.57814825 3
4.2801528 1.8575134 0.73899657 1
nan nan nan nan
nan nan nan nan
6.913106 2.9858439 2.0177534 43
1.8980095 0.81388056 -0.5533551 12
2.0708861 0.88672686 -0.52008688 11
2.2710738 0.97057033 -0.48007545 9
2.5199828 1.0753845 -0.43394926 10
2.8342657 1.2077487 -0.37828246 8
3.228723 1.3731741 -0.30696252 9
3.7686181 1.6004615 -0.21457745 5
4.4257684 1.8768041 -0.083911166 1
5.3930683 2.3103592 0.10241073 1
4.3759031 1.8719007 0.24943319 1
4.3717079 1.8673989 0.4159072 1
4.3149958 1.8396107 0.57595456 7
6.8866396 2.9317188 1.1854606 10
nan nan nan nan
4.2660308 1.8099461 1.0698673 1
nan nan nan nan
1.8911799 0.79536754 -0.54973167 12
2.0788229 0.87300324 -0.52053678 10
2.2814159 0.95620948 -0.48083872 10
2.5256066 1.0570028 -0.43363637 12
2.8481238 1.1902274 -0.37901369 9
3.2198422 1.3429302 -0.30521941 7
3.8018241 1.5833267 -0.2158335 7
4.4129128 1.8351133 -0.083422504 1
4.4762144 1.8807087 0.084748887 1
6.9894004 2.9323349 0.39722994 7
nan nan nan nan
nan nan nan nan
6.8850622 2.8744402 1.1817061 5
nan nan nan nan
nan nan nan nan
nan nan nan nan
1.9020445 0.78435481 -0.55128461 12
2.074055 0.8540172 -0.51783735 10
2.2806087 0.9376719 -0.47931221 10
2.5329244 1.039345 -0.43363637 10
2.8526893 1.1688107 -0.37852621 9
3.2325974 1.3224897 -0.30556804 9
3.7755353 1.5423043 -0.21374007 5
4.3697557 1.7823737 -0.082375363 1
nan nan nan nan
4.309258 1.7726302 0.2441996 1
4.2167425 1.7319927 0.39882466 1
nan nan nan nan
6.8861885 2.8200223 1.1785774 10
7.0312524 2.8736987 1.4764801 85
19.403238 7.9183216 4.8382478 8
nan nan nan nan
1.9091301 0.77211499 -0.55180228 12
2.059943 0.8318541 -0.51288843 9
2.2869377 0.92212766 -0.47931221 10
2.5324321 1.0195721 -0.43238491 10
2.8493278 1.1454214 -0.37706378 9
3.2452223 1.3019408 -0.30591667 9
3.8044863 1.5239979 -0.21478678 7
4.3446517 1.7377379 -0.081677265 7
nan nan nan nan
nan nan nan nan
4.235827 1.7062279 0.39952192 3
4.2119942 1.6940655 0.55743045 1
6.8813944 2.7635143 1.1745101 12
7.0264683 2.8175035 1.471519 81
19.422764 7.7764215 4.8301492 8
nan nan nan nan
1.9160045 0.76014853 -0.55231988 11
2.0708499 0.82032669 -0.51423812 10
2.2840333 0.90292966 -0.47740412 10
2.544826 1.0044866 -0.43332353 10
2.8572545 1.1255027 -0.37706378 9
3.2614255 1.282738 -0.30661389 9
3.7871461 1.4864528 -0.21321672 5
4.339922 1.7007953 -0.081363119 7
4.2868834 1.6990281 0.080490492 1
nan nan nan nan
4.2362227 1.6729668 0.39847603 1
4.105237 1.618754 0.54183114 1
6.8614454 2.7014165 1.1679399 8
7.0240397 2.7597656 1.4669396 81
19.567287 7.6762199 4.8526444 8
nan nan nan nan
1.9123912 0.74292064 -0.54973167 9
2.0930188 0.81182951 -0.51828724 10
2.2867742 0.88514501 -0.47664091 9
2.5390506 0.98126584 -0.43113342 9
2.8652353 1.1050279 -0.37706378 9
3.2556465 1.2536391 -0.30521941 9
3.8051424 1.462182 -0.2136354 5
4.3370447 1.6639677 -0.081083886 7
4.3082523 1.6719279 0.080665022 1
4.2517319 1.6474307 0.23896599 1
4.2276449 1.6347064 0.39655861 1
4.1222711 1.591481 0.54256237 1
6.8584819 2.6437221 1.1641854 8
7.0252843 2.7023833 1.4631234 77
19.774527 7.5946927 4.8904362 8
nan nan nan nan
1.9122413 0.727157 -0.54817873 11
2.0878434 0.79268128 -0.51558787 11
2.3003933 0.87154084 -0.47816736 10
2.5423121 0.96167386 -0.43050769 6
2.8749266 1.0851974 -0.37730753 6
3.2533481 1.2260945 -0.30417353 8
3.8042912 1.4306973 -0.21300736 5
4.341352 1.6300782 -0.080944255 8
4.2733717 1.6233033 0.079792403 1
4.2036524 1.5943016 0.23561651 1
4.1982393 1.588897 0.39272377 2
4.1354108 1.5626438 0.54280609 23
6.8513508 2.584811 1.1598053 8
7.0150442 2.640975 1.4570175 81
17.902079 6.72895 4.4153395 6
nan nan nan nan
1.9264487 0.71682322 -0.55076694 12
2.0916357 0.77704209 -0.51513797 10
2.293685 0.85028034 -0.47549605 8
2.5472763 0.94277126 -0.43019485 9
2.886342 1.065974 -0.37779501 6
3.2582989 1.2014056 -0.3038249 8
3.8069341 1.4006792 -0.21258868 5
4.3547831 1.59966 -0.080979168 7
4.2417674 1.5766579 0.078989588 2
4.2018461 1.5593158 0.2348838 4
4.1852126 1.5498178 0.39045769 8
4.140902 1.5309443 0.54207492 8
6.8400211 2.5247731 1.1547993 12
7.0079718 2.5812094 1.4516749 81
17.894903 6.5804973 4.4018426 6
nan nan nan nan
1.9276531 0.70237088 -0.54973167 12
2.089551 0.76012194 -0.51333833 11
2.310492 0.83866835 -0.47778577 10
2.5443482 0.92204672 -0.4286305 7
2.8746817 1.0400541 -0.3753576 6
3.2813938 1.1846099 -0.30521941 7
3.8255348 1.3787857 -0.21311203 7
4.3540068 1.5666804 -0.08076974 7
4.2974997 1.564163 0.079827309 8
4.2179952 1.5327231 0.23519783 1
4.1897807 1.5199878 0.38993478 1
4.1437602 1.5000197 0.54109991 1
6.8551908 2.4774847 1.1544864 12
7.0046229 2.5273442 1.4474771 85
17.825596 6.4176188 4.3739486 6
nan nan nan nan
1.9361494 0.6901927 -0.55076694 12
2.0911353 0.74420786 -0.51243854 10
2.3070402 0.81923282 -0.47587767 9
2.5674796 0.91020173 -0.43144631 9
2.8931005 1.0239334 -0.37682006 4
3.2783115 1.1576936 -0.30417353 8
3.8256485 1.3487264 -0.21258868 5
4.3478608 1.5302727 -0.080455594 5
4.3346877 1.5435138 0.080315977 2
4.2474108 1.5099304 0.23624454 1
4.2509861 1.508695 0.39464122 1
4.1822004 1.480994 0.544756 1
6.8387966 2.4177146 1.1488549 12
7.003583 2.4718471 1.443661 90
17.726597 6.2425184 4.3388562 6
9.9071207 3.4830179 2.8138809 2
1.9263268 0.67157221 -0.54662579 12
2.09812 0.73023242 -0.51288843 9
2.3034308 0.79988545 -0.47396958 10
2.5756383 0.89290094 -0.43175918 7
2.8926754 1.0011126 -0.37584507 6
3.2938468 1.1373796 -0.30487078 8
3.8463008 1.3258909 -0.21321672 5
4.352766 1.4979295 -0.080350876 3
4.356689 1.5171602 0.080525406 1
4.3068972 1.497293 0.23896599 1
4.2369466 1.4704885 0.39237517 3
4.2074432 1.4569589 0.5467059 3
6.8125668 2.3550708 1.1416589 10
6.9983978 2.4152102 1.4390815 54
nan nan nan nan
nan nan nan nan
1.9327968 0.65873075 -0.54714346 12
2.1068566 0.71682239 -0.51378828 8
2.3163946 0.78631026 -0.47549605 9
2.5687125 0.87046117 -0.42956907 9
2.8939521 0.97898638 -0.37511387 9
3.2866054 1.1092579 -0.30347627 8
3.8478932 1.2964536 -0.21279801 5
4.4427233 1.4942775 -0.081816882 1
4.3842115 1.49251 0.080839552 1
4.3399377 1.4749026 0.24022207 1
4.2640896 1.4466339 0.39394394 3
4.2551184 1.4402788 0.55158067 3
4.2705994 1.4430273 0.71396697 1
6.9871845 2.3568809 1.4333572 69
4.1778107 1.4059899 1.0176786 1
nan nan nan nan
1.9391814 0.64583266 -0.54766113 12
2.1081111 0.7008667 -0.51288843 9
2.3199639 0.76950151 -0.47511441 9
2.5634756 0.84878159 -0.42769188 9
2.9063709 0.96062791 -0.37584507 9
3.2867 1.0837917 -0.30277905 8
3.839776 1.2639403 -0.21185598 5
4.4074516 1.4482453 -0.080979168 1
4.4742179 1.4883742 0.082305551 1
nan nan nan nan
4.3364949 1.4375182 0.39969626 3
4.2952251 1.4205103 0.55548048 1
6.8072691 2.2473366 1.1354015 12
6.9587173 2.2932956 1.4241984 12
nan nan nan nan
10.095365 3.3133333 2.8470097 2
1.9528282 0.63526696 -0.55024934 12
2.1018317 0.68252194 -0.51018906 9
2.3271475 0.75389141 -0.47549605 9
2.5730977 0.83208001 -0.42831761 9
2.9016716 0.9366554 -0.37438264 8
3.3017724 1.0632628 -0.30347627 8
3.8523088 1.2383251 -0.21206531 7
4.482193 1.4382129 -0.082165927 1
4.5225363 1.4694607 0.08300364 1
6.8906803 2.2349296 0.37964505 15
4.3748569 1.416414 0.40231091 2
4.2597013 1.3758463 0.54963076 1
4.2640104 1.3747731 0.7095868 1
4.1937056 1.3496826 0.85635084 11
10.279209 3.3002949 2.4924579 2
nan nan nan nan
1.949851 0.61927813 -0.54817873 13
2.1121185 0.66959757 -0.51153874 10
2.3192503 0.73348373 -0.47282472 9
2.5863786 0.81647599 -0.42956907 9
2.9024596 0.91458672 -0.37365144 9
3.3091149 1.0401862 -0.30347627 8
3.8761053 1.2161843 -0.21290269 7
4.4463263 1.3925425 -0.081328213 1
5.1960044 1.6482692 0.095150515 1
nan nan nan nan
4.3086491 1.3618194 0.39533845 1
4.2389107 1.3365234 0.54573095 1
6.7927613 2.13784 1.1278926 3
nan nan nan nan
10.12162 3.1719246 2.4488173 2
9.1468582 2.8611944 2.5680027 7
1.948591 0.60393471 -0.54662579 12
2.1260502 0.6577155 -0.51378828 11
2.3280668 0.71843112 -0.47358796 9
2.5882404 0.79723561 -0.42894334 9
2.9125693 0.89546674 -0.37413892 9
3.3010569 1.0123869 -0.30208179 8
3.8749521 1.1861731 -0.21237932 5
4.4406395 1.3567948 -0.081048973 1
4.3974319 1.3612341 0.080350876 1
nan nan nan nan
6.9168773 2.1331992 0.6332736 37
6.8474908 2.1065629 0.87965298 7
6.7886376 2.0845671 1.124764 10
6.9601693 2.1332519 1.4150395 78
nan nan nan nan
nan nan nan nan
1.9472121 0.58864027 -0.54507297 12
2.134321 0.64398372 -0.51468807 11
2.3330257 0.70216066 -0.47358796 9
2.5861757 0.77687365 -0.42769188 9
2.9244545 0.8768217 -0.37487015 9
3.3078721 0.98989224 -0.30208179 8
3.8793116 1.1579475 -0.21216999 7
4.4500036 1.3257582 -0.081048973 7
5.1783094 1.5634253 0.09441752 4
6.817409 2.0544052 0.37315539 7
6.9087062 2.0779722 0.6311819 41
6.8316073 2.0495832 0.87575316 5
6.7878847 2.0325928 1.1222609 36
6.7002606 2.002532 1.3593234 95
6.6405611 1.9809027 1.5998521 100
6.5603104 1.951974 1.8339919 100
1.956833 0.57666999 -0.54662579 12
2.1219389 0.62411869 -0.51063895 10
2.3358669 0.68571204 -0.47320631 9
2.5800292 0.75592077 -0.42581466 9
2.9305041 0.85638517 -0.37487015 8
3.3185272 0.96789217 -0.30243042 8
3.8679268 1.1259347 -0.21112327 5
4.4591513 1.294659 -0.081048973 10
5.1984224 1.5309659 0.094592042 7
6.8599787 2.0164015 0.37472549 10
6.8962779 2.0218387 0.6287415 35
nan nan nan nan
6.7598481 1.9741558 1.1153778 85
6.6782637 1.9452745 1.3520726 76
6.6299019 1.9274223 1.5940033 100
6.5623131 1.9040443 1.830886 100
1.9625697 0.56387031 -0.54714346 12
2.1092787 0.60482633 -0.50658983 10
2.3443727 0.67046762 -0.47396958 9
2.5852439 0.73788905 -0.42581466 9
2.9171743 0.83097827 -0.37243277 9
3.328872 0.94636929 -0.30277905 8
3.8910649 1.1032627 -0.21196064 3
4.4697838 1.2648231 -0.081083886 10
5.1897626 1.4891216 0.09424299 6
6.2133813 1.7793125 0.33871832 2
6.8945546 1.9704736 0.62734705 41
6.7618561 1.9274431 0.8633225 25
6.7525649 1.9209727 1.1119363 85
6.6819067 1.8970908 1.3501645 95
6.6222434 1.8764055 1.5890543 100
6.5587144 1.8534559 1.8262272 100
1.9683193 0.55067587 -0.54766113 12
2.1284654 0.59427845 -0.51018906 9
2.3413169 0.65238649 -0.4724431 9
2.5940127 0.72133446 -0.42644039 9
2.9229043 0.81059366 -0.37243277 8
3.3392377 0.92417073 -0.30312768 8
3.9004092 1.0772829 -0.21206531 7
4.447659 1.2250886 -0.080525406 10
5.1940007 1.4521462 0.09413828 3
6.1830254 1.7251693 0.33641556 4
6.8908677 1.9174854 0.6257782 28
6.7843823 1.8840277 0.86454117 87
6.7312193 1.8654686 1.1063046 85
6.6760654 1.8451661 1.3463483 90
6.6145172 1.8244281 1.5841054 100
6.5544143 1.8041581 1.8215685 100
1.9664297 0.53574258 -0.54610825 12
2.1268196 0.57824385 -0.50883931 9
2.3382354 0.6339702 -0.47091663 9
2.6027989 0.70423913 -0.42706612 10
2.924521 0.7896443 -0.37194526 8
3.3263695 0.89565581 -0.30138457 6
3.9097643 1.0505451 -0.21216999 7
4.440443 1.190645 -0.080246165 7
5.2040124 1.4158498 0.09413828 4
6.2565975 1.6987077 0.33976504 4
6.8787603 1.8637627 0.62351215 36
6.7801232 1.8319578 0.86234754 91
6.7211914 1.8122593 1.1025503 85
6.6770949 1.7966199 1.3440586 86
6.6139183 1.7746704 1.5809561 28
nan nan nan nan
1.9682548 0.52150553 -0.54559058 12
2.134573 0.56437695 -0.5097391 9
2.3464007 0.61863291 -0.47167987 9
2.6019208 0.68454444 -0.42612755 9
2.9414823 0.7722339 -0.37340769 6
3.336396 0.8734206 -0.30173317 5
3.9054089 1.0201955 -0.21154197 5
4.450582 1.1601201 -0.080281071 7
5.184773 1.3718122 0.093614712 6
6.2296829 1.6447901 0.33767161 2
6.8704114 1.8101109 0.62159473 46
6.7735476 1.7795348 0.85991013 75
nan nan nan nan
nan nan nan nan
4.9762101 1.2980591 1.1872917 3
4.9019752 1.2759539 1.3572472 4
1.966235 0.50630653 -0.54403764 13
2.1252489 0.5460664 -0.50658983 8
2.3525643 0.60272294 -0.47206149 10
2.5970674 0.6639154 -0.4245632 7
2.9448786 0.75118756 -0.37316394 9
3.3424122 0.85010856 -0.30173317 6
3.9221144 0.99536395 -0.21206531 5
4.4450026 1.125587 -0.080036737 7
5.1864758 1.3335928 0.093475096 6
6.2448826 1.6022544 0.33788097 2
nan nan nan nan
nan nan nan nan
5.0632081 1.2896547 0.82753843 4
5.02139 1.276204 1.00709 8
5.0002627 1.2671189 1.1908909 3
4.9500937 1.2516479 1.3681176 6
1.9753441 0.4939743 -0.54559058 12
2.1403539 0.53404772 -0.50928926 9
2.3624303 0.58770609 -0.47320631 10
2.6016393 0.64576828 -0.4245632 7
2.936563 0.72726971 -0.37145779 9
3.3482659 0.82675177 -0.30173317 6
3.9153936 0.96461195 -0.2113326 3
4.4566364 1.09548 -0.080106542 5
5.1917796 1.296383 0.093405277 6
5.2016354 1.295951 0.28093943 3
5.1354899 1.2766161 0.4629713 4
5.0982995 1.2635928 0.64493263 2
5.1181102 1.2656587 0.8350473 6
5.064486 1.2495848 1.0139591 5
4.9976325 1.2293866 1.1881915 4
4.9662156 1.2189012 1.370188 6
1.9787446 0.48017174 -0.54559058 12
2.1402419 0.51817507 -0.50838941 9
2.3626585 0.57027876 -0.4724431 9
2.6118453 0.62897837 -0.42550179 9
2.9512191 0.70907104 -0.37267649 9
3.3576903 0.8048721 -0.30208179 6
3.9123199 0.93493277 -0.21080926 1
4.4563951 1.0624851 -0.079966925 5
5.1657219 1.2516273 0.092776999 6
5.2183223 1.26148 0.28135812 3
5.202383 1.2547443 0.46820062 5
5.1243682 1.232146 0.64712632 5
5.0999293 1.2234455 0.83066714 6
5.055903 1.2100848 1.0105245 2
nan nan nan nan
nan nan nan nan
1.9764069 0.46501842 -0.54403764 13
2.1438072 0.50322074 -0.50838941 9
2.3550169 0.55149645 -0.47015342 8
2.6122191 0.6102854 -0.42487606 9
2.9483643 0.68664938 -0.37170154 9
3.3671091 0.78231323 -0.30243042 5
3.9302666 0.91098851 -0.21143727 5
4.4325304 1.0241449 -0.079408452 4
5.1994276 1.2223884 0.093230762 9
5.2131758 1.2227407 0.28062543 5
5.1799746 1.211139 0.46541166 4
nan nan nan nan
nan nan nan nan
nan nan nan nan
6.6981349 1.5500804 1.5872548 28
6.6220665 1.5288243 1.8210509 57
1.9757596 0.45069537 -0.54300237 12
2.1528833 0.48991382 -0.5097391 9
2.3607237 0.53547728 -0.47053501 9
2.6125627 0.59116316 -0.42425033 10
2.9549062 0.66700017 -0.37194526 8
3.3606942 0.7567482 -0.30138457 4
3.9326336 0.88265127 -0.21122794 7
4.4550095 0.99744511 -0.079687685 3
5.1785874 1.1793989 0.092707187 6
6.2324028 1.4159684 0.33495015 2
6.9252377 1.5695641 0.6212461 56
6.8525562 1.5480628 0.86259133 60
nan nan nan nan
nan nan nan nan
nan nan nan nan
nan nan nan nan
1.9845173 0.43814048 -0.54455531 12
2.1429293 0.47193804 -0.50658983 10
2.3643141 0.51939589 -0.47053501 9
2.6126666 0.57252061 -0.4236246 9
2.9575515 0.64593267 -0.37170154 9
3.365895 0.73326933 -0.30138457 5
3.9287915 0.85374337 -0.21070457 5
4.4579558 0.9654724 -0.07961788 3
5.1669683 1.1398144 0.092358135 6
6.2340941 1.371796 0.33453146 2
6.9185114 1.5173339 0.61967731 63
nan nan nan nan
7.3338475 1.6003762 1.1889021 1
7.355175 1.5996557 1.4631234 1
7.3130555 1.5864859 1.7276242 2
nan nan nan nan
1.9836752 0.42381483 -0.54352003 11
2.144186 0.45693445 -0.50613987 10
2.3832457 0.50614119 -0.47358796 9
2.612735 0.55344939 -0.42299888 9
2.9502265 0.62332273 -0.37023908 9
3.3787308 0.71139503 -0.30208179 2
3.9268374 0.82465261 -0.21028589 7
4.4781246 0.93797749 -0.079862215 3
5.1806669 1.1049657 0.092462853 4
6.220077 1.3232533 0.33327541 2
6.9072399 1.46566 0.61775988 63
7.4520082 1.5758197 0.93522543 1
7.5033345 1.5825696 1.2145573 1
7.4926925 1.5762281 1.4883102 1
7.537569 1.580171 1.7780132 2
7.2366953 1.513141 1.981001 2
1.9922618 0.41112718 -0.54507297 12
2.1568675 0.44391829 -0.50838941 11
2.3636427 0.48475632 -0.46900854 10
2.6281469 0.5375694 -0.42487606 9
2.9622862 0.60429966 -0.37121406 9
3.37971 0.68699592 -0.30173317 5
3.9422863 0.79920214 -0.21080926 5
4.4590836 0.9015376 -0.079408452 3
5.1882544 1.0687734 0.092462853 4
6.2017727 1.2741723 0.33181 2
6.9036403 1.4146065 0.61653972 60
7.6962237 1.5714113 0.96447408 1
7.4522591 1.5175346 1.2045455 1
7.3823037 1.4992644 1.4642683 1
7.298203 1.4768802 1.719076 2
7.2489758 1.4629681 1.9815186 2
1.9856099 0.3953234 -0.54248476 12
2.1618254 0.42923027 -0.50883931 10
2.3650434 0.46786219 -0.46862692 9
2.6318359 0.51920837 -0.42487606 9
2.9586415 0.58207148 -0.37023908 9
3.3805134 0.66261798 -0.30138457 6
3.9262075 0.76744562 -0.20965785 7
4.4672308 0.87077004 -0.07944335 1
5.1838212 1.0301877 0.092253424 4
6.2105169 1.2308447 0.33181 2
6.8859844 1.3609637 0.61409938 62
7.5102901 1.4789062 0.93985647 1
7.4045215 1.4540519 1.1951594 1
7.4311233 1.4552355 1.4719007 1
7.4001441 1.4438055 1.7406714 2
7.3879604 1.4374135 2.0167181 2
1.9921157 0.38217956 -0.54352003 12
2.1628551 0.41376126 -0.50838941 10
2.368252 0.45133966 -0.46862692 10
2.6276338 0.49934688 -0.4236246 9
2.9626331 0.56140208 -0.37023908 9
3.3733099 0.63678384 -0.30033869 8
3.9255815 0.73890847 -0.20934384 7
4.457478 0.83661067 -0.079164118 3
5.171247 0.99020952 0.091904372 3
6.2150364 1.1867051 0.33160067 2
6.8757458 1.3091309 0.61235625 60
7.6101456 1.4434588 0.95106846 1
7.5833554 1.4342645 1.2223791 1
7.5819368 1.4298812 1.4997588 1
7.5881605 1.42557 1.7825123 2
7.5611138 1.4163908 2.061235 3
1.9947354 0.36826262 -0.54352003 12
2.1580253 0.39723945 -0.50658983 11
2.371345 0.43479627 -0.46862692 10
2.6193967 0.4788602 -0.42174736 9
2.970386 0.54141861 -0.37072656 9
3.3736455 0.61309677 -0.29999006 6
3.9345751 0.71219623 -0.20955318 7
4.4651785 0.80582643 -0.079199016 3
5.1819673 0.95481056 0.091974184 3
6.213347 1.1414825 0.33107728 2
6.8690391 1.2582253 0.61096174 60
7.7547851 1.4148759 0.96788639 1
7.7564368 1.4109814 1.2486601 1
7.7713866 1.409498 1.5352492 1
7.7453465 1.4005868 1.8171546 2
7.7305226 1.3923378 2.1047165 3
