# .PCD v0.7 - Point Cloud Data file format
VERSION 0.7
FIELDS x y z intensity
SIZE 4 4 4 4
TYPE F F F F
COUNT 1 1 1 1
WIDTH 1431
HEIGHT 1
VIEWPOINT 0 0 0 1 0 0 0
POINTS 1431
DATA ascii
1.2987612 2.2631826 -0.60241896 30
1.4367763 2.5006499 -0.56059688 22
1.600625 2.7824483 -0.50841206 26
1.8245133 3.1665318 -0.44872296 30
2.1106539 3.6587133 -0.36954033 16
2.4463806 4.2355542 -0.25634155 21
2.9590139 5.114851 -0.10314372 24
4.0822663 7.1193991 0.14324935 19
5.7267466 9.9752359 0.60280561 8
5.5181179 9.5963011 0.96847457 21
2.5850618 4.4901185 0.63615805 7
4.1462331 7.1930795 1.3149883 10
3.6663768 6.3503523 1.4253433 17
3.7869091 6.5511966 1.7469699 21
5.3793168 9.2947617 2.8775504 34
1.2267281 2.1068857 -0.65325934 45
1.3219866 2.2677591 -0.60601819 30
1.429451 2.4481733 -0.55105644 30
1.621008 2.7729113 -0.50872493 18
1.8460264 3.1540387 -0.44872296 30
2.1052916 3.5926912 -0.36431101 20
2.4647722 4.1994233 -0.25519016 17
2.9734988 5.0601101 -0.10244562 20
4.1318698 7.0907259 0.14324935 27
4.2372289 7.2627892 0.44066879 5
nan nan nan nan
2.571234 4.3948598 0.62518978 13
3.8868365 6.6355696 1.2179989 36
4.0581198 6.919672 1.5592911 12
3.7751684 6.4294829 1.7213256 27
5.8162189 9.8897648 3.0742526 15
1.2423906 2.0999324 -0.65377688 40
1.3467246 2.2735646 -0.61006731 22
1.462104 2.4654052 -0.55716228 24
1.610597 2.7125566 -0.49965176 26
1.8710432 3.1461933 -0.44945419 28
2.1180885 3.5573635 -0.36221924 26
2.4840953 4.1671085 -0.25424811 2
3.0026019 5.0289259 -0.1022362 18
4.1240206 6.9677896 0.14132959 30
4.2122393 7.1083474 0.43302774 8
2.6063187 4.3912854 0.44676036 12
2.5483596 4.2885151 0.61251533 16
5.4832721 9.2165499 1.6985657 3
4.0812049 6.8490095 1.5497508 20
3.8818679 6.5067286 1.7492195 36
6.057755 10.141846 3.1653571 5
1.2496909 2.0798359 -0.65015346 37
1.3471009 2.2392969 -0.60331875 10
1.4884001 2.4702716 -0.56059688 38
1.6274555 2.6978624 -0.499026 30
1.8739444 3.1027977 -0.44506687 22
2.1356537 3.5305567 -0.36099908 31
2.4976051 4.1240401 -0.25267801 6
3.0336506 5.003243 -0.10213149 20
4.138557 6.8822761 0.14017773 24
2.6176307 4.3478727 0.26597136 9
2.4376388 4.0441136 0.41311821 13
2.5484827 4.2213387 0.60544699 25
5.9265785 9.8052425 1.81464 42
3.7831628 6.2516665 1.4203823 23
3.9514408 6.5194664 1.7600172 29
4.1881647 6.9018822 2.1632097 12
1.2621675 2.0677629 -0.64911819 42
1.36575 2.2348263 -0.6046685 27
1.4810103 2.4196332 -0.55143803 27
1.6503791 2.6931722 -0.50027746 28
1.891408 3.0828714 -0.44409195 28
2.1550355 3.5070722 -0.36012751 29
2.5043602 4.0707784 -0.25047991 14
3.0685081 4.9819407 -0.10213149 22
4.1917162 6.8617487 0.14035226 19
2.6124902 4.2715611 0.26241252 11
2.3659315 3.8638783 0.39638433 13
2.5488322 4.1560616 0.59862226 11
4.4775572 7.2924213 1.3553483 22
4.1001954 6.6699939 1.5218927 13
3.9610994 6.43364 1.7442706 46
4.2473974 6.890564 2.1689036 9
1.2684284 2.0457661 -0.64497709 31
1.3833741 2.2285483 -0.60556829 42
1.4978665 2.4092348 -0.55143803 25
1.6733147 2.6882937 -0.50152892 27
1.912883 3.0695927 -0.44409195 26
2.1778014 3.490633 -0.35995319 21
2.4988503 3.9989944 -0.24713041 20
3.0788209 4.9214058 -0.10132867 18
4.2384629 6.8306179 0.14031734 11
2.4356756 3.920696 0.24189681 15
2.35076 3.7795916 0.38941187 20
2.5284545 4.0589752 0.58716655 11
4.2764349 6.857038 1.2799469 68
4.1788945 6.6928306 1.5337228 77
4.0647092 6.5023727 1.7703649 19
5.465097 8.7290297 2.7595289 18
1.2816491 2.0352266 -0.64445943 35
1.3905832 2.2056491 -0.60196906 13
1.4806967 2.3458579 -0.53922629 16
1.6862972 2.668493 -0.49996459 30
1.920465 3.0343578 -0.44092333 23
2.195719 3.4652457 -0.35890734 29
2.5238712 3.9785213 -0.24692108 18
3.1077397 4.8913541 -0.10115415 22
2.709481 4.3009181 0.088728033 10
2.4665663 3.9107842 0.2423155 13
2.3824077 3.7715113 0.39028341 27
2.5942218 4.1020689 0.59594113 22
4.3293505 6.8377843 1.2818241 24
3.9395435 6.2125163 1.4299227 30
4.0859852 6.4359961 1.7600172 21
4.2673874 6.7139587 2.1316338 24
1.2944332 2.0248272 -0.64394182 27
1.4034644 2.1928494 -0.60106927 39
1.5277635 2.383395 -0.55029315 15
1.695285 2.6416922 -0.49714881 18
1.9271258 2.9995039 -0.43775472 16
2.1864357 3.3978922 -0.3535037 17
2.5505033 3.9591253 -0.24681638 8
3.1366289 4.8633633 -0.10101452 13
2.5336039 3.9601669 0.082061216 16
2.3742335 3.7067852 0.2306969 15
2.3348894 3.6411605 0.37843022 13
2.5981238 4.0454412 0.59033519 11
4.1761341 6.4950204 1.2230048 15
4.0635605 6.3126702 1.4593072 24
4.1772752 6.4793816 1.7798128 46
5.9893179 9.2793732 2.9593372 26
1.3106406 2.0189824 -0.64497709 31
1.4134285 2.1748288 -0.59881973 24
1.5465077 2.3759623 -0.55105644 25
1.7104506 2.6248276 -0.49621019 23
1.9501884 2.9893019 -0.4382422 16
2.210104 3.3825452 -0.3535037 15
2.5288811 3.8660088 -0.24210617 18
2.6632662 4.0667996 -0.084853604 13
2.5437591 3.9155524 0.081502736 11
2.4152994 3.7135599 0.23216233 16
2.3385108 3.5913773 0.37494397 18
2.549314 3.9091485 0.5730297 23
6.5388675 10.015314 1.8944216 9
4.1515722 6.3515248 1.4749537 5
4.063374 6.2071233 1.7127774 12
5.7701588 8.8043079 2.82061 40
1.32683 2.0130093 -0.64601237 31
1.4285773 2.1649082 -0.59881973 38
1.5479031 2.3421772 -0.54571378 21
1.7483538 2.6424761 -0.50184184 17
1.9688178 2.9723043 -0.43775472 17
2.2402732 3.3769951 -0.35454956 17
2.5215547 3.7966828 -0.23886132 14
2.6063387 3.9198868 -0.082165927 24
2.5049696 3.7975421 0.079408452 11
2.4202561 3.6649404 0.23017356 16
2.375613 3.593246 0.37686142 37
2.5590057 3.8647742 0.56912988 12
6.3117542 9.5215816 1.8093213 6
4.1665025 6.2782197 1.4646499 11
4.1961408 6.3133106 1.7501193 36
6.8246226 10.256344 3.3009782 20
1.3387026 2.0004861 -0.64497709 33
1.4230492 2.1241205 -0.59027159 28
1.5642157 2.3313143 -0.54571378 30
1.757946 2.6170883 -0.49933887 22
2.0094585 2.9881387 -0.44214204 13
2.2482128 3.3381369 -0.35210916 26
2.5334837 3.7574589 -0.23750059 16
2.5530879 3.7822604 -0.079652779 13
2.384542 3.5606406 0.074801013 31
2.3579175 3.5169001 0.22190447 30
2.3739915 3.5368702 0.37267792 18
2.519479 3.7479663 0.55450553 22
6.3593278 9.4494209 1.8040025 10
4.1959701 6.2278128 1.4596889 23
4.1976008 6.2208633 1.732573 40
6.2439733 9.2431555 2.9888425 18
1.3377812 1.9684863 -0.63773018 38
1.4579432 2.142885 -0.59836984 29
1.5797526 2.318439 -0.54533213 31
1.7677231 2.591387 -0.49683592 25
2.0274312 2.968765 -0.44141081 13
2.2725856 3.3240063 -0.35228351 14
2.5715907 3.7557132 -0.23854731 12
2.5529532 3.724309 -0.078815073 11
2.4470716 3.5980523 0.075952873 13
2.394264 3.5164461 0.2229512 20
2.3868961 3.5016825 0.37076053 37
2.490273 3.6478667 0.54231864 16
6.6485891 9.7282181 1.8662634 6
4.4754529 6.5411301 1.540592 20
4.1979828 6.1287041 1.715027 42
6.3798966 9.3001938 3.0219712 30
1.3449101 1.9495571 -0.6346243 47
1.4684392 2.1262398 -0.59657025 36
1.5765175 2.2801788 -0.53884465 39
1.7752042 2.5646756 -0.4940201 30
2.0481076 2.9545383 -0.44141081 13
2.2752893 3.2785962 -0.34914589 8
2.5640457 3.6905556 -0.23551181 18
2.6634057 3.8278635 -0.081398018 1
2.5055783 3.630688 0.077000014 11
2.3795433 3.4441991 0.21939236 28
2.3625355 3.4144824 0.36326513 16
2.5681708 3.7075291 0.55377436 16
3.1248724 4.5061674 0.86852419 3
4.2611942 6.135622 1.4520565 20
4.5465908 6.5392499 1.8387501 19
6.2212257 8.9378481 2.9179258 40
1.3526095 1.9324446 -0.63203615 28
1.4772855 2.1082163 -0.59432071 33
1.6115686 2.2964373 -0.54533213 36
1.7873867 2.5441387 -0.49245578 30
2.0510411 2.9161735 -0.43775472 15
2.293535 3.2561154 -0.34844866 6
2.56673 3.639919 -0.23341838 18
3.2602649 4.6182957 -0.098675907 6
2.4769411 3.5361295 0.075359493 13
2.3851829 3.4013388 0.2177176 23
2.3800001 3.3901675 0.36239356 18
2.5300553 3.5985711 0.54012495 13
2.959558 4.2047844 0.81439793 7
4.2474451 6.0278392 1.4333572 9
4.4932532 6.3672371 1.7991586 53
nan nan nan nan
1.3817309 1.9450033 -0.63928306 41
1.4829322 2.0851469 -0.59072149 34
1.6218667 2.2771349 -0.54342401 34
1.8131323 2.5428572 -0.49464583 22
2.0528967 2.8759322 -0.43385491 17
2.3023055 3.2205753 -0.34635693 9
2.5862656 3.6137919 -0.23289503 22
2.5785034 3.5989628 -0.077279255 11
2.4366839 3.4274807 0.073404826 23
2.3799174 3.3439233 0.2151008 16
2.4197946 3.3961875 0.36483395 18
2.551657 3.5759721 0.53939372 12
3.0118055 4.2161684 0.82065529 15
4.3807883 6.1257915 1.4638867 27
7.6840706 10.729045 3.0467372 13
6.3161407 8.8092976 2.9044673 32
1.3828474 1.9180727 -0.63358909 40
1.5031555 2.082644 -0.59297103 31
1.6400248 2.2689388 -0.54418731 28
1.8227344 2.5189347 -0.49245578 25
2.0705953 2.858315 -0.43336743 19
2.3130333 3.1882968 -0.34461379 21
2.6137788 3.5988803 -0.23310436 16
2.8458128 3.9140534 -0.084469646 15
2.480443 3.4379544 0.073998205 26
2.4078822 3.3337033 0.21551949 9
2.3874085 3.3017139 0.35646698 18
2.5963528 3.5854037 0.54353732 13
2.9623256 4.0862846 0.79938018 12
4.6021819 6.3413415 1.5230374 12
7.6499429 10.525385 3.0039966 33
nan nan nan nan
1.3927832 1.9036937 -0.63203615 36
1.5222645 2.0783877 -0.59477061 29
1.6535015 2.2542686 -0.54342401 28
1.8414434 2.5077412 -0.49276862 30
2.0857966 2.8373921 -0.43239245 12
2.3186984 3.1496081 -0.34217343 16
2.6601689 3.6094851 -0.23498847 16
2.7994614 3.7943249 -0.082305551 10
2.511472 3.4302344 0.074207634 18
2.4122055 3.2910376 0.21384473 28
2.4186511 3.2962105 0.35768715 21
2.6048636 3.5447958 0.54012495 15
2.8514845 3.8761518 0.7621488 19
nan nan nan nan
4.5828166 6.2137127 1.7825123 12
3.5422778 4.7976146 1.5979488 8
1.3737962 1.8504925 -0.61754227 28
1.5320876 2.0614536 -0.59297103 29
1.6727165 2.2473941 -0.5445689 30
1.8412032 2.4710634 -0.48807558 23
2.0889382 2.8004849 -0.42898014 15
2.3245862 3.112999 -0.33990738 14
2.6530058 3.547641 -0.23216233 33
2.9421315 3.9299648 -0.085691318 15
2.525816 3.3997772 0.073928393 12
2.383868 3.2052064 0.20934384 24
2.4261343 3.2584713 0.3554211 15
2.609375 3.4994702 0.53598142 17
2.8784754 3.8561502 0.7621488 16
4.8007421 6.4242954 1.5589095 15
4.6261735 6.1839347 1.7829622 6
3.5606272 4.7526689 1.5912195 10
1.3715702 1.8207973 -0.61081296 65
1.5476141 2.052264 -0.59342092 24
1.6844258 2.2312562 -0.54342401 49
1.8472604 2.4442911 -0.48525977 30
2.1060424 2.7826674 -0.42849267 16
2.3366368 3.0839901 -0.3385129 17
2.6529543 3.4976733 -0.23006889 16
2.6005754 3.42365 -0.075045347 6
2.3888426 3.1701 0.069286056 13
2.4212682 3.2096326 0.21070457 16
2.4115944 3.1921713 0.35001746 32
2.5708687 3.3992972 0.52330703 15
2.9845467 3.9419861 0.78311098 13
4.7399039 6.2513938 1.5249456 55
4.6786551 6.1639071 1.7865614 6
nan nan nan nan
1.3921429 1.8221642 -0.61443645 34
1.5426065 2.0169151 -0.58622253 30
1.7011557 2.2210009 -0.54380566 43
1.8510579 2.4140916 -0.4818182 25
2.1152635 2.755671 -0.42654276 26
2.3430054 3.0490568 -0.33642116 14
2.6748705 3.4759023 -0.22985955 20
2.6042917 3.3805242 -0.074486867 16
2.4121287 3.1549351 0.069320954 22
2.3914168 3.1244531 0.2062037 18
2.4259946 3.1661944 0.34897158 16
2.563118 3.3403196 0.5169698 13
2.94942 3.8395941 0.76684189 33
4.7775621 6.2127571 1.523419 28
4.7347708 6.1504459 1.7919602 6
7.2646098 9.4230776 3.1881332 1
1.417848 1.8291973 -0.62013048 25
1.562622 2.0137951 -0.58847201 29
1.7005771 2.1892145 -0.53884465 27
1.8819987 2.4201481 -0.48557264 25
2.1161561 2.7173426 -0.42288667 16
2.3605611 3.0279102 -0.33589822 13
2.7009275 3.4607623 -0.23006889 11
2.5428612 3.2535462 -0.072078437 3
2.5046182 3.2300997 0.071345441 25
2.4897852 3.2074976 0.21279801 6
2.4015734 3.089406 0.34234774 20
2.5297134 3.2507324 0.50575781 27
2.9694154 3.8116388 0.7652775 27
4.8667049 6.2380753 1.5379206 4
7.3685021 9.4346533 2.7637486 2
7.257184 9.2820997 3.1570749 1
1.4242966 1.8119099 -0.61754227 43
1.5823188 2.0107691 -0.59072149 24
1.7243255 2.1880827 -0.54151595 31
1.8927313 2.3991961 -0.48400828 18
2.1375351 2.7056193 -0.42337415 30
2.3655739 2.9910424 -0.33363217 32
2.7151022 3.4292958 -0.22923151 13
2.5940897 3.2717524 -0.072881252 18
2.4677625 3.1370943 0.069670007 27
2.4120266 3.0629394 0.2043196 16
2.386776 3.0276122 0.3372927 16
2.5732567 3.2594793 0.50990134 22
2.9812567 3.7722161 0.76152301 16
nan nan nan nan
7.361577 9.291337 2.7367547 2
7.2473783 9.1373682 3.1249812 1
1.4372258 1.8016714 -0.61754227 50
1.5930189 1.9948266 -0.5893718 39
1.7395592 2.1759913 -0.54151595 38
1.8925674 2.3640018 -0.47962815 18
2.1489232 2.6813364 -0.42191169 24
2.3913851 2.9806709 -0.33432943 17
2.7083004 3.3708539 -0.22661473 20
2.8224072 3.5091109 -0.078605637 13
2.4995821 3.1322937 0.069949247 8
2.4550793 3.0721252 0.20609902 23
2.3909552 2.9886744 0.33485237 22
2.578577 3.219743 0.50648904 20
2.9995208 3.740001 0.75933295 12
nan nan nan nan
7.3420272 9.1349096 2.7057116 2
7.3065209 9.0777483 3.1223929 3
1.4619203 1.806612 -0.62271863 37
1.5995457 1.9745717 -0.58667237 28
1.7550857 2.1634877 -0.54151595 41
1.9090251 2.3507314 -0.47962815 26
2.1650856 2.6631882 -0.42142424 17
2.3900108 2.9356709 -0.33119181 19
2.7267184 3.3456726 -0.22619602 22
2.6496296 3.247611 -0.073160492 16
2.49928 3.0863538 0.069320954 21
2.6349406 3.2503998 0.21928766 6
2.4833236 3.060092 0.3447881 10
2.595293 3.193505 0.50527036 20
2.9333096 3.6055753 0.73618072 18
5.1338978 6.3037567 1.5802802 24
3.6013753 4.4157248 1.3155138 7
3.6213269 4.4354439 1.5342795 3
1.474498 1.7963611 -0.62271863 41
1.6058698 1.9543222 -0.58397299 41
1.7826205 2.1663427 -0.54533213 34
1.9178526 2.3281991 -0.47775093 26
2.1596282 2.6189101 -0.41679317 15
2.4066415 2.914305 -0.33066887 13
2.7271032 3.2988465 -0.22431193 16
2.8150291 3.4015779 -0.077069834 26
2.4420712 2.973026 0.067156859 21
2.4381132 2.9650409 0.20117943 27
2.4957628 3.0319128 0.34356794 13
2.6011086 3.1553974 0.50210178 21
2.867883 3.475312 0.7136541 13
5.2865601 6.399446 1.6134809 5
7.4840994 9.0467167 2.7106602 16
7.4190059 8.958478 3.1166992 33
1.4771144 1.7741462 -0.61857754 35
1.6182266 1.9415665 -0.58352309 38
1.7775738 2.1297286 -0.53922629 41
1.9441937 2.3268795 -0.48025388 21
2.1765866 2.6022453 -0.41654944 11
2.4072366 2.8749421 -0.32805422 17
2.7308178 3.2567708 -0.22274184 13
2.7898533 3.3236401 -0.075743444 14
2.7072506 3.2493455 0.073823676 16
2.4497974 2.937212 0.20044672 13
2.5960381 3.1092379 0.35437521 8
2.6459937 3.1645732 0.50648904 17
3.1063499 3.7112026 0.76652896 16
7.5969534 9.0665455 2.2992485 19
7.5705481 9.0254288 2.7196584 22
7.4130216 8.8251095 3.0882289 24
1.4981883 1.7741234 -0.62220097 27
1.6229343 1.9198052 -0.58037376 31
1.7856872 2.1100872 -0.53731817 27
1.9612628 2.3151002 -0.48056671 18
2.2062585 2.6006105 -0.4187431 12
2.4143515 2.84288 -0.32631108 13
2.7555101 3.2411506 -0.2229512 22
2.6328018 3.0924387 -0.070891678 28
2.4712164 2.9253244 0.06684272 15
2.4568381 2.9052172 0.19940001 6
2.5301251 2.9876492 0.34252208 13
2.6559184 3.1328626 0.50429535 28
3.0088341 3.5453858 0.73649353 16
7.693121 9.0521832 2.3091705 46
9.7472305 11.457009 3.4727945 7
3.7577548 4.4122262 1.5529144 12
1.5127436 1.7668188 -0.6232363 13
1.6410381 1.9146314 -0.58217335 41
1.7978173 2.0945897 -0.53655493 24
1.9516305 2.2713859 -0.47430936 45
2.2109632 2.5704839 -0.41630572 9
2.4167449 2.8067534 -0.32404503 19
2.7611153 3.2021708 -0.22159046 19
2.5531788 2.9578865 -0.068204008 16
2.4616525 2.8730755 0.066039905 27
2.4926627 2.9061875 0.20065607 10
2.5426154 2.9612885 0.3414762 11
2.7172959 3.1613784 0.51185131 13
3.2332549 3.7563519 0.78498822 12
7.7097058 8.9475536 2.295814 8
3.6135702 4.1893167 1.2772722 15
7.3759165 8.5420666 3.0240419 33
1.515869 1.7462693 -0.61961281 10
1.6540316 1.9034175 -0.58217335 29
1.8107444 2.0808229 -0.53617334 22
1.9657499 2.2565587 -0.47399649 33
2.2231913 2.5493894 -0.41533077 12
2.4397261 2.79474 -0.32456797 16
2.7881057 3.189317 -0.22200914 15
2.6430502 3.020195 -0.070053965 10
2.5086913 2.8879557 0.066772908 20
2.4848647 2.8575039 0.19845797 27
2.4580593 2.8236914 0.32753128 13
2.7387516 3.1428092 0.51185131 11
3.2080929 3.6762128 0.77278632 16
7.8711734 9.0101967 2.3255801 2
7.8920698 9.0245752 2.7677979 2
9.9763193 11.395867 4.0582829 9
1.5264443 1.7344605 -0.61909521 12
1.6566439 1.8804169 -0.57857412 28
1.80928 2.0507827 -0.53159386 30
1.9941394 2.2579329 -0.4771252 22
2.1865833 2.4732232 -0.40533748 12
2.4538932 2.7716734 -0.32387072 13
2.8137231 3.1747503 -0.22232316 21
2.5812633 2.9093938 -0.067889862 30
2.4926064 2.8302941 0.065830477 30
2.4408584 2.7686112 0.1934337 22
2.4969981 2.8293021 0.33014596 22
2.6804361 3.0328786 0.4969832 17
3.1898489 3.6054671 0.76246166 12
3.1096702 3.5111351 0.91168547 2
8.5858974 9.6807299 2.9873502 2
10.11977 11.398169 4.0841646 3
1.5410888 1.7266443 -0.62013048 22
1.6775217 1.8775249 -0.58127356 27
1.8314087 2.0468793 -0.53388357 36
1.9979936 2.2307122 -0.47430936 25
2.2183745 2.4741545 -0.40801859 17
2.4651968 2.7455792 -0.32282487 12
2.8064454 3.1223502 -0.22002037 19
2.5466728 2.8303547 -0.066458762 34
2.5202975 2.8217719 0.066039905 16
2.4854212 2.7797928 0.19542249 5
2.5286486 2.8251619 0.33171475 15
2.6631198 2.971225 0.48991477 22
3.1212761 3.4787207 0.74024802 19
9.1045151 10.136471 2.6484292 2
8.6975803 9.6698141 3.0026469 2
nan nan nan nan
1.5466233 1.7086822 -0.61754227 15
1.6905884 1.8657677 -0.58127356 31
1.8403759 2.028229 -0.53235716 38
2.0015638 2.2035503 -0.47149354 25
2.2422695 2.4659514 -0.4092373 13
2.4923544 2.7371399 -0.32387072 16
2.8456674 3.1218686 -0.22138111 17
2.5609801 2.8065965 -0.066319145 31
2.5694685 2.8367152 0.066807814 11
2.5530634 2.8156397 0.19919068 5
2.4947448 2.74843 0.32474229 23
2.761241 3.0377591 0.50405163 11
4.9907665 5.4847827 1.1745101 5
8.7678671 9.6256332 2.5308907 2
2.9535804 3.237988 1.0118299 43
nan nan nan nan
1.5545945 1.6935741 -0.61598933 32
1.7075274 1.8582252 -0.5826233 25
1.8478439 2.0081079 -0.53044903 27
2.0088682 2.1808054 -0.46961632 18
2.258085 2.4487782 -0.40899354 12
2.4992361 2.7065008 -0.32230192 16
2.8592575 3.0931282 -0.2207531 19
2.5805101 2.7886505 -0.066319145 33
2.5973279 2.8275428 0.067017242 4
2.602401 2.83009 0.20149344 12
2.4612479 2.6737757 0.31794414 15
2.7110727 2.9410498 0.49113351 27
3.0717504 3.3288248 0.7174086 10
3.1438859 3.40342 0.90061849 17
3.2593012 3.5234253 1.108109 3
3.2407591 3.4997029 1.2780485 24
1.5690125 1.6855079 -0.6170246 33
1.7071733 1.8320024 -0.57812428 23
1.8564603 1.9894171 -0.52892256 39
1.9754996 2.1147609 -0.45835301 16
2.2656348 2.4228046 -0.40728739 13
2.5126226 2.6831696 -0.32160467 21
2.812484 3.0002344 -0.21551949 26
2.7983303 2.9820051 -0.07138034 12
2.5706618 2.7595923 0.065830477 15
2.6220953 2.8118527 0.20149344 10
2.5723047 2.7555649 0.32979733 14
2.6664701 2.8524442 0.47943404 24
4.9453855 5.2847552 1.1463519 7
3.2776291 3.4988775 0.93191117 19
7.454258 7.9463139 2.5154028 8
3.099807 3.3009601 1.2133437 4
1.5727855 1.6660836 -0.61391884 26
1.7065377 1.8058749 -0.57362527 31
1.8797487 1.9863907 -0.53159386 36
2.007875 2.1195619 -0.46242031 9
2.2688332 2.3925254 -0.40485001 15
2.5285497 2.6626735 -0.32125604 19
2.8264811 2.9732888 -0.21499613 26
2.8852496 3.0319297 -0.073055774 13
2.5733862 2.7241347 0.06541162 14
2.5085497 2.6527162 0.19134027 25
2.5421705 2.6854515 0.32352212 20
2.6098399 2.7530828 0.46578467 13
4.9522448 5.2185769 1.1394688 5
3.1883948 3.3563459 0.89985526 38
3.3525028 3.5241683 1.1229557 17
3.883487 4.078064 1.5089152 26
1.5923941 1.6634358 -0.6170246 25
1.708317 1.7826611 -0.57002604 25
1.8704625 1.9491373 -0.52510637 28
2.0253613 2.1083407 -0.46304604 11
2.2827299 2.373765 -0.4043625 24
2.5429294 2.6406515 -0.32073313 30
2.9331102 3.0426364 -0.22148579 36
2.9355054 3.0419319 -0.073788777 10
2.5619073 2.6743355 0.064643718 31
2.5339186 2.6423476 0.19186363 15
2.5511968 2.6575782 0.32230192 11
2.5973551 2.7018807 0.4601787 18
3.1736643 3.297925 0.72491741 1
nan nan nan nan
3.8654482 4.0069852 1.2853703 5
3.1496201 3.2615273 1.2148967 33
1.5851288 1.6328729 -0.60977769 31
1.7261522 1.7762823 -0.57182562 30
1.8812864 1.9332178 -0.52434313 11
2.0234902 2.0771701 -0.45929164 9
2.2950885 2.3535068 -0.4036313 12
2.550168 2.6114297 -0.31933865 10
2.8733039 2.9392478 -0.21541482 24
2.7874393 2.8484278 -0.069565296 30
2.6000223 2.6764653 0.06513238 27
2.5745826 2.6475029 0.19353838 37
2.8420832 2.9195201 0.35646698 10
2.7297783 2.8002415 0.48016527 12
3.1510816 3.2290356 0.71459275 13
3.2171097 3.2932458 0.89489418 22
3.6834671 3.7653744 1.2160854 14
3.0844557 3.1497424 1.1812501 13
1.5910687 1.6162601 -0.60770714 25
1.7426145 1.7683523 -0.57317531 29
1.8864619 1.9116532 -0.52205342 27
2.0212824 2.0461302 -0.45553723 10
2.3044829 2.3303704 -0.40241259 9
2.5346909 2.5595853 -0.31515515 30
2.8979721 2.923372 -0.21572883 19
2.8537397 2.8757389 -0.070717148 30
2.6060157 2.6454263 0.064818241 30
2.5495305 2.5853782 0.19029355 31
2.6482425 2.682667 0.32979733 22
2.7339101 2.7655869 0.47748414 29
3.1540952 3.1873009 0.71021259 60
3.2234426 3.2539692 0.89031488 7
3.3940051 3.4213665 1.112608 4
3.2084618 3.2309422 1.220073 40
1.6105027 1.6133162 -0.61081296 26
1.756295 1.757522 -0.57362527 33
1.9080943 1.9067631 -0.52434313 36
2.0383139 2.03476 -0.45616296 9
2.305234 2.2988067 -0.39973149 5
2.5736737 2.562917 -0.31776983 18
2.8475108 2.8326418 -0.21049525 59
2.7801285 2.762717 -0.068413429 15
2.5961542 2.5988748 0.064120144 14
2.5915248 2.5915258 0.19207297 46
2.7514794 2.7486005 0.34025604 11
2.7489359 2.7422259 0.47675291 16
3.3357842 3.3241589 0.74587959 15
3.4255702 3.4100592 0.93954355 16
3.0930269 3.0747287 1.006881 46
3.0582213 3.0369475 1.1548507 17
1.6203521 1.6006758 -0.6102953 16
1.7546512 1.7315298 -0.56912625 25
1.9143674 1.8865055 -0.52243507 31
2.0510619 2.0190947 -0.45585006 7
2.3099034 2.2715223 -0.39778158 5
2.5782676 2.532773 -0.31620103 13
2.9527626 2.8966124 -0.21677555 15
2.7079411 2.6536658 -0.066179529 33
2.6298883 2.5961399 0.064504094 10
2.6152427 2.57898 0.19249167 38
2.6896975 2.649626 0.33032027 19
2.7241428 2.6798139 0.46919701 32
2.9799042 2.9283445 0.66171783 13
3.2307339 3.1715114 0.88001108 18
3.189018 3.1272833 1.0311757 24
nan nan nan nan
1.6328714 1.5906727 -0.61081296 38
1.7708864 1.723315 -0.57047588 13
1.9257563 1.8720626 -0.52205342 27
2.0605066 2.0009584 -0.4549115 9
2.3285553 2.2581046 -0.39826906 5
2.0005786 1.9380192 -0.24368747 7
2.8862958 2.7931116 -0.21049525 47
2.7968619 2.7027867 -0.067889862 19
2.6589587 2.5893409 0.064783335 24
2.6713891 2.5987222 0.1953178 17
2.616668 2.5419343 0.31916434 18
2.7451699 2.6639738 0.46968448 28
nan nan nan nan
3.1963732 3.0942583 0.86474639 27
3.7697165 3.6454637 1.2106867 21
3.7042024 3.5783582 1.3800232 46
1.6311235 1.5674747 -0.6061542 28
1.7797633 1.7085228 -0.56957608 27
1.9331101 1.8531383 -0.52052695 23
2.0744257 1.9865246 -0.4549115 9
2.3295276 2.2284799 -0.39583167 15
2.5672781 2.4524875 -0.31062305 24
3.0242083 2.8859603 -0.21907835 12
2.7182186 2.5912409 -0.065551244 8
2.6639912 2.558248 0.064469188 30
2.6087546 2.5025797 0.18945618 22
2.6871345 2.5750694 0.32561383 10
2.7880812 2.6680775 0.47382805 13
3.5854406 3.4275229 0.78561401 28
3.7483819 3.5795298 1.0074716 5
3.6103275 3.4428787 1.1517495 8
3.5962114 3.4258244 1.3308476 24
1.6392224 1.5533916 -0.60511893 35
1.7958941 1.7000743 -0.57092583 28
1.9388661 1.8328551 -0.51861888 20
2.0824978 1.9665699 -0.45366001 10
2.3522475 2.2189746 -0.39705035 13
2.5886877 2.4386032 -0.31114599 25
3.0239189 2.8456144 -0.21761292 26
3.0174432 2.8365431 -0.072287865 22
2.6934021 2.5505872 0.064748429 6
2.6987085 2.5529337 0.19468978 2
2.6978056 2.5494044 0.32474229 27
2.7965345 2.6390095 0.47212186 19
3.3778641 3.1842515 0.73524207 16
3.5045774 3.3002379 0.93572736 20
3.1899269 2.9997377 1.0109302 12
3.0990694 2.9112411 1.1393216 28
1.6443819 1.5366329 -0.60304838 28
1.8005965 1.6808463 -0.56867629 40
1.9300735 1.7991942 -0.51289463 29
1.9732969 1.8375567 -0.42706612 20
2.3807638 2.2146661 -0.39924401 15
2.6027286 2.4177608 -0.31079736 28
2.9383006 2.7266197 -0.21007656 33
3.0181062 2.7977366 -0.071834102 22
2.7886031 2.604058 0.066598386 24
2.6814129 2.5013347 0.19217765 23
2.7344859 2.5481675 0.32700834 19
2.825063 2.6288879 0.47382805 15
3.0310743 2.8176339 0.65546048 16
3.6958518 3.4319942 0.9803766 17
3.1407754 2.9124658 0.98888493 10
3.0923917 2.8645895 1.1294864 9
1.6579102 1.5277346 -0.60408366 26
1.7993824 1.6563575 -0.56462723 33
1.9555964 1.7976327 -0.51632917 46
2.0966587 1.925276 -0.4508442 7
2.384464 2.1872563 -0.3972941 15
2.638644 2.4170265 -0.31306344 22
2.9410558 2.6912088 -0.20892516 47
2.9593391 2.7050908 -0.069984153 18
2.7213953 2.5059609 0.064573906 6
2.6988101 2.4825542 0.19217765 35
2.9502625 2.7110071 0.3505404 12
2.7760651 2.5473645 0.46261609 10
3.1948307 2.928551 0.68643451 10
3.3331239 3.0521085 0.87848467 12
3.8499005 3.5203738 1.204388 5
7.2316389 6.6057091 2.6244252 2
1.6642462 1.5122255 -0.60253078 27
1.812345 1.6450648 -0.56507707 28
1.9564608 1.773389 -0.51327622 30
2.1173689 1.9172221 -0.45240852 10
2.3967302 2.1678939 -0.3968066 12
2.695375 2.4346032 -0.31776983 9
2.9538424 2.6652575 -0.20850646 30
3.0138006 2.7164969 -0.070821866 30
2.8602202 2.5971313 0.067436099 4
2.6805716 2.4314477 0.18966553 21
2.7255058 2.4696038 0.32177898 20
2.7613981 2.4986203 0.45725381 18
3.0803761 2.784312 0.65765053 27
3.5685511 3.2221739 0.93458253 24
3.2448146 2.9257481 1.0086806 1
3.1622303 2.8482842 1.1403568 26
1.6560584 1.483811 -0.59580147 36
1.8208815 1.6297728 -0.56417727 41
1.9585471 1.7505291 -0.51060492 27
2.130702 1.9023935 -0.45240852 9
2.4103255 2.1497877 -0.39656287 15
2.7093306 2.4130766 -0.3174212 3
3.0096815 2.6777611 -0.21112327 17
3.0087771 2.6741354 -0.070263386 31
2.8380573 2.5410845 0.066493668 9
2.7004585 2.4153376 0.18987487 31
2.6728494 2.3881259 0.31358635 11
2.7980306 2.4964619 0.4604224 12
3.1233339 2.7837687 0.66265643 31
3.3343589 2.9687173 0.8677994 13
3.2447708 2.8848977 1.002382 31
3.2802567 2.9133742 1.1755562 5
1.6678241 1.4734932 -0.59631914 38
1.8307539 1.6157315 -0.56372738 34
1.9648291 1.7316209 -0.50907844 32
2.1291046 1.8744189 -0.44927984 10
2.4103684 2.1197984 -0.39412549 13
2.7141333 2.3835866 -0.31602672 3
3.0703399 2.6935654 -0.21405408 21
3.0288758 2.6543846 -0.070298299 24
2.8017619 2.4735641 0.065237097 10
2.7786705 2.4505901 0.19416642 16
2.8015795 2.4681878 0.32665971 10
2.9137595 2.5634053 0.47650915 10
3.4023592 2.9900963 0.7174086 36
3.3756585 2.9634998 0.873142 10
3.8656311 3.388876 1.1868418 6
1.9329308 1.69275 0.68845868 1
1.6824412 1.4656199 -0.59787202 35
1.834639 1.5965147 -0.56147784 35
1.9724236 1.7139993 -0.50793356 11
2.1242368 1.8439711 -0.44552541 11
2.441607 2.1172235 -0.3968066 12
2.7276955 2.3619716 -0.31567809 7
3.0860481 2.6694512 -0.21384473 26
3.1305518 2.7050829 -0.072218053 13
2.9909055 2.6036227 0.069216244 3
2.8409247 2.4704492 0.19730657 8
2.7510564 2.3897719 0.31881571 31
2.8371129 2.4610538 0.46115363 16
3.4634573 3.0012 0.72585601 12
3.2893882 2.8473494 0.84566551 48
1.950496 1.6859998 0.59522051 1
1.9403156 1.6754258 0.68690574 9
1.7043561 1.4639084 -0.60201317 26
1.841303 1.5798607 -0.56012815 31
1.9798696 1.6963542 -0.50678873 14
2.1190505 1.8136815 -0.44177097 12
2.4427483 2.0885177 -0.39461297 11
2.7270446 2.3291166 -0.31376067 13
3.1046093 2.6478415 -0.21384473 22
3.3091893 2.8193281 -0.075883061 14
2.963486 2.543608 0.068169102 9
2.8808448 2.4700572 0.19887665 3
2.7843175 2.3847656 0.32073313 14
3.2162833 2.7508516 0.51965094 13
3.2500341 2.7767732 0.67704844 15
1.9905891 1.6989229 0.50869679 5
1.9678578 1.6777422 0.59702015 9
1.959319 1.6681017 0.68949395 7
1.6879976 1.4295024 -0.59269565 36
1.8537749 1.5682269 -0.56057805 48
1.9718759 1.6663659 -0.50182766 12
2.1554971 1.8196044 -0.4467769 10
2.3783453 2.0048821 -0.38193855 11
2.7493346 2.315155 -0.31445792 13
3.1057484 2.6125054 -0.21269335 26
3.2369192 2.7189879 -0.073788777 10
2.8952634 2.451021 0.066214427 2
2.8457408 2.4065404 0.1953178 10
2.7917662 2.3575554 0.31968728 40
2.9071913 2.4524214 0.46700338 10
2.0120707 1.6955218 0.41674146 7
1.9963926 1.6799283 0.50717038 5
1.9869814 1.6702327 0.59926963 7
1.9957788 1.6758454 0.69829381 10
1.7080683 1.4266473 -0.59631914 27
1.8569257 1.5493293 -0.55832857 42
1.9789362 1.6487888 -0.50068283 10
2.1529648 1.791875 -0.44364822 24
2.3354578 1.941692 -0.37292022 15
2.7531669 2.2857232 -0.31306344 21
3.196167 2.6506834 -0.21761292 19
2.9227331 2.4213343 -0.066249333 17
3.081177 2.5717001 0.070053965 26
2.8195183 2.3508039 0.19238698 25
nan nan nan nan
2.0329278 1.690768 0.32465994 8
2.0223396 1.6801715 0.4164286 5
2.0289316 1.6838535 0.51251298 8
2.007596 1.6637813 0.60196906 10
1.9836203 1.6421604 0.69001162 5
1.7105293 1.4085487 -0.59373093 24
1.8752211 1.5425185 -0.56057805 25
1.9828142 1.6287014 -0.49877474 10
2.1425164 1.7580045 -0.43895519 23
2.4134386 1.9781915 -0.38315722 6
2.7783065 2.2740195 -0.3141093 18
3.1929464 2.6106081 -0.21614751 14
2.9535038 2.4122567 -0.06656348 17
2.9338343 2.4141707 0.066319145 10
2.8327756 2.3285263 0.19217765 2
2.0541019 1.6866591 0.23253153 8
2.0492873 1.6803104 0.32539117 6
2.0462453 1.6760254 0.41893157 7
2.0421572 1.670891 0.51289463 8
2.0191627 1.6497251 0.60196906 5
1.9651036 1.6038419 0.67965883 5
1.7143219 1.3917023 -0.59166032 31
1.8753489 1.5207974 -0.55742878 16
1.9956621 1.6160545 -0.49915636 9
2.1516654 1.740519 -0.4383294 24
2.2372766 1.8078344 -0.3531774 10
2.7627153 2.230026 -0.31062305 16
3.2079854 2.5857453 -0.21593818 21
nan nan nan nan
2.9661465 2.4062278 0.06666819 1
2.0637913 1.6724192 0.13921365 7
2.0611811 1.668517 0.23200859 6
2.062511 1.6672115 0.32563493 8
2.0609694 1.6641819 0.4195573 6
2.0323782 1.6393383 0.50755197 4
2.0212395 1.6286076 0.59926963 7
4.1948328 3.3751438 1.4426575 6
1.7179627 1.3748719 -0.58958983 24
1.8706993 1.4954995 -0.55292976 31
2.0050812 1.6012089 -0.49877474 10
2.1650066 1.7270658 -0.43864229 31
2.186182 1.741462 -0.34318411 21
2.8296638 2.2516241 -0.31637534 16
2.1498189 1.7088196 -0.14392389 1
2.1144791 1.6783201 -0.047121495 7
2.0892811 1.6714367 0.046702638 7
2.0766876 1.6595795 0.13931833 6
2.100812 1.676455 0.23514619 8
2.0722601 1.6518954 0.32539117 6
2.0691595 1.6476527 0.41893157 5
2.0407 1.6226658 0.50678873 10
2.0356123 1.6168813 0.60016948 1
3.9407663 3.1267734 1.3479296 4
1.7257649 1.3619493 -0.58907217 26
1.879305 1.4815248 -0.5524798 35
2.0100393 1.5823152 -0.49724829 11
2.1863286 1.7192343 -0.44051951 34
2.1979859 1.7265396 -0.34318411 52
2.1868944 1.7153616 -0.24316452 6
2.1491194 1.6839148 -0.14308652 7
2.1321523 1.6688194 -0.047261119 7
2.118171 1.6704311 0.047086593 6
2.1117566 1.6635802 0.14088841 7
2.1090422 1.6596531 0.23479758 6
2.077498 1.6324831 0.32441622 6
2.0650725 1.6209714 0.41580287 6
3.6692641 2.8770723 0.90634274 59
3.4170446 2.6754541 1.001932 18
nan nan nan nan
1.7306566 1.3463095 -0.58751929 22
1.8911409 1.4695644 -0.55292976 39
2.0101805 1.559818 -0.49457693 10
2.1701741 1.682147 -0.43488789 22
2.1974282 1.7014312 -0.34123421 8
2.1609874 1.670804 -0.23898104 3
2.1797922 1.6835189 -0.14434259 8
2.1580012 1.6648859 -0.047575258 10
2.1424105 1.665422 0.047365833 8
2.1217415 1.6475718 0.14078373 4
2.1048343 1.6326772 0.23305444 6
2.0982604 1.6252331 0.32587865 6
nan nan nan nan
3.735862 2.8874035 0.91779137 15
3.5297444 2.724164 1.0293761 12
nan nan nan nan
1.7354144 1.330668 -0.58596635 15
1.8920718 1.4492162 -0.55023032 32
2.0241401 1.5481318 -0.4953402 13
2.1912827 1.6741507 -0.43676507 20
2.2092528 1.6860489 -0.34123421 6
2.1821072 1.6629227 -0.24002692 6
2.2010267 1.6755196 -0.14497061 8
2.1584287 1.641308 -0.047330927 5
2.1301756 1.632181 0.046842258 4
2.1141598 1.618152 0.13952768 6
2.111433 1.6143125 0.23253153 7
3.0026062 2.2923465 0.46383476 18
3.1760216 2.4221096 0.63262105 36
3.5841396 2.7303834 0.87581331 35
3.5409214 2.6935556 1.0271266 63
nan nan nan nan
1.7431201 1.3173561 -0.58544868 12
1.9005871 1.4347985 -0.54978037 48
2.0427372 1.5398719 -0.49724829 20
2.2155414 1.6683179 -0.43926802 6
2.2463524 1.6896768 -0.34513399 7
2.2159665 1.6643999 -0.24246727 5
2.1919017 1.6445304 -0.14360988 5
2.160233 1.6190035 -0.047121495 7
2.1351361 1.6124485 0.046702638 7
2.1317828 1.6081642 0.13994636 4
2.9993989 2.2602091 0.32857716 32
3.0121906 2.2665555 0.46285981 21
3.2449622 2.439045 0.64294571 21
4.0395694 3.0329952 0.9819032 22
3.7108817 2.7821608 1.070767 17
3.4389446 2.5754695 1.1512272 11
1.7489489 1.3031511 -0.58441341 12
1.9024938 1.4160098 -0.54753089 27
2.0515957 1.5247605 -0.49686664 9
2.2347763 1.6590861 -0.44083238 19
2.248235 1.6672523 -0.34367159 5
2.2016249 1.630308 -0.23967829 3
2.1901984 1.6200716 -0.14277251 6
3.5446892 2.6191075 -0.076930203 11
2.1829517 1.6253459 0.04750545 1
3.0769966 2.2885158 0.20097008 16
3.0115147 2.2373655 0.32822853 22
3.0450869 2.2590079 0.46554092 21
3.1884828 2.3627996 0.62855375 25
4.0948362 3.0311255 0.99029869 20
3.8237603 2.8263369 1.0977612 35
3.7081654 2.7378938 1.2350845 49
1.7611178 1.293197 -0.58544868 12
1.9076185 1.3992367 -0.5461812 28
2.0590229 1.5080805 -0.49610341 9
2.2431161 1.6411113 -0.44020665 9
2.22456 1.6257478 -0.33830932 5
2.2290478 1.6266415 -0.24142142 3
3.336077 2.4318173 -0.21635687 17
3.8958998 2.8367751 -0.084120601 12
3.4469485 2.5292592 0.07462649 18
3.2427108 2.376785 0.21070457 12
3.0479596 2.2315876 0.33049458 13
3.0607824 2.2376957 0.46554092 19
3.2926395 2.4045589 0.64576155 18
4.2078896 3.0695736 1.0124326 9
4.3316994 3.1552567 1.2372309 17
3.8521576 2.8028674 1.2764956 31
1.7481918 1.2650155 -0.57820177 11
1.9204992 1.388168 -0.54708099 37
2.0663166 1.4913721 -0.4953402 10
2.2561202 1.6265676 -0.44051951 7
2.2616284 1.6287401 -0.34220913 5
2.9197335 2.0995867 -0.31463224 7
3.3545954 2.4096332 -0.21646154 31
4.0910807 2.9354105 -0.08789032 7
3.9214904 2.835556 0.084469646 4
3.1280794 2.2593627 0.20222615 30
3.1135538 2.2463908 0.33589822 27
3.1037109 2.2359989 0.46968448 18
3.2868993 2.3653598 0.64138144 22
4.0028505 2.8774018 0.95824283 26
3.8596823 2.7704024 1.0968615 8
3.7491696 2.6881053 1.2361197 33
1.7569808 1.25278 -0.57820177 13
1.9269691 1.3724655 -0.5461812 28
2.075078 1.4757721 -0.49495855 10
2.2770829 1.6176414 -0.4423967 12
2.5934875 1.840373 -0.39046943 8
2.5474119 1.8050047 -0.27314609 3
3.3745954 2.3884642 -0.21667089 21
4.0690188 2.8767655 -0.086982794 13
5.5730376 3.9708092 0.11944427 1
3.160048 2.249052 0.20327288 32
3.1551411 2.243072 0.33868721 18
3.0933473 2.1958899 0.46578467 25
3.3323383 2.3629208 0.64701301 10
4.0612926 2.8766191 0.96740162 17
3.81847 2.7006292 1.0797651 16
3.7615337 2.6574073 1.2340492 33
1.7704262 1.2438151 -0.57975465 14
1.9269328 1.3522627 -0.54348177 35
2.0853302 1.4612496 -0.49495855 10
2.2786107 1.5949085 -0.44051951 10
2.5900037 1.8108476 -0.38803205 8
2.9700007 2.0734439 -0.31689829 10
3.3813581 2.3579924 -0.21604285 24
3.6197195 2.5213981 -0.077000014 17
3.6006346 2.5277534 0.076790586 11
3.1593194 2.2154686 0.20222615 27
3.2718997 2.2918611 0.34949452 8
3.1346281 2.192446 0.46968448 27
3.2855988 2.2954783 0.6348111 31
4.1070347 2.8661745 0.97350752 24
4.0834546 2.845479 1.1490501 30
nan nan nan nan
1.7838318 1.2347232 -0.58130759 16
1.9219002 1.3288027 -0.53943264 21
2.1084058 1.4555787 -0.4980115 10
2.2978208 1.5845691 -0.44208387 9
2.6025827 1.7927219 -0.38803205 6
2.9761956 2.0470133 -0.31602672 9
3.3878603 2.3275428 -0.21541482 14
4.1038418 2.8162775 -0.086878076 5
3.3714991 2.3319261 0.071554869 3
nan nan nan nan
3.2304273 2.2293553 0.34339362 22
3.1400506 2.1637506 0.46822205 28
3.3503597 2.3060849 0.64419717 25
4.2434239 2.9175165 1.0009841 8
3.9618406 2.7198431 1.1094587 34
4.1248851 2.8285985 1.3401651 28
1.7812358 1.2146211 -0.57768416 12
1.923077 1.3098677 -0.53718311 17
2.1022825 1.4297829 -0.49419534 10
2.310461 1.5695986 -0.4423967 7
2.6051791 1.7678207 -0.38656959 8
2.9966574 2.0311792 -0.31672394 9
3.4073367 2.3060718 -0.21562417 10
3.6562288 2.4717307 -0.07703492 17
3.7710829 2.5695689 0.079652779 11
3.3550546 2.2835209 0.21269335 8
3.2772167 2.2280331 0.34670553 11
3.1468675 2.1362016 0.46700338 33
3.3532979 2.2737699 0.64169425 18
20.663366 13.995416 4.8511281 8
4.0399809 2.7332175 1.126105 40
nan nan nan nan
1.7848606 1.1989254 -0.57613122 12
1.9305561 1.2953255 -0.53673327 16
2.1103344 1.414348 -0.49381369 10
2.3194492 1.5527376 -0.44208387 9
2.6257093 1.7551059 -0.3877883 9
2.4987521 1.6683518 -0.2628617 8
3.4595089 2.3072062 -0.21792693 3
3.6384418 2.4228716 -0.076301925 11
3.5477645 2.3822012 0.074591585 11
3.466727 2.325155 0.21876432 4
3.2893817 2.2028806 0.34635693 19
3.2190843 2.1533623 0.47553423 28
3.314496 2.2146757 0.63136959 28
20.829155 13.89659 4.867156 8
4.0768037 2.7168324 1.131054 17
4.2085209 2.8014295 1.354659 24
1.7817039 1.1792837 -0.57250774 12
1.9442056 1.285378 -0.53808296 9
2.1267118 1.4039061 -0.4953402 10
2.3368301 1.5408555 -0.44333532 9
2.635937 1.7361006 -0.38754454 8
2.997746 1.9721484 -0.31393498 6
3.4488218 2.265455 -0.21625218 7
3.7484765 2.4594834 -0.078256592 26
3.6793931 2.4334924 0.077000014 13
3.7994995 2.5100703 0.23865199 42
3.3408837 2.2045827 0.35019177 12
3.2423272 2.1362972 0.47675291 33
3.4404321 2.2642417 0.65233177 18
20.841242 13.700555 4.8480754 8
3.9599972 2.6002431 1.0937122 14
4.198894 2.7529166 1.3453414 24
1.7915112 1.1678722 -0.57302535 12
1.9188371 1.2494439 -0.52863503 13
2.1378636 1.3904687 -0.49572179 10
2.3306987 1.5141531 -0.44020665 9
2.6413314 1.7133348 -0.38656959 8
3.0080972 1.9490055 -0.31358635 9
3.4725471 2.2473512 -0.21677555 10
4.1636109 2.6904695 -0.086529031 13
nan nan nan nan
3.7830195 2.4623568 0.23655853 13
3.4213464 2.2235484 0.35698992 40
3.2817676 2.1303923 0.480409 22
3.3927808 2.1999335 0.64044279 22
nan nan nan nan
4.1073275 2.6561351 1.1292545 4
3.891362 2.5135832 1.2412962 4
1.8010447 1.1566947 -0.57354301 12
1.94042 1.2447705 -0.53223425 9
2.1524782 1.3786864 -0.49686664 10
2.3445404 1.4999739 -0.44083238 9
2.6462407 1.6910416 -0.38559461 8
3.01827 1.9258153 -0.31323773 7
3.5049949 2.2337878 -0.21782227 1
4.1396556 2.6352201 -0.085656419 11
5.5924549 3.5889156 0.11598869 11
5.7842488 3.7077239 0.36007139 4
3.5035191 2.243181 0.36396238 10
3.3233225 2.1245356 0.48430881 28
3.4463508 2.2006443 0.6476388 24
7.0000076 4.4646506 1.6138625 4
6.9283347 4.4121404 1.8963375 12
6.8461299 4.3547544 2.1740801 5
1.8123415 1.1461579 -0.57457829 12
1.9457673 1.2291131 -0.53133446 9
2.1454456 1.3531525 -0.49305046 9
2.3649833 1.4898869 -0.44270959 9
2.6479023 1.6661819 -0.38413221 8
3.0451379 1.9131764 -0.31463224 7
2.6323416 1.6519064 -0.16286951 37
3.7377501 2.3428705 -0.077000014 17
5.5801835 3.526284 0.11522079 14
5.8640389 3.7013657 0.3634209 16
3.4820156 2.1952906 0.36012751 20
3.3834314 2.129837 0.49088979 15
3.5017645 2.2017655 0.65514761 18
6.9994173 4.3958335 1.6066117 4
6.9193463 4.3388143 1.8855398 6
6.8452601 4.2873664 2.1642449 12
1.8055401 1.1242871 -0.56991959 12
1.9592649 1.2185866 -0.53268409 9
2.15484 1.3381414 -0.49305046 10
2.3786852 1.4754213 -0.44333532 9
2.666507 1.651373 -0.38510716 9
3.0346982 1.8771969 -0.31219187 7
nan nan nan nan
4.1390519 2.5533397 -0.08488851 16
5.6352282 3.5062571 0.11584908 6
5.6997452 3.5422614 0.35169765 15
5.9128361 3.6704023 0.60887003 8
5.8313007 3.6141529 0.84236097 7
3.4901764 2.1606305 0.65014172 9
6.9989638 4.3260221 1.5993611 4
4.6445866 2.8674345 1.2601758 5
6.8322716 4.213109 2.1507864 12
1.8053031 1.1062913 -0.56733137 12
1.971259 1.20657 -0.53358394 10
2.1674793 1.3251132 -0.49381369 9
2.3807516 1.4532158 -0.44177097 7
2.6779716 1.6327159 -0.38510716 8
3.0477304 1.8559637 -0.31219187 6
3.5872211 2.181066 -0.22002037 5
4.1670322 2.5306094 -0.085097939 7
5.635694 3.452209 0.1153604 14
5.8629594 3.5857928 0.36017609 19
5.7281189 3.4992049 0.58725542 30
5.6208472 3.4296346 0.80848128 2
5.6362062 3.4336088 1.0452952 16
6.9887414 4.2525659 1.5902023 5
6.9076428 4.1982641 1.8661941 8
6.8126979 4.1340451 2.135257 12
1.817945 1.0966545 -0.56888431 12
1.9762959 1.190767 -0.53268409 9
2.1684947 1.3045092 -0.4919056 11
2.3908384 1.4365609 -0.44177097 9
2.6910062 1.6150031 -0.38535091 9
3.0677698 1.8382034 -0.3128891 6
3.5869381 2.1467369 -0.21907835 10
4.1708674 2.4932458 -0.084818691 1
5.5557828 3.3488216 0.11323121 13
5.9494472 3.5818627 0.36394429 19
5.9180293 3.5587275 0.60416359 16
nan nan nan nan
5.6142988 3.3667471 1.0368477 17
6.967732 4.1734076 1.5787537 4
6.9124207 4.1337242 1.8594456 6
6.9093904 4.1270022 2.1564806 9
1.8255563 1.083937 -0.56888431 12
1.9778558 1.1729659 -0.5308845 10
2.1859956 1.2943395 -0.49381369 12
2.40591 1.4228513 -0.44270959 9
2.6885421 1.5881 -0.38340098 9
3.0599332 1.8045975 -0.31079736 6
3.591511 2.1155624 -0.21845031 10
4.2105765 2.4772513 -0.085272454 3
5.5050769 3.2660763 0.11173031 6
7.1702032 4.2488961 0.43679595 8
5.7987075 3.4320786 0.58952147 30
5.9336653 3.5063651 0.84626079 20
5.8179893 3.4339008 1.0700119 17
7.0136104 4.1346316 1.58257 4
6.9982114 4.1189737 1.8747423 6
nan nan nan nan
1.8297431 1.0692164 -0.56784898 12
1.9876796 1.1601115 -0.53133446 12
2.1848011 1.2731164 -0.49152401 12
2.4089556 1.4020456 -0.44145811 10
2.6944151 1.566299 -0.38266978 5
3.0824835 1.7897298 -0.31184325 7
3.6355679 2.1074655 -0.22022973 7
4.2225761 2.4447896 -0.085167743 16
5.553647 3.2426889 0.11225387 9
7.0461388 4.1091862 0.42748013 8
5.8449073 3.4045491 0.59178752 27
5.8190031 3.3840218 0.826518 26
5.7239599 3.3247409 1.0484239 21
7.1000423 4.1190629 1.5955449 9
7.064867 4.0937138 1.8850899 78
7.0198493 4.0610852 2.1730449 52
1.8338141 1.0544895 -0.56681371 12
1.9974205 1.1471761 -0.5317843 10
2.1968222 1.260169 -0.49228725 12
2.4184432 1.3856158 -0.44145811 9
2.7087295 1.5494227 -0.38315722 8
3.0879827 1.7642145 -0.31114599 7
3.6446235 2.0797021 -0.2199157 10
4.2343287 2.4122813 -0.085063025 11
5.5461168 3.1878729 0.1116605 11
7.112051 4.0830097 0.42978293 8
5.8114901 3.3309655 0.58603519 17
5.8126149 3.3275685 0.8223744 20
5.7618918 3.2945266 1.0512397 16
nan nan nan nan
7.0678806 4.0298138 1.8783414 95
6.9936109 3.9826174 2.1564806 96
1.8308616 1.0362742 -0.56370795 12
2.0051823 1.1335545 -0.5317843 11
2.2055662 1.2448016 -0.49228725 12
2.4177332 1.3628781 -0.43958092 9
2.7157547 1.529 -0.38266978 8
3.0967512 1.7406594 -0.31079736 6
3.6573136 2.0532279 -0.21981104 7
4.2332087 2.3736234 -0.084713981 5
5.529943 3.1274192 0.11089259 13
7.1108193 4.0165601 0.42800349 8
5.823617 3.2854569 0.58498931 33
5.9239135 3.3365943 0.83480507 30
5.8450074 3.2881217 1.0621902 17
7.149312 4.0169344 1.5940183 61
nan nan nan nan
nan nan nan nan
1.8380517 1.0234671 -0.56370795 12
2.0130472 1.1195281 -0.5317843 10
2.2107694 1.2274686 -0.49152401 10
2.4202778 1.3421352 -0.4383294 9
2.7385178 1.516737 -0.38437593 9
3.1192892 1.7247821 -0.31184325 7
3.650578 2.0160582 -0.21855497 7
4.2601824 2.3498068 -0.084923409 3
5.4799981 3.0488732 0.10946149 9
7.0688558 3.9280112 0.42381662 11
nan nan nan nan
5.8289895 3.2297339 0.81823081 8
5.8263397 3.2242801 1.0546813 16
7.1376634 3.9450786 1.5852412 65
20.338106 11.222618 5.3628335 10
10.183658 5.6124148 3.1156638 1
1.8485401 1.0124669 -0.56474322 12
2.0037179 1.0960938 -0.52728528 11
2.2227309 1.2138866 -0.49228725 6
2.4295888 1.3252057 -0.4383294 9
2.7316077 1.4880852 -0.38193855 9
3.1172516 1.6953497 -0.31044877 7
3.6540322 1.984805 -0.21792693 7
4.2975745 2.3314528 -0.085342273 5
5.5134273 3.0172639 0.10970583 11
7.1171346 3.8900635 0.4250727 17
7.0668378 3.8577685 0.70439273 1
5.9559789 3.245955 0.83285517 11
5.9024944 3.2127993 1.0643803 14
7.1270833 3.8745222 1.5768455 70
10.27649 5.5773611 2.6994128 2
10.280337 5.5724835 3.1332636 1
1.853863 0.99861997 -0.56422555 12
2.0181851 1.0857725 -0.52908486 11
2.2225037 1.1936948 -0.49037915 9
2.4457443 1.3119469 -0.43958092 9
2.7384312 1.4671024 -0.38145107 9
3.1325252 1.6754252 -0.31079736 4
3.6748466 1.963011 -0.21834564 7
4.2467027 2.265625 -0.084015884 21
5.5132275 2.9673266 0.10928696 11
7.1458783 3.8412273 0.42517737 23
7.0619998 3.7913744 0.70125508 1
6.0064874 3.2193024 0.83675498 1
6.9749374 3.7336636 1.2530402 10
7.133182 3.8135681 1.5722662 68
10.232656 5.4614329 2.6778176 2
10.201363 5.43787 3.0975463 1
1.8471323 0.97841907 -0.5600844 12
2.0274389 1.0725677 -0.52953482 11
2.2099504 1.1671474 -0.4857997 9
2.4618325 1.2985266 -0.44083238 9
2.741581 1.4442494 -0.38047612 9
3.1194577 1.6405318 -0.308357 4
3.6849253 1.9354506 -0.2181363 7
4.251792 2.2303464 -0.083806455 22
5.524972 2.9240878 0.10911245 13
7.1583948 3.7837796 0.42433998 31
7.0636296 3.7289581 0.69881475 1
7.0333261 3.7066848 0.97617352 3
6.9728651 3.6701572 1.2480342 10
7.1283517 3.7472324 1.5653971 70
10.299868 5.405262 2.6854658 2
10.295541 5.3961177 3.1146286 1
1.850491 0.96371514 -0.55904913 12
2.0331485 1.0574882 -0.52908486 11
2.2197874 1.1525954 -0.48618135 10
2.4515486 1.2713051 -0.43739083 10
2.7621732 1.4305518 -0.38193855 9
3.1272953 1.6168839 -0.3080084 7
3.7072203 1.9142593 -0.21865964 5
4.2814765 2.2079437 -0.084085695 12
5.5204153 2.872525 0.10862378 13
7.0747557 3.6766138 0.41785032 5
7.04528 3.6566083 0.69445693 2
7.0237813 3.6392279 0.97129875 3
6.9702473 3.6068628 1.2430284 10
7.1194568 3.6793489 1.5577648 70
10.283666 5.3055253 2.6715188 2
10.709049 5.5178909 3.2279911 2
1.8640521 0.95429516 -0.56111974 12
2.0248652 1.0352851 -0.5250358 9
2.2365232 1.1415328 -0.48808944 12
2.4480445 1.2478793 -0.43520072 10
2.7720928 1.4112333 -0.38193855 11
3.1385069 1.5950118 -0.3080084 6
3.6848743 1.8702526 -0.21656621 7
4.325325 2.1924653 -0.084644176 14
5.5385556 2.8330019 0.10858887 11
7.1464972 3.6507535 0.42057177 31
7.038691 3.5910356 0.69131935 2
7.0030236 3.5666838 0.96496153 3
6.956521 3.5384138 1.2361453 8
7.1047111 3.6091051 1.5489874 76
10.25267 5.1992288 2.6539726 2
nan nan nan nan
1.8672174 0.93952167 -0.5600844 12
2.0198553 1.0149977 -0.52188647 10
2.2426827 1.1250119 -0.48770785 14
2.4602282 1.232529 -0.43582645 9
2.781877 1.3918475 -0.38193855 11
3.1566954 1.5766228 -0.30870563 7
3.7103527 1.8507224 -0.21729892 7
4.3226266 2.1532991 -0.084295124 21
5.5617719 2.7960629 0.10865869 11
7.1004128 3.5649259 0.41638491 8
7.0350933 3.5275202 0.68853039 3
7.0064535 3.507041 0.96203667 2
6.952786 3.4756265 1.2311394 10
7.1016302 3.5453863 1.5428816 67
10.672428 5.3187585 2.7529511 2
nan nan nan nan
1.8754632 0.92731851 -0.56060207 12
2.0321341 1.0034603 -0.52323622 12
2.2434382 1.1058556 -0.48618135 12
2.4705455 1.2161958 -0.43613935 10
2.7772753 1.3653847 -0.37998864 9
3.1712019 1.5563037 -0.30905426 6
3.7195945 1.8230177 -0.21708956 7
4.3716784 2.1397741 -0.084958315 13
5.5435057 2.7385693 0.10792568 13
7.1072149 3.5064356 0.41533819 19
7.0541854 3.4756818 0.68800741 6
6.9773278 3.4317579 0.95472455 1
6.9431925 3.410455 1.2251948 12
7.1032948 3.4844811 1.5379206 68
20.477013 10.027154 5.263855 9
nan nan nan nan
1.871465 0.90913874 -0.55749625 10
2.0408428 0.99010038 -0.52368605 10
2.2352018 1.0824641 -0.48274681 11
2.4860899 1.2023576 -0.43739083 10
2.7974646 1.3511423 -0.38145107 9
3.1784003 1.5323961 -0.30870563 7
3.7466271 1.8039372 -0.21792693 7
4.3576775 2.0953352 -0.084399842 17
5.4995241 2.669241 0.10670401 6
7.0937791 3.4384384 0.41314009 24
7.0352378 3.4055152 0.68382394 8
7.0011144 3.3829665 0.95472455 2
6.929471 3.3438742 1.2186246 10
7.0956111 3.4194674 1.5310514 70
20.732664 9.9735003 5.3115449 9
nan nan nan nan
1.8742791 0.8943873 -0.55646098 10
2.0477052 0.97582847 -0.52368605 10
2.2497957 1.0702075 -0.48427325 12
2.4890699 1.1824305 -0.43645221 9
2.7924807 1.324774 -0.37950116 11
3.1746163 1.5033461 -0.30731115 6
3.7519083 1.7743195 -0.21750826 7
4.3902807 2.0734012 -0.084748887 12
5.5378799 2.6402483 0.10708796 13
7.0743318 3.3682246 0.41062793 13
7.0390506 3.3469026 0.68190652 10
6.9886937 3.3169837 0.94984972 2
6.9330115 3.2861092 1.2151831 12
7.0838208 3.3530486 1.523419 70
20.985027 9.9151058 5.3583345 9
nan nan nan nan
1.8734806 0.87800145 -0.55439043 10
2.0421128 0.95572674 -0.52053678 10
2.2536547 1.0528131 -0.48351002 11
2.4829428 1.1583436 -0.43394926 9
2.8196552 1.3136296 -0.38193855 11
3.195873 1.4861887 -0.308357 4
3.7460895 1.7396709 -0.21646154 7
4.4191613 2.0494311 -0.085028127 11
5.4982257 2.574388 0.10597102 14
7.1211939 3.3297517 0.41198868 35
7.0369697 3.285881 0.67946619 11
6.9720974 3.2496631 0.94448751 2
6.9199662 3.2209556 1.2089256 12
7.0696716 3.2861311 1.5154052 76
21.159801 9.8175716 5.3853283 10
nan nan nan nan
1.8848287 0.86732411 -0.55594331 9
2.0451939 0.93981951 -0.51963699 10
2.2591653 1.0362353 -0.4831284 10
2.5125203 1.1508527 -0.43770367 9
2.8107054 1.2856555 -0.37950116 9
3.2025459 1.4621862 -0.3080084 7
3.7581427 1.7134777 -0.21646154 7
4.4042416 2.0052736 -0.084469646 10
