# .PCD v0.7 - Point Cloud Data file format
VERSION 0.7
FIELDS x y z intensity
SIZE 4 4 4 4
TYPE F F F F
COUNT 1 1 1 1
WIDTH 1427
HEIGHT 1
VIEWPOINT 0 0 0 1 0 0 0
POINTS 1427
DATA ascii
nan nan nan nan
2.1473262 9.020525 -0.16185361 6
3.3182209 14.180733 0.25421175 37
3.1920679 13.609484 0.73259878 22
7.1190143 30.257053 2.7194335 9
7.1132798 30.161839 3.8050051 24
7.1282616 30.15469 4.9076629 13
7.1443925 30.128965 6.0188789 24
nan nan nan nan
7.154727 30.032436 8.2723751 18
0.62959462 2.6124101 -0.7200346 56
0.7023682 2.9076886 -0.6905998 38
0.7859267 3.2436774 -0.6487506 26
0.87779719 3.6145751 -0.58913231 19
1.0201631 4.1912365 -0.52964419 13
1.2183056 4.9939046 -0.44972363 5
1.5328709 6.2643304 -0.33798563 2
2.1948643 8.949378 -0.16084138 3
3.3674123 13.95117 0.25051185 21
3.2799637 13.557746 0.73102868 16
8.5774508 35.373886 3.1844964 12
7.3302436 30.138449 3.8084173 24
7.3418818 30.117624 4.9098525 13
7.3553667 30.104433 6.0238404 24
nan nan nan nan
7.3720527 30.013647 8.2811747 18
0.64735162 2.606076 -0.71951699 52
0.71794271 2.8838038 -0.68610078 38
0.79800498 3.198251 -0.64073664 33
0.89998448 3.5989347 -0.58756793 25
1.0426377 4.1570559 -0.52623188 13
1.2516829 4.9794807 -0.44920069 2
1.5647414 6.211143 -0.33568287 2
2.2171204 8.7748585 -0.15797918 12
3.4241796 13.774616 0.24775437 21
3.394377 13.624256 0.7358436 9
7.5567675 30.24107 2.727103 10
7.5419717 30.114815 3.8118296 24
7.5515256 30.086111 4.9129815 27
7.5749416 30.090425 6.0314727 24
nan nan nan nan
7.5761786 29.962772 8.2811747 18
0.66124791 2.5866358 -0.7153759 36
0.73852426 2.8826256 -0.68700057 26
0.81445217 3.1697836 -0.63615721 33
0.91819149 3.5657823 -0.58318776 24
1.0679336 4.1383295 -0.52476943 14
1.2694408 4.9050412 -0.44327411 2
1.609068 6.2039347 -0.3358922 8
2.2546637 8.674407 -0.15644337 3
3.5396032 13.825928 0.24911566 36
3.0809052 12.008052 0.64969862 8
3.5644133 13.862405 1.2522538 13
7.760951 30.096027 3.8162169 36
7.7673135 30.055609 4.9167361 27
7.7845082 30.057173 6.0352888 24
7.8026519 30.040812 7.1655912 36
7.7934465 29.940935 8.2899742 36
0.6773237 2.5744832 -0.71330529 28
0.75316447 2.8566718 -0.6820516 17
0.83555788 3.1602244 -0.63539398 27
0.93496799 3.528733 -0.57818186 36
1.0876287 4.0962381 -0.52038211 15
1.2636695 4.7458844 -0.42967781 5
1.5370009 5.7602868 -0.3124457 2
2.2800419 8.5270901 -0.15406984 3
3.6289072 13.773807 0.24862698 30
3.8550115 14.60094 0.79142439 3
3.6269665 13.708132 1.2405748 23
7.9800215 30.075653 3.8206043 24
7.9906425 30.052198 4.9251833 13
7.994648 30.003996 6.0356708 36
8.0141983 29.993137 7.1673908 36
8.0087786 29.910053 8.2967033 18
0.69124413 2.5547738 -0.70916426 37
0.7588107 2.7986808 -0.6694544 32
0.84729707 3.1164248 -0.62776166 26
0.95802093 3.5164027 -0.57724321 34
1.112015 4.0732255 -0.5184322 15
1.3125535 4.7945976 -0.43490714 5
1.6152204 5.8880959 -0.31998208 8
2.2971151 8.3567104 -0.15127745 3
3.7584541 13.871662 0.2508609 28
3.2058816 11.807738 0.64122021 14
3.7272863 13.69978 1.2421436 18
8.1950188 30.038357 3.8230414 24
8.2096424 30.029974 4.9308152 13
8.2148285 29.987209 6.0436845 24
8.2429962 30.007868 7.1844873 54
8.2286606 29.894394 8.3080921 18
0.71216947 2.5610526 -0.71227002 24
0.78617817 2.8214731 -0.67620289 20
0.86480689 3.0953069 -0.62470871 26
0.97562367 3.4849 -0.57317597 28
1.1280926 4.0214028 -0.51282626 16
1.3389785 4.7603841 -0.43264109 5
1.6985452 6.0266218 -0.32814649 2
2.3086574 8.1749697 -0.14827564 3
3.8927469 13.979935 0.25330424 34
3.2887681 11.786994 0.64132488 17
3.8550193 13.788555 1.2526023 15
8.4152584 30.018641 3.8279164 36
8.4281721 30.004259 4.9361334 27
8.4367437 29.974487 6.0528436 24
10.755246 38.109818 9.1420116 35
8.4497929 29.880831 8.3205156 18
0.7220723 2.5281551 -0.70450544 29
0.80210209 2.8028016 -0.67305356 21
0.88152182 3.0722098 -0.62127411 35
0.99501836 3.4609168 -0.57036012 31
1.1506468 3.9943538 -0.51038885 19
1.3578055 4.7011523 -0.42810899 11
1.7205902 5.945549 -0.32437828 2
2.3205652 8.0030861 -0.14544836 6
3.3749704 11.801012 0.21424575 14
3.3913336 11.834787 0.64519775 8
3.8978524 13.575548 1.2356941 17
8.6355906 29.997314 3.8327911 12
8.6412535 29.957975 4.9383235 14
8.6566877 29.952581 6.0604753 37
11.124109 38.389427 9.2274923 37
8.6646585 29.843374 8.3267269 18
0.73535651 2.5082219 -0.70036435 30
0.81176364 2.763478 -0.66495538 24
0.90072989 3.0584478 -0.61974764 31
1.0107684 3.425467 -0.56566709 24
1.1785027 3.9862239 -0.51038885 16
1.3894603 4.6877384 -0.42776039 19
1.7330607 5.8357458 -0.31904003 11
2.3889308 8.0288553 -0.14621626 6
3.5119102 11.963279 0.2176315 8
3.4485126 11.724598 0.64048749 8
3.9981644 13.567117 1.2374372 10
8.8538008 29.966755 3.8366911 36
8.8614044 29.934803 4.944581 14
8.8745165 29.921532 6.0665812 37
11.494027 38.65453 9.3102741 38
8.8689175 29.769197 8.323103 55
0.75229287 2.5011771 -0.69984674 31
0.82653832 2.7428167 -0.66135615 25
0.9248988 3.0614817 -0.62165576 33
1.0346581 3.4183271 -0.56566709 22
1.198814 3.9532034 -0.50722027 21
1.4151987 4.6550484 -0.42566866 26
1.7539711 5.7585454 -0.31548119 5
2.4262438 7.950779 -0.1450993 12
3.5722728 11.861881 0.21623531 18
3.6837471 12.208859 0.66833019 9
3.645973 12.060831 1.1023458 4
9.0697021 29.927013 3.8396161 12
9.0793562 29.902452 4.9495869 28
9.0889053 29.877628 6.0703979 25
9.1407557 29.972908 7.234426 18
9.0923357 29.758287 8.3375969 55
0.75948691 2.4626355 -0.69052929 31
0.84624076 2.7388418 -0.66180605 18
0.94683033 3.0568256 -0.62203735 36
1.045032 3.3676283 -0.55847108 27
1.2228475 3.9333642 -0.50575781 16
1.4441055 4.6336422 -0.42462277 21
1.7744865 5.6832457 -0.31202701 5
2.4160228 7.723712 -0.14125979 12
3.6373036 11.779331 0.21518818 24
3.6289961 11.730639 0.64352298 14
3.6899765 11.905675 1.0904927 10
9.286643 29.889507 3.8430283 12
9.3055048 29.89492 4.9589729 14
9.3095436 29.852806 6.0784116 37
9.3503656 29.910225 7.2348766 55
9.3131456 29.736488 8.3495026 55
0.7859773 2.4867454 -0.69881141 34
0.85710639 2.706857 -0.65550739 12
0.96339476 3.0351713 -0.6189844 37
1.0661209 3.352721 -0.55721962 27
1.2388275 3.8887944 -0.50112677 16
1.4715708 4.608264 -0.42322829 21
1.7995145 5.6250644 -0.30951488 2
2.4558487 7.662858 -0.14045697 18
3.7749555 11.92905 0.21839942 25
3.7331359 11.775461 0.64739585 11
3.7175186 11.704924 1.074456 16
9.5023241 29.846638 3.845953 61
9.524189 29.861221 4.964292 28
9.5314722 29.830099 6.0871892 37
12.655291 39.51144 9.5784168 41
9.5376501 29.724087 8.3645144 56
0.79498816 2.4554667 -0.6915645 37
0.86215478 2.6581728 -0.64515966 32
0.97788376 3.007834 -0.61478662 27
1.0870559 3.337683 -0.55596817 31
1.2604065 3.863066 -0.49893317 18
1.503085 4.5959849 -0.42305395 19
1.818218 5.5497308 -0.3060607 10
2.4531598 7.4745293 -0.13731554 11
3.889585 11.999421 0.22017956 25
3.8195651 11.762411 0.64812857 11
3.7837293 11.631319 1.0700982 18
9.7264624 29.828642 3.8522902 73
9.7428551 29.825924 4.9696107 28
9.7596426 29.824404 6.0997825 38
12.963642 39.522118 9.6027117 41
9.7527561 29.680641 8.3712435 37
0.80299211 2.4223514 -0.68379998 33
0.88560319 2.6668851 -0.64875889 42
0.99637997 2.9934821 -0.61326015 41
1.1009583 3.301903 -0.55127513 39
1.2791696 3.8296959 -0.49576455 16
1.5077842 4.5062909 -0.41573292 26
1.8461248 5.5047102 -0.30428126 2
2.4804492 7.3832917 -0.13595425 23
3.9701128 11.962485 0.22000504 23
3.8637831 11.621743 0.64184827 8
3.8761711 11.638646 1.0732358 22
9.9482822 29.801441 3.8576524 61
9.963356 29.794651 4.9758677 14
9.9794521 29.790916 6.1070328 38
13.253419 39.495777 9.6180077 42
9.9646559 29.626478 8.3753843 37
0.82733154 2.4386396 -0.69001162 21
0.890405 2.6200452 -0.63886106 28
1.0078738 2.9606118 -0.60791749 27
1.1240443 3.2962029 -0.551588 33
1.2981685 3.7981317 -0.49283966 19
1.5379145 4.4918852 -0.41538426 20
1.8641107 5.4353399 -0.30114111 2
2.506582 7.2920427 -0.13459297 17
4.0546603 11.944652 0.22017956 46
3.9672339 11.667029 0.64582574 8
3.9592636 11.616958 1.0737587 14
10.162463 29.766848 3.86204 61
10.181926 29.772867 4.9836898 28
10.1961 29.746519 6.1123753 25
10.239966 29.82358 7.2798667 57
10.208797 29.682194 8.4105844 19
0.8401131 2.4220006 -0.68690574 34
0.915254 2.6341724 -0.64380997 25
1.0227073 2.9368172 -0.60448295 36
1.1385707 3.2640281 -0.5475207 24
1.3226819 3.785459 -0.49235216 19
1.5572671 4.4493432 -0.41242099 18
1.8749057 5.3449225 -0.29684958 2
2.5057755 7.1314301 -0.1319402 11
4.1504149 11.951945 0.22084275 25
4.0518694 11.648479 0.64634913 17
4.0421739 11.601029 1.0748047 18
10.380485 29.725164 3.8659396 49
10.413651 29.77005 4.995266 14
10.415886 29.72645 6.1226792 38
10.413705 29.670437 7.2596211 18
10.438221 29.673979 8.4287014 38
0.85829306 2.419718 -0.68794107 40
0.94014597 2.6460814 -0.64830899 25
1.037408 2.9149909 -0.60143 37
1.1640785 3.265506 -0.54908502 27
1.339061 3.7480917 -0.48869613 24
1.5795647 4.4139767 -0.41015494 18
1.8836159 5.2549505 -0.29255801 2
2.5156136 7.002727 -0.12988082 19
4.217628 11.883843 0.22010975 27
4.1538105 11.684614 0.64990795 25
4.1511502 11.651354 1.0821257 18
10.621275 29.762255 3.8800764 24
10.625357 29.72452 4.9996462 14
10.639701 29.699221 6.1322198 26
10.644928 29.664883 7.2762671 57
10.675888 29.702234 8.4571714 58
0.87342614 2.4101875 -0.68690574 40
0.94483608 2.6029851 -0.63931096 24
1.0678004 2.9353518 -0.60715425 27
1.1760273 3.2276034 -0.54407912 19
1.3590963 3.7239728 -0.48674619 13
1.5863131 4.3394995 -0.4042283 13
1.9168187 5.2322965 -0.29203469 2
2.523957 6.8784361 -0.12789124 16
4.3004904 11.854109 0.22010975 19
4.2441506 11.679733 0.65126866 14
4.2269554 11.613466 1.0812541 16
10.879148 29.825378 3.8981133 37
10.846186 29.686718 5.0059032 29
10.865915 29.692478 6.1459584 26
10.895576 29.7253 7.3091102 19
10.900307 29.674126 8.4706297 58
0.89023226 2.4040306 -0.68690574 39
0.96908569 2.6127691 -0.64336008 27
1.0665616 2.8709645 -0.5953241 30
1.1993475 3.2232263 -0.54470485 24
1.3718817 3.6790545 -0.48211515 26
1.6095968 4.3096552 -0.40248519 22
1.933493 5.1686211 -0.28920853 2
2.5452423 6.7894945 -0.12656485 19
4.4026103 11.882693 0.22119181 38
4.3124304 11.620616 0.64959395 11
4.3120966 11.594877 1.0822999 16
11.083284 29.754358 3.8986006 75
11.068707 29.667732 5.0152893 14
11.081865 29.639807 6.150919 26
14.734505 39.346424 9.6998901 43
8.1080713 21.616997 6.1862931 25
0.90315831 2.3888805 -0.68431759 29
0.98822677 2.6097574 -0.64425987 36
1.100509 2.9001591 -0.60295647 26
1.2169081 3.2018492 -0.5425148 15
1.3990129 3.6751962 -0.48284638 22
1.634676 4.2852817 -0.40126503 23
1.9431574 5.0859637 -0.28533566 2
2.5778191 6.7365274 -0.12590165 19
4.4840446 11.847927 0.221122 25
4.4139824 11.644386 0.65262944 17
4.3972855 11.582022 1.0838689 22
11.311902 29.731926 3.9059129 75
11.300162 29.654346 5.0262399 14
11.306463 29.624218 6.1635127 26
4.1810331 10.931867 2.7021124 14
8.0770426 21.085409 6.0501542 23
0.91494346 2.3699017 -0.6806941 28
0.99798852 2.5809836 -0.63886106 29
1.1200186 2.8905756 -0.60257488 26
1.234942 3.1822267 -0.54063755 16
1.4152875 3.6412864 -0.47967777 20
1.6826304 4.320179 -0.40562281 18
1.9662778 5.0406423 -0.28355622 14
2.5803969 6.6047487 -0.12377247 15
nan nan nan nan
4.6184573 11.931788 0.67052829 9
4.4794765 11.554756 1.0842174 24
11.533568 29.689234 3.9107873 75
11.526968 29.626278 5.0350003 29
4.3197823 11.085384 2.3126051 21
4.1573043 10.646461 2.6386759 58
8.0411053 20.560726 5.9155684 22
0.93004954 2.3598619 -0.67965883 31
1.0145532 2.5703278 -0.63796127 36
1.1264516 2.8479989 -0.5953241 28
1.2309378 3.1074123 -0.5293743 19
1.4332519 3.6107705 -0.47699666 22
1.7083338 4.2972178 -0.40457696 15
1.9666964 4.9395795 -0.27863666 7
2.5786872 6.4635301 -0.12146875 28
4.0780849 10.336953 0.19396605 7
4.6664095 11.810097 0.6655041 15
4.5922866 11.604719 1.0918871 19
13.820143 34.852356 4.6034932 15
11.753947 29.596483 5.0437603 14
4.3888288 11.028653 2.3072627 23
4.1247444 10.349261 2.5720906 26
8.0096941 20.066309 5.7892647 28
0.93825841 2.33164 -0.67344719 33
1.0307335 2.55758 -0.63661152 23
1.1338153 2.8091156 -0.58883661 30
1.282027 3.1699445 -0.54157621 13
1.4457541 3.5693986 -0.47285309 27
1.7090815 4.2131829 -0.39777881 14
2.0328274 5.0012398 -0.2829282 4
2.5860507 6.3527637 -0.11972351 18
4.1815186 10.386142 0.19543205 3
4.7171822 11.69305 0.66079384 3
4.6879034 11.602962 1.0948504 19
14.072055 34.777103 4.6064177 15
4.4882441 11.069832 1.8919187 24
4.449472 10.957725 2.2988667 27
4.1557899 10.21912 2.546896 18
4.2055717 10.320896 2.9862542 32
0.95598185 2.3286066 -0.67448246 64
1.0367082 2.5214837 -0.62941307 21
1.1449138 2.7791471 -0.58425713 26
1.2890582 3.1243956 -0.53531879 15
1.4638153 3.5427065 -0.47065943 26
1.7087014 4.1272111 -0.39080635 19
2.0975242 5.0588803 -0.2870104 16
2.6395376 6.3567181 -0.12014236 18
4.0900331 9.9527378 0.18782279 5
4.8587446 11.805745 0.66906291 9
4.8075094 11.663898 1.1037403 19
8.8966417 21.542158 2.8617361 48
8.8847065 21.481375 3.6818421 23
4.2599006 10.284305 2.163774 37
4.2213397 10.171123 2.542397 18
4.2441621 10.211007 2.9629607 46
0.97370642 2.3254402 -0.67551774 65
1.0482563 2.4998081 -0.62581384 34
1.1604869 2.7620361 -0.58234906 35
1.3054779 3.1025743 -0.53312874 17
1.4969935 3.5525227 -0.47334057 20
1.7289486 4.0949907 -0.38888893 21
2.1040115 4.9760499 -0.28313756 21
2.6495435 6.2571139 -0.11860656 17
4.1965203 10.012467 0.18949823 12
5.077868 12.097501 0.68758982 9
4.8587103 11.558419 1.0969422 21
9.0468073 21.479527 2.8617361 80
4.504941 10.680292 1.8359152 21
4.3445768 10.285062 2.1702616 20
4.2193274 9.96912 2.4992063 18
4.4563246 10.513741 3.0597589 13
0.9921931 2.323916 -0.67707068 29
1.0633843 2.4870534 -0.62446415 28
1.1836054 2.7628908 -0.58425713 35
1.3239893 3.0861237 -0.53187722 17
1.5045173 3.5018604 -0.46797833 15
1.7685938 4.11058 -0.39150357 23
2.1260514 4.9318929 -0.28146279 23
2.6796906 6.207252 -0.11801317 5
4.4085498 10.315752 0.195816 8
5.2572813 12.283935 0.70025522 9
4.9691105 11.593806 1.1035661 14
nan nan nan nan
4.5715895 10.630435 1.8327864 18
4.4589853 10.353653 2.1912506 18
4.4221392 10.253318 2.5779393 18
4.0790253 9.4396353 2.7553878 27
1.0022242 2.302762 -0.67292953 45
1.0776068 2.4724233 -0.62266457 27
1.1984577 2.7457736 -0.58234906 31
1.3402183 3.0661802 -0.53000003 19
1.5241503 3.480361 -0.46651587 15
1.8156526 4.1400995 -0.39551273 17
2.1354768 4.8624477 -0.27832264 28
2.6714137 6.0712523 -0.11577927 15
4.322196 9.9261522 0.18897465 12
5.3942676 12.370524 0.70726818 3
5.1161346 11.710371 1.1180339 17
9.3771124 21.432772 2.8724608 8
4.6470137 10.606308 1.8340379 16
4.3441358 9.8962212 2.1008072 15
4.2159977 9.5906677 2.418674 2
4.1089368 9.3338547 2.7326117 27
1.0053488 2.2676291 -0.66464734 37
1.0944111 2.4650309 -0.62266457 29
1.2104152 2.7211962 -0.57891452 27
1.3431035 3.0152469 -0.52280408 24
1.5550833 3.4862223 -0.46870953 27
1.832415 4.1021762 -0.3930724 21
2.1693711 4.8474212 -0.27832264 30
2.7028637 6.0310302 -0.1153604 17
3.8795731 8.7423906 0.16694972 9
5.2898941 11.903652 0.6826703 15
5.2751122 11.853662 1.1351163 13
4.6852503 10.508433 1.4127096 24
4.6887331 10.501457 1.8215232 30
4.5644536 10.208745 2.173696 56
4.508141 10.068648 2.546896 44
4.5377121 10.115753 2.9707251 32
1.0283129 2.2764003 -0.6693061 33
1.1099874 2.4537795 -0.62176478 29
1.227291 2.709317 -0.57815129 27
1.3693101 3.0186269 -0.52499413 16
1.569528 3.4535942 -0.46578467 16
1.849455 4.0638962 -0.39063203 21
2.1965187 4.8198204 -0.27758995 28
2.7108507 5.9374318 -0.11392931 17
4.2609954 9.4282789 0.1805975 7
5.3362107 11.790947 0.6782741 15
5.2705207 11.624204 1.1166394 19
4.7066035 10.366041 1.3978415 32
4.7813578 10.516054 1.8296577 10
4.6836286 10.282042 2.1962116 36
nan nan nan nan
4.5960283 10.061788 2.9639959 30
1.0389395 2.2588179 -0.66620022 46
1.1266629 2.4461677 -0.62176478 39
1.2461743 2.7006836 -0.57815129 23
1.3862065 3.0000284 -0.52342981 24
1.5963323 3.4500377 -0.46675962 20
1.8802952 4.0563083 -0.39115497 21
2.2006814 4.740962 -0.27392641 27
2.7225444 5.8571877 -0.11274255 15
4.2840648 9.3056612 0.17881736 10
5.55302 12.045426 0.69512624 12
4.9052649 10.6257 1.0239056 15
4.7721963 10.318515 1.3958915 40
4.6786723 10.10241 1.7633295 24
4.7188172 10.175119 2.1801836 30
nan nan nan nan
5.1583595 11.087403 3.2766492 4
1.0555043 2.2532585 -0.66671789 42
1.1337831 2.4170706 -0.61636597 41
1.2549785 2.6705956 -0.57357186 33
1.4062757 2.9884903 -0.52311689 28
1.6246099 3.4477878 -0.46797833 19
1.8941067 4.0124536 -0.38819164 20
2.2251883 4.707427 -0.27287969 24
2.7599437 5.8308091 -0.11260293 15
4.2207375 9.0021334 0.17354673 8
5.6573439 12.049759 0.69763839 9
5.0157723 10.668731 1.031401 37
4.8948669 10.392699 1.4105159 32
4.6917877 9.9480095 1.7420545 7
4.7763238 10.113523 2.174078 13
4.8280282 10.20455 2.6062829 14
4.4151449 9.319252 2.7631524 20
1.0737033 2.2510662 -0.66827077 39
1.1632267 2.4354739 -0.62311447 38
1.2702039 2.6546845 -0.57204539 38
1.4151571 2.9536588 -0.51873678 26
1.6469247 3.4327815 -0.46749085 12
1.9213766 3.9994669 -0.38819164 20
2.2398095 4.6539845 -0.27068159 22
2.7094297 5.6222491 -0.10893792 16
4.3782492 9.1709528 0.17738625 12
5.7223778 11.970325 0.69533557 21
5.1752973 10.811367 1.0486579 6
4.9115043 10.241931 1.3946729 17
4.664494 9.7137938 1.7067002 9
3.4345384 7.1428289 1.540592 24
4.8508754 10.074883 2.5815384 20
4.4750624 9.2777615 2.7600465 2
1.0792664 2.222662 -0.66205913 40
1.1640106 2.393995 -0.61456633 29
1.2822274 2.6336217 -0.56937408 27
1.4343622 2.9421825 -0.51842386 31
1.6464565 3.3712564 -0.46066615 17
1.9273677 3.9412112 -0.38383389 22
2.2485988 4.5919933 -0.26796013 22
2.7345264 5.574471 -0.10837945 7
4.3304753 8.9143038 0.17298825 11
5.7478108 11.816151 0.6886366 6
5.1450419 10.558256 1.0275662 5
4.8879604 10.01737 1.3685929 14
4.9108853 10.050985 1.7717769 3
3.6603928 7.4784026 1.6184419 27
4.8456211 9.8867817 2.5419469 20
7.6982684 15.686405 4.6820364 20
1.0918038 2.210068 -0.66050619 58
1.1863273 2.3982434 -0.6177156 30
1.3049409 2.6334014 -0.57128215 27
1.4478434 2.9179409 -0.51592094 25
1.673782 3.36886 -0.46188486 24
1.9388558 3.8955529 -0.38069627 28
2.2939651 4.6029963 -0.26953021 20
2.7384751 5.4877367 -0.10705306 19
4.5255513 9.1527357 0.17822398 15
5.122993 10.347398 0.60510838 28
5.0698886 10.226667 0.99863046 3
5.1431952 10.356363 1.419778 16
4.898252 9.8501949 1.7423673 4
3.6114528 7.252965 1.5749376 18
3.661974 7.3415785 1.8940879 12
4.568892 9.1477766 2.7398586 13
1.1089418 2.2058442 -0.66154152 59
1.1969079 2.3777182 -0.61456633 27
1.3179885 2.6137094 -0.56899244 37
1.464618 2.9007089 -0.51466948 28
1.6945733 3.3517778 -0.46115363 27
1.9678049 3.8854773 -0.38104489 22
2.3079779 4.5512433 -0.26743674 27
2.8020697 5.5184088 -0.10803039 19
4.4167671 8.7779465 0.17152224 14
5.1205187 10.163336 0.59642065 17
5.2282081 10.363573 1.0155387 22
5.0282445 9.9499178 1.3688365 14
5.5394893 10.94733 1.9432292 3
3.478323 6.8650579 1.4959426 7
4.7450604 9.3489742 2.4204733 22
4.9118457 9.665041 2.9049852 24
1.1251941 2.1997681 -0.66205913 56
1.2054833 2.3536942 -0.6105172 43
1.3379972 2.6079376 -0.56975567 30
1.4875408 2.8956845 -0.51560807 26
1.7024959 3.3098567 -0.45701009 23
1.9784549 3.8397663 -0.37790731 28
2.3222983 4.5012941 -0.26544797 15
2.8148322 5.4489651 -0.10705306 16
4.5362577 8.8608189 0.17375615 13
5.2040977 10.152225 0.59788603 23
5.1557703 10.044989 0.98782319 5
4.9768624 9.6797714 1.3364193 16
4.9186678 9.5542812 1.7020072 12
nan nan nan nan
4.8862062 9.4628019 2.4587152 30
4.8035221 9.2907372 2.8024926 53
1.1351725 2.1815774 -0.65895331 39
1.2317894 2.3642321 -0.61546612 24
1.3452713 2.5776474 -0.56517625 36
1.5104649 2.890481 -0.51654667 22
1.7126772 3.2732661 -0.45359772 24
1.9968907 3.8099768 -0.37633851 20
2.3471682 4.4725933 -0.26471528 20
2.8202462 5.3672256 -0.10583139 16
4.5148773 8.6693115 0.17061472 11
5.30902 10.18117 0.60175884 5
5.3613319 10.268372 1.0134469 15
3.548408 6.7846012 0.94010019 13
3.7471817 7.1555338 1.2793212 10
3.6887059 7.034905 1.5440264 21
3.6708438 6.9889636 1.8225535 27
5.0624938 9.626297 2.9143026 22
1.1377238 2.1496949 -0.6517064 33
1.2437024 2.3469653 -0.61321658 34
1.3567892 2.5560546 -0.56250495 28
1.5213354 2.8624232 -0.51341796 11
1.7392161 3.26824 -0.45457271 37
2.0037589 3.7590206 -0.37267792 16
2.367991 4.4367161 -0.2635639 9
2.8340855 5.3033147 -0.10495877 21
4.1035376 7.7469606 0.15302271 11
5.2573771 9.9127131 0.58804685 25
5.3413119 10.058244 0.99636441 1
5.5161209 10.369958 1.442202 22
5.0850177 9.5474405 1.7132704 16
3.5381896 6.634798 1.461597 24
3.6176252 6.7723727 1.7726145 8
nan nan nan nan
1.1408024 2.1195848 -0.64497709 33
1.2600582 2.3382249 -0.61321658 33
1.3708705 2.5396097 -0.56097847 27
1.5281323 2.8274031 -0.50903779 33
1.7534872 3.2403054 -0.45237905 20
2.0318506 3.748445 -0.37302658 16
2.4074817 4.4358749 -0.26450595 6
2.8605375 5.2640719 -0.10457481 22
4.4448647 8.2515631 0.16359887 9
5.4165182 10.042769 0.59799069 8
5.3564878 9.9190331 0.98625439 7
3.7107952 6.8601074 0.95764935 27
5.1063914 9.4283323 1.6982528 6
3.6190505 6.6737909 1.4757168 30
3.6555157 6.7298279 1.7681154 14
5.233325 9.6225586 2.935008 74
1.1741195 2.1454628 -0.65532982 34
1.2623038 2.3037367 -0.60646808 31
1.3781763 2.5110455 -0.5567807 37
1.5335654 2.7906973 -0.50434476 26
1.7904217 3.2540724 -0.45603511 16
2.0425832 3.7062492 -0.37023759 18
2.4142656 4.3752432 -0.26188916 15
2.8817437 5.21597 -0.10401635 20
4.3601928 7.9607601 0.15843295 13
5.5364366 10.095774 0.60343367 20
3.758991 6.8460712 0.68330097 5
3.7193725 6.7627215 0.9476561 22
5.2768984 9.5827961 1.7326683 16
3.6437526 6.6088204 1.4669396 11
3.7335017 6.7604356 1.7829622 38
4.9227123 8.9027805 2.7258823 15
1.1881299 2.1355257 -0.65481222 33
1.2812012 2.2999752 -0.60781777 33
1.4014126 2.5116496 -0.55907035 25
1.5539728 2.7816479 -0.50465763 23
1.8092196 3.2345636 -0.45506018 27
2.0674343 3.690161 -0.37006328 20
2.4271657 4.3269262 -0.26000506 8
2.9406123 5.2358241 -0.10481916 23
4.3135166 7.7466798 0.15476793 9
5.6680541 10.166778 0.61002797 8
5.4604692 9.7823868 0.98015344 12
3.8711193 6.923718 0.97397989 28
5.307004 9.4802246 1.7207794 15
3.6840394 6.5729475 1.4646499 16
3.6651764 6.528595 1.7285241 21
5.2185535 9.2841568 2.853739 25
1.2030097 2.1271787 -0.65481222 48
1.2905055 2.2791045 -0.6046685 31
1.4092277 2.4847274 -0.55525422 23
1.5772562 2.7776027 -0.50590914 23
1.8199821 3.2011466 -0.45213532 26
2.0865908 3.6656139 -0.36901742 18
2.452368 4.3012004 -0.2594817 6
2.9513178 5.1700139 -0.10391163 20
4.1094203 7.2604284 0.14562289 14
5.535059 9.7672682 0.58836091 8
3.7155809 6.5485811 0.65872312 3
3.7692957 6.6324673 0.93668783 8
nan nan nan nan
3.656951 6.4191284 1.4360286 20
3.7587686 6.5898266 1.751469 31
5.290904 9.2609196 2.8578801 21
1.2110909 2.1070046 -0.65118873 47
1.307356 2.271729 -0.60511833 33
1.4310076 2.4835835 -0.55716228 27
1.60797 2.7873359 -0.50966352 23
1.822423 3.1539869 -0.44726053 33
2.1091375 3.6457837 -0.36849448 16
2.449553 4.229104 -0.25613219 19
2.9652603 5.1112323 -0.10314372 27
4.0959487 7.1230731 0.14342389 29
5.7249823 9.9439974 0.60134023 2
5.447228 9.4462957 0.95400673 14
2.5766494 4.4628887 0.63274568 11
5.2918892 9.1547499 1.6747875 3
3.6652818 6.3305759 1.4219086 7
3.7548428 6.4774399 1.7285241 17
5.3935809 9.2931929 2.8791032 42
1.2254057 2.0987117 -0.65118873 48
1.3296746 2.2745535 -0.60826772 29
1.4364088 2.4532018 -0.55258286 25
1.6124063 2.7504792 -0.50497049 21
1.8438493 3.1415091 -0.44726053 26
2.1082857 3.5863128 -0.36396238 20
2.4688871 4.1946878 -0.25508547 12
2.9756174 5.0495825 -0.10230601 22
4.1284223 7.0649548 0.14283049 26
5.8093886 9.9296474 0.60291028 2
2.5648687 4.3787189 0.44397137 1
2.580621 4.3985624 0.62616473 12
3.8969443 6.6342206 1.2186246 12
4.0377111 6.8656311 1.5482242 21
3.7851334 6.4258833 1.7217754 38
5.3022881 8.9907341 2.7967987 6
1.2439696 2.0967519 -0.65325934 47
1.3475108 2.2685666 -0.60916752 22
1.4755839 2.480233 -0.56097847 30
1.6184274 2.717093 -0.50090319 23
1.8728535 3.1404946 -0.44896671 22
2.1220334 3.5526917 -0.36204496 33
2.4868357 4.158494 -0.25393409 6
3.0056617 5.0201073 -0.10213149 20
4.1378284 6.9689026 0.1414692 29
4.2629828 7.1711321 0.43721461 5
2.5862045 4.3452969 0.44240254 11
2.5309663 4.2457356 0.60690933 15
4.0059319 6.7120204 1.2380226 14
4.0855436 6.837275 1.5482242 29
3.8639278 6.4561543 1.7370722 27
6.0004158 10.014065 3.128087 7
1.250599 2.07478 -0.64911819 29
1.3482124 2.2340772 -0.60241896 14
1.490832 2.4665108 -0.56021523 32
1.6322434 2.6972778 -0.49933887 30
1.8757288 3.0947576 -0.44433567 23
2.1436832 3.5326805 -0.36152202 26
2.4867704 4.0932369 -0.25100327 8
3.0269551 4.9745545 -0.10164282 22
4.1450663 6.8713517 0.14007302 26
2.6309283 4.3561797 0.26670405 17
2.4401917 4.0355902 0.41259527 15
2.5440903 4.2007961 0.60300958 23
6.1020789 10.063843 1.8640733 10
3.7359092 6.1517453 1.3990116 16
3.94839 6.4939613 1.7546183 21
4.2018147 6.9026279 2.1652801 27
1.2654138 2.0657778 -0.64911819 37
1.3794464 2.2492905 -0.60916752 27
1.4792509 2.4091978 -0.54952991 29
1.650468 2.683846 -0.499026 26
1.9014517 3.0883486 -0.44531062 26
2.1682937 3.5176287 -0.36152202 31
2.5065541 4.0600419 -0.25006124 12
3.0626616 4.9550023 -0.10167772 20
4.1971164 6.8490672 0.14021264 19
2.5983012 4.233408 0.26031908 9
2.3417499 3.8109281 0.39132929 13
2.537992 4.1254458 0.59472245 11
4.3180261 7.0078902 1.303725 29
3.8220546 6.195694 1.4150395 26
3.9045386 6.3219934 1.7154769 25
4.2571988 6.8822412 2.168386 9
1.2706194 2.0421307 -0.64445943 36
1.3858423 2.2247188 -0.60511833 46
1.4871 2.3835602 -0.54609537 25
1.6681169 2.6705837 -0.49871314 25
1.9061241 3.0480704 -0.44141081 17
2.174823 3.4736981 -0.35855874 22
2.5114946 4.0052176 -0.24775843 20
3.0812311 4.9080958 -0.10115415 24
4.2587037 6.8392277 0.1406315 3
2.4365478 3.9083908 0.24137343 15
2.3440347 3.7556121 0.38732013 16
2.544297 4.070148 0.58936024 12
4.2809124 6.8402658 1.2780697 85
3.9225507 6.2603593 1.4360286 12
4.0013957 6.3787704 1.7384218 17
5.4777732 8.7188005 2.7590113 27
1.2827803 2.0299449 -0.64342415 30
1.3930061 2.2018142 -0.60151911 24
1.4696746 2.3203082 -0.53388357 22
1.6693314 2.6324747 -0.49370724 22
1.9177787 3.0196073 -0.43921715 23
2.1893997 3.4432986 -0.35698992 24
2.5140288 3.9492791 -0.24535099 16
3.1111181 4.8797216 -0.10101452 24
2.6799028 4.2391882 0.087541275 10
2.4983411 3.9474092 0.24482764 12
2.3691285 3.7374749 0.38714582 27
2.6038527 4.1030173 0.59667236 23
nan nan nan nan
nan nan nan nan
4.0877128 6.4164219 1.756418 19
nan nan nan nan
1.3007416 2.0276699 -0.64549476 30
1.3932171 2.1693261 -0.59522051 34
1.5198227 2.3628297 -0.54609537 15
1.6855288 2.6174357 -0.49308151 21
1.939364 3.008152 -0.4394609 16
2.1809642 3.3777151 -0.35176057 21
2.5480464 3.9416947 -0.24597903 14
3.1388316 4.8500366 -0.10084001 6
2.5603471 3.9881551 0.082724407 15
2.3789749 3.7013705 0.23059224 15
2.328748 3.6190567 0.3765128 13
2.5872693 4.0146575 0.58643532 13
4.1927562 6.4984126 1.224882 3
nan nan nan nan
nan nan nan nan
6.0080857 9.2764397 2.9614077 26
1.3138112 2.0169208 -0.64497709 33
1.4125859 2.1660759 -0.59702015 18
1.5523849 2.3768175 -0.55181968 27
1.7307874 2.6469371 -0.50090319 22
1.9657539 3.0028436 -0.44067958 17
2.2088597 3.3690724 -0.35245782 19
2.5349503 3.8620317 -0.24210617 18
2.6685524 4.0609403 -0.084818691 7
2.5553679 3.9199266 0.081677265 9
2.4309554 3.7248135 0.23310436 16
2.3430591 3.5860317 0.37476969 21
2.5934949 3.9632766 0.58156055 25
6.4517531 9.8480568 1.8646991 1
4.1766176 6.3679786 1.4802963 7
4.0977263 6.2381954 1.7231252 21
5.7914109 8.8065329 2.8242335 44
1.331056 2.0125341 -0.64653003 36
1.4309 2.1610367 -0.59836984 40
1.55375 2.3430154 -0.54647696 24
1.7535946 2.6413722 -0.50215465 17
1.9833733 2.9840872 -0.43994835 16
2.2516086 3.3838167 -0.35559544 15
2.5507748 3.8276205 -0.24105945 16
2.6002846 3.8974903 -0.081781976 19
2.4292572 3.6702065 0.0768255 11
2.4028416 3.6261711 0.22797546 19
2.3823555 3.5911701 0.37703574 32
2.5595825 3.8524816 0.56791121 16
6.2927918 9.4606638 1.7996223 1
4.209003 6.3206906 1.4760985 14
4.1573892 6.2361016 1.7303237 42
6.8428698 10.248825 3.3020134 16
1.3364593 1.9903612 -0.64238888 28
1.4252968 2.1202652 -0.5898217 34
1.5663739 2.3274987 -0.54533213 30
1.7571844 2.6080778 -0.49808741 22
2.0185909 2.9915607 -0.44311696 15
2.2394865 3.3151841 -0.35001746 33
2.5387275 3.7539179 -0.23750059 14
2.5646327 3.7865241 -0.079827309 8
2.4051197 3.5805485 0.075289682 31
2.355022 3.5020041 0.22117178 24
2.3628497 3.5083492 0.37006328 15
2.5480139 3.7790089 0.55962408 23
6.3813567 9.4536314 1.8065054 16
4.2321358 6.2602491 1.4688478 23
4.1582255 6.1439848 1.7127774 27
6.1929421 9.1400661 2.9583018 32
1.3380094 1.9636575 -0.63669485 31
1.4660507 2.1491516 -0.60061932 34
1.5825847 2.3165064 -0.54533213 36
1.7619675 2.5761807 -0.49433297 26
2.0288148 2.9630091 -0.44092333 27
2.2715919 3.3126132 -0.35141194 14
2.5795679 3.7575083 -0.23886132 14
2.5552356 3.7178915 -0.078745253 14
2.4728689 3.626452 0.076616064 15
2.3850448 3.4937239 0.22169513 30
2.3866756 3.4921846 0.37006328 27
2.5227563 3.685776 0.54841208 15
6.5655541 9.5815821 1.8396695 4
4.3490558 6.3397679 1.4944161 10
4.2109494 6.1292615 1.7168266 51
6.3540354 9.2382708 3.0043716 20
1.3516858 1.9542685 -0.63669485 45
1.4643784 2.1148322 -0.59387082 41
1.5830548 2.2828162 -0.53998947 42
1.7787819 2.5621955 -0.4940201 25
2.0551143 2.9569242 -0.44214204 15
2.2775898 3.2721448 -0.34879729 10
2.5612049 3.6755006 -0.23477912 22
2.5765529 3.6934018 -0.078605637 3
2.470813 3.5696366 0.075778343 12
2.3786631 3.4326639 0.21886899 27
2.3530788 3.3919482 0.36117339 20
2.5756097 3.7072003 0.55426186 15
3.168385 4.5553141 0.87884891 4
4.4470625 6.3865843 1.5127338 43
4.5323048 6.49933 1.829302 29
6.2359061 8.9323254 2.9189613 36
1.3575271 1.9337159 -0.63307142 29
1.4847106 2.1125283 -0.5961203 30
1.6238133 2.3070285 -0.54838508 30
1.7932127 2.5448704 -0.49308151 22
2.0459564 2.9003301 -0.43580481 17
2.2998085 3.256567 -0.34879729 5
2.5614285 3.6216578 -0.23247635 18
3.2597742 4.6039486 -0.098466478 6
2.4634848 3.5064864 0.074801013 31
2.373843 3.3751338 0.21625218 17
2.3629355 3.35589 0.35908166 15
2.5339348 3.5934117 0.53988123 12
2.9506178 4.1796679 0.81033063 18
4.5787888 6.4788346 1.5421184 12
4.4852738 6.3394694 1.79286 23
nan nan nan nan
1.382203 1.9399253 -0.63824779 36
1.4994217 2.1021123 -0.5961203 33
1.6189429 2.267163 -0.54151595 41
1.8173862 2.5422471 -0.4949587 22
2.0476668 2.8601494 -0.431905 19
2.312043 3.2258563 -0.34722847 13
2.5976665 3.6203651 -0.23352307 22
2.5741906 3.5823679 -0.077000014 9
2.4188166 3.3935618 0.072741628 25
2.3712399 3.3231301 0.21394941 16
2.416425 3.3814588 0.36361378 15
2.565264 3.5857685 0.54134369 11
3.0135033 4.2076674 0.81971669 13
4.358439 6.0765972 1.453583 28
7.67103 10.683243 3.0363896 22
6.3314085 8.8078499 2.906538 32
1.3704786 1.8960276 -0.62685978 41
1.5114107 2.0886998 -0.59522051 34
1.6404912 2.2637541 -0.54342401 28
1.8281304 2.5199041 -0.49308151 20
2.0792513 2.8618453 -0.43434238 19
2.3122387 3.1790235 -0.34391654 19
2.6146469 3.5908408 -0.23279037 18
2.8383164 3.892302 -0.084085695 14
2.4998772 3.4559848 0.074451968 15
2.3838391 3.2919352 0.21300736 16
2.4007955 3.3116999 0.35786149 12
2.5820708 3.5565269 0.53963745 12
2.9104078 4.004365 0.78404963 10
4.4446592 6.1063385 1.4680845 27
7.649024 10.497131 2.9985979 38
nan nan nan nan
1.3885825 1.8924019 -0.62893027 35
1.5297794 2.0825427 -0.59657025 28
1.6620708 2.2601542 -0.54533213 25
1.8367443 2.4940329 -0.49057853 26
2.0885782 2.8328795 -0.43214872 13
2.3225446 3.1467731 -0.34217343 17
2.6711431 3.6137965 -0.23551181 18
2.828547 3.8225603 -0.08300364 17
2.5002778 3.4062073 0.073753871 17
2.3978708 3.2619193 0.21216999 20
2.4031751 3.2655506 0.35472387 32
2.6068373 3.5384142 0.53963745 12
2.8428202 3.8530922 0.75839436 28
4.7834496 6.4762759 1.5650156 33
nan nan nan nan
3.5535712 4.7988744 1.6000193 15
1.3763777 1.8485732 -0.61754227 36
1.5361278 2.0608754 -0.59342092 34
1.6770272 2.2466297 -0.54495054 29
1.8434688 2.4669077 -0.48776269 28
2.0940349 2.799155 -0.42922387 16
2.3289304 3.1097503 -0.33990738 13
2.633991 3.5119762 -0.23006889 20
2.9019885 3.8650875 -0.084364928 12
2.5281725 3.3930392 0.073858589 15
2.3668473 3.1730573 0.20745975 25
2.4509482 3.2822182 0.3583844 8
2.5851226 3.4581213 0.5301317 17
2.9134548 3.8916597 0.76997054 12
4.8238392 6.4364367 1.563489 16
4.6371446 6.1805849 1.783862 6
3.5629523 4.7436795 1.5896666 7
1.3772871 1.8237447 -0.6123659 61
1.5430698 2.041044 -0.59072149 23
1.6887255 2.2304668 -0.54380566 46
1.8470926 2.4369857 -0.48432118 27
2.097441 2.7642784 -0.42605525 15
2.335582 3.0747869 -0.33781564 17
2.6384864 3.4685333 -0.22839414 22
2.5877934 3.3981988 -0.074556686 10
2.3920588 3.1651673 0.06925115 18
2.3992345 3.1712089 0.2084018 15
2.4178965 3.1924002 0.35036606 36
2.5366383 3.3455369 0.51550734 23
3.104728 4.0888467 0.81314647 16
4.5265589 5.9548855 1.4539646 12
4.6838241 6.1550827 1.7856616 4
nan nan nan nan
1.4002405 1.8281312 -0.6170246 32
1.5498114 2.0212154 -0.58802211 46
1.6978891 2.2111354 -0.54189759 40
1.8564134 2.4149606 -0.48244393 26
2.1149964 2.7483652 -0.42581153 27
2.3509102 3.0505161 -0.3369441 14
2.6900966 3.4868629 -0.2308016 18
2.5766408 3.3361905 -0.073579341 18
2.4366632 3.1789656 0.069914341 22
2.4000969 3.1278663 0.20662238 25
2.4043744 3.1300461 0.34531105 21
2.5441997 3.307291 0.51233876 17
2.9516981 3.8328578 0.7662161 37
4.7875452 6.2100258 1.5241823 31
4.7338233 6.1314912 1.788361 19
7.2796597 9.4187813 3.1896861 1
1.4271947 1.8366157 -0.6232363 22
1.5710646 2.0195746 -0.59072149 38
1.7048388 2.1883869 -0.53922629 36
1.8817314 2.4128451 -0.48463401 23
2.1231375 2.7194505 -0.42361787 15
2.3525131 3.0089166 -0.33415511 14
2.6996017 3.4491241 -0.22954552 16
2.5345023 3.2346954 -0.071729392 13
2.49194 3.2044995 0.070856772 25
2.4316888 3.1236434 0.20745975 6
2.3918738 3.0691829 0.34043032 19
2.5391364 3.2534556 0.50673276 26
2.9771681 3.810601 0.76590323 16
4.9505248 6.3295484 1.5619626 25
7.37326 9.4136133 2.7605994 2
7.2331882 9.2248268 3.1410282 1
1.4268249 1.8099196 -0.61754227 42
1.5887464 2.0131474 -0.59207124 27
1.7285973 2.1872127 -0.54189759 28
1.8740185 2.3686655 -0.47837666 15
2.1433051 2.7061172 -0.42386162 34
2.3635573 2.9799318 -0.3327606 24
2.685113 3.3817055 -0.2263007 9
2.8419645 3.5754032 -0.079722598 27
2.4634705 3.1226561 0.069425672 29
2.4224899 3.0674057 0.20484295 12
2.3811157 3.0117733 0.33589822 18
2.5802696 3.2589962 0.51038885 27
2.9852936 3.7665024 0.7612102 13
4.9787292 6.2748394 1.5570016 24
7.3672729 9.2718906 2.7340553 2
7.2276621 9.0864162 3.1110051 3
1.4478717 1.8104753 -0.62116575 47
1.5942367 1.9913576 -0.5889219 43
1.7401395 2.1704969 -0.54075271 36
1.8880363 2.3524435 -0.47775093 18
2.1472251 2.6725183 -0.42093676 30
2.3967948 2.9788806 -0.33450374 14
2.7023935 3.355099 -0.22577733 18
2.8480301 3.5321238 -0.079199016 14
nan nan nan nan
2.4875526 3.1049743 0.20850646 21
2.4033301 2.9966309 0.33607253 23
2.5669103 3.1960194 0.5033204 25
2.9929478 3.7224782 0.75651717 15
5.1688986 6.4219294 1.6024141 4
7.3486629 9.1170597 2.7034619 2
7.3309546 9.08535 3.128087 1
1.4689952 1.810825 -0.62478918 37
1.6007292 1.9711028 -0.58622253 33
1.7602049 2.1643884 -0.54227924 42
1.9106482 2.3468657 -0.47931525 26
2.1608126 2.6513085 -0.41996178 16
2.3986359 2.9389217 -0.33188906 17
2.7257507 3.3361511 -0.22577733 24
2.6460004 3.2350831 -0.072951064 19
2.519433 3.1034811 0.069774717 23
2.5784495 3.1727791 0.21426344 5
2.4883189 3.0586002 0.34496242 14
2.5866525 3.1749437 0.50283301 13
2.849067 3.4933031 0.71396697 25
5.2831373 6.470849 1.6237847 20
7.4343314 9.0926933 2.7115602 4
3.586364 4.3816838 1.5171974 6
1.4779183 1.796051 -0.6232363 47
1.6119722 1.9568721 -0.58532268 30
1.7727736 2.1490178 -0.54151595 42
1.9219545 2.3273768 -0.47806379 26
2.1615624 2.6147387 -0.41654944 13
2.4178231 2.9205711 -0.33171475 14
2.7438757 3.3108904 -0.22535865 15
2.7502348 3.3150294 -0.075184964 17
2.4863782 3.0194383 0.068273813 16
2.4277592 2.9451077 0.20002805 27
2.5134144 3.0457654 0.34548536 7
2.6163433 3.1659873 0.50429535 16
2.8582776 3.4550619 0.71021259 16
7.5396037 9.1041002 2.2977221 4
7.5138021 9.0600719 2.7174089 8
7.4213018 8.9390068 3.1130757 31
1.476805 1.7693744 -0.61754227 29
1.6218469 1.9410836 -0.58397299 31
1.7776535 2.1245446 -0.538463 42
1.9495705 2.3275323 -0.4808796 23
2.1810393 2.6011057 -0.41679317 12
2.406904 2.8674207 -0.32753128 17
2.7283688 3.2457879 -0.2222185 10
2.7887611 3.3141091 -0.075603828 16
2.7201934 3.2567782 0.074068017 16
2.4700401 2.9541349 0.20180747 8
2.672729 3.1931491 0.36431101 5
2.6549587 3.1674235 0.50746399 11
3.0651705 3.6529288 0.75526565 16
7.6269655 9.0798073 2.3049729 17
7.5966191 9.0340719 2.7250571 32
7.4063811 8.7953568 3.080982 24
1.497859 1.7693422 -0.62116575 27
1.6315789 1.9252536 -0.5826233 30
1.7844543 2.1034119 -0.53617334 24
1.95514 2.3021619 -0.47837666 18
2.2107198 2.5994253 -0.41898686 9
2.4126563 2.8338602 -0.32561383 16
2.7581723 3.2362621 -0.22284654 22
2.6482613 3.1029091 -0.071205825 25
2.4528177 2.8963623 0.066249333 23
2.4461772 2.8854566 0.19824862 3
2.515722 2.9632909 0.34008169 11
2.6571743 3.1265893 0.5038079 30
2.9875629 3.5116165 0.73023617 19
7.6990814 9.0368013 2.3076441 46
3.6849582 4.3206372 1.3110148 12
7.3832846 8.6477737 3.0468178 16
1.5149001 1.7649702 -0.6232363 14
1.6332151 1.9008012 -0.57857412 36
1.797815 2.0894146 -0.5357917 20
1.9518267 2.2660058 -0.47368363 41
2.2179921 2.5722902 -0.41703692 11
2.4232669 2.8063912 -0.32439366 21
2.7532701 3.1851962 -0.22064841 17
2.5947368 2.9986176 -0.069216244 23
2.466465 2.871582 0.066074811 21
2.5300684 2.9425139 0.20337754 10
2.5176377 2.9249575 0.33764133 12
2.6893041 3.1199927 0.50575781 16
3.2584877 3.7763302 0.78999412 13
2.9658208 3.4335129 0.88191921 7
3.6296146 4.1960578 1.2808714 15
7.377718 8.5200768 3.0199006 33
1.5259163 1.7528938 -0.62271863 11
1.6438857 1.8864138 -0.57767433 31
1.8188112 2.0842092 -0.53769976 23
1.9818933 2.2686894 -0.4771252 25
2.2215202 2.5403066 -0.41435578 12
2.4401748 2.7864077 -0.32404503 18
2.7938726 3.186923 -0.22211383 17
2.6921105 3.0676033 -0.071240723 9
2.4969602 2.8663552 0.066354051 13
2.5295463 2.9006944 0.20170279 27
2.4554493 2.8127511 0.32665971 21
2.8142364 3.219208 0.52501315 7
3.1963127 3.6524041 0.76871902 16
7.9380851 9.0612173 2.341608 2
3.8798635 4.4225841 1.3582546 15
9.9967566 11.383087 4.0593181 18
1.5253319 1.7277155 -0.61754227 12
1.6621774 1.8807322 -0.57947397 31
1.7955842 2.0288265 -0.52663285 31
1.9989934 2.2562764 -0.47743803 18
2.1825633 2.4608736 -0.40387502 12
2.4542747 2.7633467 -0.32334781 13
2.8293228 3.1822681 -0.22316055 20
2.5884888 2.9083235 -0.067959674 20
2.4864573 2.8143868 0.065551244 27
2.4346187 2.7528055 0.19259633 30
2.4974768 2.8209009 0.32962301 18
2.6707106 3.012326 0.49430209 15
3.1679723 3.569427 0.75589144 6
3.1282206 3.5209229 0.91550165 1
8.5997963 9.6657763 2.9869003 5
3.7454095 4.2052331 1.5089152 1
1.5334896 1.7127075 -0.61598933 19
1.6791679 1.8734365 -0.58082366 30
1.8319987 2.0410781 -0.53312039 37
1.9988546 2.2246325 -0.47368363 27
2.2142928 2.4618113 -0.40655616 19
2.4708395 2.7431843 -0.32299918 13
2.7993093 3.1045887 -0.21907835 17
2.5511167 2.8263497 -0.066458762 30
2.5460775 2.8416393 0.066598386 15
2.500453 2.78778 0.19625986 5
2.5397384 2.8285992 0.33258632 12
2.6784015 2.9788475 0.49186471 20
3.1188073 3.4650044 0.73837078 27
9.0507746 10.044857 2.6282034 2
nan nan nan nan
7.5428782 8.3507977 3.0152421 16
1.5402147 1.6962392 -0.61391884 22
1.6987599 1.8688781 -0.58307314 41
1.8475242 2.0296915 -0.53350198 39
2.0050223 2.2004037 -0.47149354 23
2.2448022 2.4609599 -0.40899354 13
2.4912753 2.7273376 -0.32317349 16
2.8559587 3.1232913 -0.22179982 14
2.5734863 2.8114209 -0.066528574 26
2.5443356 2.8001163 0.066039905 18
2.5144787 2.7643459 0.19584116 7
2.5272312 2.7754424 0.32840282 13
2.7405958 3.005548 0.49942058 16
4.9501014 5.422956 1.1629339 5
3.0459652 3.3334219 0.87772143 1
nan nan nan nan
3.3353014 3.6411211 1.323083 3
1.5585622 1.6925505 -0.61650699 31
1.7025201 1.846943 -0.57992387 23
1.8483324 2.0023177 -0.5296858 29
1.9962039 2.1602383 -0.46586189 14
2.2484484 2.430656 -0.40655616 12
2.506192 2.7054949 -0.32265055 16
2.889915 3.1164587 -0.22274184 18
2.5780847 2.777266 -0.066144623 28
2.6369982 2.8616941 0.067924768 3
2.6027806 2.821595 0.20117943 11
2.4708509 2.6757615 0.31864139 19
2.7076023 2.9280431 0.48967105 27
3.1078391 3.3573375 0.72460455 19
3.1559014 3.4056764 0.90252656 13
3.2621806 3.515445 1.1072092 13
3.2948997 3.5469778 1.297201 27
1.5663841 1.6773934 -0.61495411 27
1.7033957 1.8221999 -0.57587475 24
1.8622662 1.9893652 -0.5296858 34
1.9409984 2.0712962 -0.44959271 10
2.2612884 2.4105563 -0.40582496 13
2.521822 2.6854684 -0.32230192 24
2.7994063 2.9768987 -0.21415874 36
2.8126051 2.9877982 -0.071624674 15
2.5804546 2.7613955 0.0659701 24
2.6033137 2.7829354 0.19971403 7
2.5943339 2.7704272 0.33206338 13
2.6437895 2.8192921 0.47455928 11
5.0442634 5.3734756 1.1673142 10
3.2266545 3.4336364 0.91588324 33
3.1164579 3.3128941 1.0500716 9
3.0188854 3.2046857 1.1796973 5
1.5807137 1.6692218 -0.61598933 38
1.7120534 1.8060207 -0.57452506 27
1.8649529 1.9652504 -0.52663285 45
2.0067518 2.1124589 -0.46148172 12
2.2712212 2.3875194 -0.40460625 15
2.5405087 2.6677976 -0.32230192 16
2.8485446 2.9881332 -0.21635687 26
2.8402996 2.975322 -0.071799204 10
2.5675592 2.7103784 0.065167286 10
2.513624 2.6506617 0.19144495 32
2.5601051 2.6959026 0.32526523 21
2.606843 2.7422428 0.46456599 18
4.9540787 5.205934 1.1382173 7
3.3142035 3.4778259 0.93381923 13
3.3143761 3.4743629 1.1085589 16
3.2434273 3.3964267 1.2583783 1
1.5853492 1.6514562 -0.61340117 22
1.7229558 1.7929209 -0.5740751 24
1.871821 1.9451096 -0.52472478 24
2.0241916 2.101243 -0.46210748 11
2.2846639 2.3691466 -0.40411878 17
2.536927 2.6270652 -0.31951293 22
2.9012642 3.0012012 -0.21876432 26
2.9480946 3.0464511 -0.073998205 12
nan nan nan nan
2.5777545 2.6805549 0.19489913 11
2.5521426 2.6511419 0.32195333 10
2.5914795 2.6882486 0.45847249 18
3.164547 3.2792776 0.7217887 7
3.1045477 3.2137341 0.86856258 7
8.817894 9.1152649 2.9279633 2
nan nan nan nan
1.5779741 1.6209685 -0.6061542 35
1.7245504 1.7696836 -0.57047588 32
1.8880961 1.9348054 -0.52548802 20
2.0167248 2.0644526 -0.45710155 9
2.2969832 2.3488822 -0.40338758 11
2.5356896 2.589361 -0.3170726 13
2.8704143 2.9281023 -0.21489146 22
2.7900131 2.8431058 -0.06953039 22
2.5953858 2.664237 0.064922951 24
2.6368434 2.7039604 0.1979346 20
2.8044052 2.872777 0.35123762 8
2.8224971 2.8872747 0.49576455 11
3.1334822 3.2020419 0.7095868 13
3.2065938 3.2733228 0.89069647 5
3.2069886 3.2691603 1.0572701 16
3.0739596 3.1302722 1.1755562 9
1.5987533 1.6195356 -0.60977769 26
1.7464523 1.767303 -0.57362527 24
1.8987958 1.918786 -0.52472478 30
2.0116251 2.0306756 -0.45272139 10
2.3091323 2.3285604 -0.40265635 8
2.5420256 2.5607302 -0.31567809 24
2.8640316 2.8810799 -0.21290269 15
2.8803194 2.8944325 -0.071275629 36
2.6040838 2.636096 0.064678617 31
2.5587537 2.5874977 0.19071224 30
2.6631975 2.6902959 0.33119181 24
2.7685156 2.7927809 0.48284638 29
nan nan nan nan
3.2584238 3.2801058 0.89871037 26
3.2566507 3.2748899 1.0662681 9
3.1884348 3.2018187 1.2107556 28
1.6168537 1.615162 -0.6123659 24
1.7573675 1.7536916 -0.57317531 31
1.9104222 1.9044307 -0.52434313 33
2.0435975 2.0350564 -0.45678869 9
2.3056273 2.2927852 -0.39924401 5
2.5768042 2.5597696 -0.31776983 13
2.8566413 2.8347869 -0.21091393 54
2.7925055 2.7672782 -0.068622865 13
2.6078169 2.6041791 0.064329572 13
2.5833783 2.5770726 0.1912356 31
2.7736642 2.763036 0.34252208 10
2.7494686 2.7360663 0.47626543 13
3.2361715 3.2170267 0.72272736 16
nan nan nan nan
3.0995481 3.0736918 1.0077808 55
3.0605567 3.0318491 1.154333 4
1.6333144 1.6095428 -0.61443645 25
1.7678752 1.7403218 -0.57272542 30
1.9208709 1.8882945 -0.5235799 32
2.0521173 2.0152035 -0.45553723 9
2.3055913 2.2617478 -0.39656287 4
2.5775313 2.5249882 -0.31567809 16
2.9720013 2.9083691 -0.21792693 19
2.6925929 2.6321821 -0.065725766 26
2.6430318 2.602747 0.064748429 5
2.6084247 2.5659785 0.19175896 27
2.6701951 2.6239944 0.32753128 15
2.7500839 2.6987298 0.47309685 29
3.0032296 2.9440606 0.66609806 21
3.3019369 3.2334943 0.89832878 16
3.1836281 3.1132901 1.0280263 13
3.1341608 3.061707 1.1740032 12
1.630657 1.5846376 -0.60926002 43
1.7757872 1.7238653 -0.57137573 21
1.9325973 1.8734715 -0.52319831 25
2.0746503 2.009073 -0.45741442 9
2.3256054 2.2497373 -0.3972941 8
1.9932517 1.9255342 -0.24246727 10
2.907439 2.8057218 -0.2117513 38
2.7684889 2.6688352 -0.067121953 23
2.6783531 2.6009493 0.065167286 23
2.6477783 2.5685658 0.19332905 17
2.5797091 2.4999127 0.31428361 12
2.7574456 2.668421 0.47114691 23
3.2168622 3.1097457 0.7086482 15
3.191679 3.0821671 0.86245668 20
3.7537611 3.6199059 1.2039381 31
3.6535449 3.5195699 1.3593177 27
1.6263372 1.5585119 -0.60356599 24
1.7877787 1.7114259 -0.57137573 25
1.9399521 1.8545085 -0.52167183 22
2.0714827 1.9781693 -0.45366001 11
2.338383 2.230705 -0.3968066 15
2.5807977 2.4585204 -0.31184325 22
2.9747014 2.8307917 -0.21520546 15
2.7971985 2.6590867 -0.067366287 4
2.6588948 2.5462275 0.06425976 29
2.6151326 2.5016961 0.18966553 23
2.6647995 2.5465379 0.32247624 16
2.757338 2.6312895 0.46797833 21
3.527313 3.3625393 0.77184772 19
nan nan nan nan
nan nan nan nan
3.6135983 3.4327731 1.3355063 9
1.6385822 1.5484469 -0.60408366 30
1.7982659 1.6975653 -0.57092583 27
1.9585668 1.8463056 -0.52319831 23
2.0852425 1.9636593 -0.45366001 10
2.3625736 2.2224877 -0.39826906 15
2.5920889 2.4349878 -0.31114599 24
2.9536135 2.7716863 -0.21227466 52
3.0141072 2.8254876 -0.072113343 25
nan nan nan nan
2.6586838 2.5080488 0.19154961 3
2.6941113 2.5388048 0.32387072 24
2.807445 2.6419048 0.47334057 11
3.2858748 3.0888817 0.71427983 19
3.6594524 3.4364552 0.9757973 30
3.2339153 3.0326037 1.0235274 12
3.1144109 2.9174755 1.1434625 22
1.6535918 1.5409216 -0.6056366 27
1.8015143 1.6770039 -0.5682264 46
1.9397742 1.8031802 -0.51480269 39
1.9729664 1.8321105 -0.42644039 30
2.3751214 2.2032397 -0.39778158 15
2.6173728 2.4254117 -0.31219187 22
2.9274466 2.7089481 -0.20902982 40
2.9632742 2.739223 -0.070437916 19
2.7395523 2.5511024 0.065341808 21
2.6863666 2.4989479 0.19228233 16
2.771611 2.5755398 0.33101749 10
2.7865312 2.5857842 0.46675962 15
3.0857081 2.8604026 0.66641092 16
3.6358161 3.3668063 0.96320391 15
3.14147 2.9059799 0.98798507 13
3.1190932 2.8812423 1.1377686 9
1.6699991 1.5345683 -0.60770714 27
1.8088714 1.6604327 -0.56687671 31
1.9476613 1.7859552 -0.51365787 33
2.1106613 1.9333887 -0.45334715 7
2.3831203 2.1799066 -0.39656287 13
2.6504204 2.4218636 -0.3141093 19
2.959094 2.7010775 -0.20997187 40
2.9941483 2.7292457 -0.070717148 13
2.7863071 2.5594509 0.066039905 5
2.6841819 2.4630511 0.19092159 42
2.9158535 2.6718869 0.3460083 24
2.7835691 2.5479908 0.46334729 11
3.5774345 3.2712295 0.76778048 19
3.4678636 3.1665945 0.91283029 15
3.8570778 3.5182948 1.2052878 10
3.1500566 2.8703539 1.1419097 1
1.6489161 1.4946222 -0.59631914 27
1.8100197 1.6389254 -0.56372738 34
1.9528019 1.7657299 -0.51174974 27
2.1226423 1.9172812 -0.45303425 9
2.4023259 2.167623 -0.3972941 13
2.6964431 2.4304457 -0.31759554 9
2.9763932 2.6790185 -0.20986721 24
2.987376 2.686074 -0.070123769 19
2.8530164 2.5842378 0.067191765 6
2.6761353 2.4214711 0.18914215 21
2.696002 2.4368813 0.31794414 15
2.7850802 2.5138648 0.46066615 18
3.08231 2.7792227 0.65733767 21
3.5141361 3.1652529 0.91931778 31
3.2246978 2.9014935 1.0014821 10
3.1714554 2.8495836 1.1424273 24
1.650668 1.4753499 -0.59321326 33
1.8228712 1.6275471 -0.56417727 39
1.9559836 1.7445568 -0.50946003 27
2.1238434 1.8922766 -0.4505313 9
2.4144337 2.1481597 -0.3968066 15
2.6924961 2.3930316 -0.31515515 3
3.0289128 2.6891942 -0.21227466 15
3.0195234 2.6770906 -0.070437916 22
2.8183489 2.518126 0.0659701 15
2.7059662 2.4151683 0.19008422 20
2.6936133 2.4007666 0.31567809 10
2.8021269 2.4948492 0.46066615 10
3.1454372 2.7975614 0.66672373 30
3.3233027 2.951606 0.86398321 31
3.2579935 2.8905513 1.0055313 16
3.2948716 2.9201884 1.1796973 4
1.6739718 1.4752859 -0.59787202 35
1.8224877 1.6044799 -0.56057805 28
1.9610449 1.7240341 -0.50755197 34
2.1180346 1.860085 -0.446464 11
2.4204175 2.1233978 -0.3953442 17
2.7181263 2.3820562 -0.31620103 9
3.0601027 2.6779733 -0.21311203 21
3.0441616 2.6612096 -0.070577532 24
3.1544411 2.7780807 0.073369913 15
