# .PCD v0.7 - Point Cloud Data file format
VERSION 0.7
FIELDS x y z intensity
SIZE 4 4 4 4
TYPE F F F F
COUNT 1 1 1 1
WIDTH 1524
HEIGHT 1
VIEWPOINT 0 0 0 1 0 0 0
POINTS 1524
DATA ascii
-15.052924 -24.777197 5.6353536 10
nan nan nan nan
-13.781576 -22.622211 7.0978537 11
-2.7142487 -4.4292521 -1.3919289 2
-3.3670521 -5.4880791 -1.4864767 26
-4.1668725 -6.781106 -1.5470794 22
-5.826407 -9.4706888 -1.7611394 22
-9.7639666 -15.852496 -2.2860253 10
-20.300819 -32.908356 -3.382863 97
-20.539822 -33.256813 -2.0485342 26
nan nan nan nan
-13.563446 -22.116207 0.45285505 8
nan nan nan nan
-14.436363 -23.484346 2.4117737 8
-16.045252 -26.060797 3.7577198 11
-15.691103 -25.455723 4.7362103 12
-13.717108 -22.227243 5.0770459 8
-13.655686 -22.093191 5.9962959 12
nan nan nan nan
-2.7573552 -4.4298763 -1.3981405 2
-3.3887939 -5.4379768 -1.4792782 23
-4.2712817 -6.8434525 -1.5680684 27
-5.9510036 -9.5235939 -1.7786602 26
-9.7649059 -15.608922 -2.2606766 5
-20.381575 -32.541458 -3.3593309 48
-20.631401 -32.889271 -2.0347176 26
-2.205745 -3.5121725 -0.072392583 1
-15.362689 -24.662001 0.50716692 9
nan nan nan nan
-14.576747 -23.345808 2.407939 8
-16.035234 -25.641825 3.7133591 11
-14.193324 -22.670031 4.2362461 10
-13.795832 -22.009504 5.0491881 17
-14.692438 -23.412676 6.381412 13
nan nan nan nan
-2.0635467 -3.2642081 -1.0347586 1
-3.4277177 -5.4158325 -1.4797282 15
-4.3251209 -6.8258286 -1.5707397 22
-6.0040483 -9.4645185 -1.7752185 30
-10.395265 -16.36137 -2.3801084 12
-20.463898 -32.171421 -3.3357987 94
nan nan nan nan
-2.194725 -3.4410508 -0.071240723 9
-15.381634 -24.321938 0.50231516 19
-14.661906 -23.157032 1.4364128 13
-14.80553 -23.347795 2.418746 8
-15.181618 -23.913179 3.4779077 10
-15.37726 -24.193342 4.5403547 11
-14.584874 -22.911322 5.2793036 9
-12.959833 -20.335039 5.5670891 10
nan nan nan nan
-2.0825868 -3.245209 -1.0332056 2
-2.0898666 -3.2528048 -0.89260584 2
-4.3896656 -6.8218822 -1.5768455 8
-6.0742569 -9.4290161 -1.7764701 11
-10.402025 -16.128418 -2.3564658 5
-20.541904 -31.813797 -3.3131382 92
-2.1940794 -3.3928294 -0.2117513 1
-2.2126632 -3.4176393 -0.071066193 9
-14.080347 -21.923973 0.45480973 8
-15.79321 -24.562716 1.5304081 14
-14.987835 -23.283333 2.422581 8
-15.150277 -23.499622 3.4330597 10
-14.611669 -22.638149 4.2675328 10
-15.537504 -24.044924 5.564754 9
-13.070428 -20.203812 5.5553918 10
nan nan nan nan
-2.0935903 -3.2127872 -1.0275117 6
-2.0965526 -3.2136536 -0.88585734 4
-2.1127892 -3.234839 -0.75102425 9
-2.1448362 -3.2801516 -0.62073201 3
-2.1881371 -3.3412781 -0.49040228 4
nan nan nan nan
-2.1941078 -3.3427527 -0.20955318 7
-2.2265818 -3.3870704 -0.070752062 6
nan nan nan nan
-15.850873 -24.287392 1.519941 14
-15.069352 -23.054718 2.4096818 8
-15.475101 -23.64843 3.470108 10
-14.556499 -22.219261 4.207149 10
-13.981771 -21.309521 4.954165 8
-13.232557 -20.144646 5.5643897 10
-15.210949 -23.13006 7.4177542 12
-2.1132791 -3.1952393 -1.0264764 6
-2.1216063 -3.2041829 -0.88720703 4
-2.1255558 -3.2052841 -0.74758971 6
-2.1414611 -3.2256012 -0.61322314 3
-2.1888533 -3.2932415 -0.48552752 5
-2.2372606 -3.3622527 -0.35332939 36
-2.2107456 -3.3173814 -0.20892516 9
-2.2551341 -3.3801532 -0.070926577 6
-2.280256 -3.4450915 0.072113343 8
nan nan nan nan
-15.201695 -22.915089 2.4058471 8
-14.710463 -22.141022 3.263905 9
nan nan nan nan
-15.866464 -23.826777 5.5643721 9
-13.20074 -19.801163 5.494205 10
-13.241637 -19.832497 6.3897252 9
-2.1355345 -3.180408 -1.0264764 6
-2.1330523 -3.1731203 -0.88270801 6
-2.1352668 -3.1728253 -0.74339187 4
-2.156745 -3.2011206 -0.61134595 7
-2.1962459 -3.2548435 -0.48211515 6
-2.2383733 -3.3135321 -0.34984317 43
-2.2310374 -3.2989476 -0.20871581 11
-2.2943766 -3.3875065 -0.071415246 9
-2.2802379 -3.3946314 0.07138034 10
-16.654572 -24.76594 1.5641125 15
-15.394692 -22.857979 2.4110765 8
-14.767604 -21.902122 3.2434309 9
nan nan nan nan
-16.124781 -23.852053 5.5964284 9
-14.093408 -20.823702 5.8050876 11
-13.367657 -19.729107 6.3855839 9
-2.1712987 -3.1841981 -1.032688 5
-2.1688886 -3.1770887 -0.88810682 5
-2.1540353 -3.1506052 -0.7418654 9
-2.1689951 -3.1689241 -0.6082173 7
-2.2127483 -3.2292192 -0.48065275 5
-2.2518828 -3.2826436 -0.34827435 35
-2.2528973 -3.2792127 -0.20850646 6
-2.3276234 -3.3841832 -0.071694486 6
-2.3028059 -3.3745217 0.071310528 13
-14.728815 -21.559288 1.3683761 12
-15.503877 -22.668293 2.4027095 8
-14.90308 -21.757254 3.2380688 9
-14.141014 -20.621536 3.9602954 9
-14.383863 -20.95215 4.9400454 33
-14.032339 -20.417175 5.7196059 11
-13.906237 -20.203466 6.5719337 9
-2.3012247 -3.3246312 -1.0834166 4
-2.2087746 -3.1874986 -0.89530528 5
-2.1877403 -3.1536143 -0.74606317 7
-2.2017832 -3.1703115 -0.61134595 7
-2.2420394 -3.2234704 -0.48211515 5
-2.2576673 -3.2423165 -0.34565967 9
-2.275166 -3.2638018 -0.20850646 6
-2.3237202 -3.3284991 -0.070856772 6
-2.3154762 -3.3439732 0.070996389 11
-14.836531 -21.402727 1.3648171 12
-15.420874 -22.212536 2.3657553 8
-13.827278 -19.894846 2.9748311 8
-14.538289 -20.894503 4.0316296 9
-15.775677 -22.639158 5.3636408 9
-16.630796 -23.839691 6.7107401 14
-15.510163 -22.208502 7.2583213 11
-2.3282425 -3.3152137 -1.0854871 5
-2.3223267 -3.3031113 -0.93219721 6
-2.2243962 -3.159133 -0.75102425 4
-2.2352436 -3.1710083 -0.61447465 4
-2.2604954 -3.203269 -0.48138395 4
-2.2704878 -3.2138557 -0.34426519 13
-2.2898211 -3.2364254 -0.20777377 14
-2.312804 -3.2652822 -0.069844536 12
-2.3364651 -3.3244543 0.070926577 13
-17.148554 -24.372789 1.5618098 15
-15.085234 -21.416416 2.2918475 22
-14.929305 -21.163647 3.180059 18
-14.907149 -21.108757 4.0929518 9
-15.134926 -21.407495 5.096127 8
-15.387663 -21.740822 6.1492624 12
nan nan nan nan
-2.3558154 -3.305171 -1.0875577 4
-2.3521216 -3.2963359 -0.93489665 6
-2.3439901 -3.2813053 -0.7838434 4
-2.2958438 -3.2103515 -0.62511224 3
-2.2978292 -3.2083898 -0.48455253 4
-2.2870648 -3.1898305 -0.34339362 11
-2.30481 -3.2110288 -0.20714574 9
-2.3227046 -3.2311952 -0.069460578 8
-2.3520744 -3.2987044 0.070717148 8
nan nan nan nan
-15.123149 -21.154982 2.2751136 7
-14.298974 -19.979967 3.0167542 8
-17.243284 -24.067417 4.68928 12
-15.266835 -21.277388 5.0904026 8
-15.628877 -21.757906 6.1848049 12
nan nan nan nan
-3.2204394 -4.4537716 -1.4726803 25
-2.3722184 -3.2770925 -0.93399692 6
-2.3714499 -3.2712193 -0.78536987 4
-2.3483672 -3.2358117 -0.63324684 4
-2.3429503 -3.2247949 -0.48942733 6
-2.2998996 -3.1608982 -0.34199914 11
-2.330699 -3.1997032 -0.20745975 11
-2.3411102 -3.2104628 -0.069355868 11
-2.3609791 -3.2627633 0.070298299 11
-15.355157 -21.196735 1.3717256 12
-15.0235 -20.716066 2.2388568 7
-15.805283 -21.762094 3.3024158 9
-17.60372 -24.21167 4.7412162 12
-16.140345 -22.174562 5.3312035 9
-15.058356 -20.657742 5.9018164 11
nan nan nan nan
-3.26174 -4.4451981 -1.4773391 25
-2.4123442 -3.2840095 -0.94074535 4
-2.3860853 -3.2435141 -0.78269857 6
-2.3662143 -3.2129755 -0.63199526 4
-2.3654068 -3.2083595 -0.48942733 7
-2.3278279 -3.1527789 -0.34287068 21
-2.350605 -3.1801422 -0.20725042 11
-2.367034 -3.1988635 -0.069460578 13
-2.3825161 -3.2445886 0.070263386 11
-2.5043383 -3.4067497 0.22159046 1
-15.320097 -20.817684 2.2613428 7
-17.400702 -23.610363 3.6012394 11
-15.485397 -20.988539 4.1311216 9
-16.192114 -21.922373 5.2976213 9
-16.219706 -21.927681 6.2968302 12
nan nan nan nan
-3.2938476 -4.4238682 -1.4778568 25
-3.9177682 -5.2560902 -1.5134708 21
-2.41102 -3.2299237 -0.78346181 6
-2.3980467 -3.2090378 -0.6344983 4
-2.3829904 -3.1854103 -0.4884524 7
-2.3563995 -3.1464295 -0.34391654 16
-2.3739476 -3.165252 -0.20735508 16
-2.3989139 -3.1950538 -0.069739819 12
-2.4098883 -3.2342918 0.07040301 11
-2.48507 -3.3315499 0.21782227 26
-17.358107 -23.245319 2.5381496 9
-15.467995 -20.684017 3.1712844 46
-15.48475 -20.683836 4.0923262 9
-15.388711 -20.533133 4.9877472 8
-15.718335 -20.950085 6.0466847 12
-17.070395 -22.719114 7.6144567 13
-3.323487 -4.3992233 -1.4773391 25
-3.9661222 -5.244154 -1.5179697 21
-2.424654 -3.202481 -0.78079039 9
-2.4150615 -3.1863434 -0.63324684 6
-2.414772 -3.1813455 -0.49040228 4
-2.3891575 -3.1441798 -0.34548536 14
-2.3930187 -3.1458411 -0.20714574 13
-2.4102547 -3.1639116 -0.069425672 15
-2.4499326 -3.2417431 0.070926577 10
-2.4896138 -3.2906659 0.21625218 55
nan nan nan nan
-17.182343 -22.65332 3.4910696 10
nan nan nan nan
-15.37007 -20.212666 4.9358473 8
-15.347207 -20.160683 5.8496275 11
-17.07242 -22.402645 7.547164 12
-3.3498297 -4.3718991 -1.4757862 27
-4.0017262 -5.2170358 -1.5179697 23
-5.1689777 -6.7290449 -1.649353 20
-2.4420643 -3.1756692 -0.6344983 8
-2.4509017 -3.1837108 -0.49332717 4
-2.4068551 -3.1231098 -0.34496242 13
-2.4283459 -3.1464505 -0.20829713 11
-2.4292893 -3.144268 -0.069355868 13
-2.4688535 -3.2198002 0.070821866 11
-2.5125263 -3.2732046 0.21625218 13
-2.5032537 -3.2575922 0.35943025 6
-15.892141 -20.651276 3.199558 9
-18.852228 -24.471285 4.8926449 13
-16.327379 -21.170946 5.1968741 8
-16.455851 -21.314445 6.2167478 12
-17.287487 -22.359325 7.5730457 12
-3.3778975 -4.3453565 -1.474751 31
-4.0536089 -5.2089643 -1.5238185 18
-5.2436185 -6.7308745 -1.6585119 20
-2.4660535 -3.1620882 -0.63512403 8
-2.4938407 -3.193119 -0.49747071 3
-2.4273725 -3.1046612 -0.3447881 14
-2.4644794 -3.1487212 -0.20955318 12
-2.4758534 -3.158709 -0.070053965 12
-2.4907126 -3.2029207 0.070821866 10
-2.4991679 -3.2103236 0.21321672 20
-2.5161345 -3.2274673 0.3580358 22
-16.271717 -20.84935 3.2473309 9
-15.490272 -19.826645 3.9850121 9
-15.5493 -19.873585 4.9049363 8
-17.476643 -22.312843 6.5433764 13
-15.267413 -19.471258 6.629909 9
-3.4181612 -4.335917 -1.4794097 25
-4.0624108 -5.1475983 -1.5139208 21
-5.2953486 -6.7002659 -1.6600385 17
-7.6762419 -9.7023907 -1.9594984 4
-2.5574217 -3.2289789 -0.50575781 3
-2.4583519 -3.1005561 -0.34618258 11
-2.4826748 -3.1267471 -0.20923917 14
-2.506007 -3.152741 -0.070298299 16
-2.5130134 -3.1854534 0.070821866 16
-2.5314229 -3.2053363 0.21405408 24
-2.5343387 -3.2055762 0.35751286 37
-14.144661 -17.865335 2.7978766 7
-19.725262 -24.887094 5.0296812 14
-19.194944 -24.191973 6.002851 12
-18.752897 -23.609451 6.960886 16
-15.67236 -19.70286 6.7458596 10
-3.441108 -4.302897 -1.4763039 25
-4.1177349 -5.1434522 -1.5211191 18
-5.3801227 -6.7130899 -1.6722503 20
-7.8805561 -9.8224831 -1.9945397 29
-11.679805 -14.53714 -2.2896814 5
-2.5011652 -3.1097116 -0.34914589 7
-2.5151742 -3.1237769 -0.21018122 14
-2.5329762 -3.1413963 -0.070437916 10
-2.527142 -3.1589057 0.070612431 5
-2.5594239 -3.1958263 0.21457745 13
-2.5516691 -3.1815889 0.35681561 31
-14.198829 -17.685053 2.7847147 7
-20.10211 -25.010925 5.0822439 15
-19.764677 -24.555958 6.1272593 12
-17.078363 -21.195709 6.2842331 12
-17.884968 -22.173 7.6330914 13
-3.4508486 -4.2553663 -1.4680218 25
-4.1993217 -5.1727977 -1.5382154 18
-5.4714413 -6.7302065 -1.6859884 20
-7.9165192 -9.7273922 -1.9864051 25
-11.660626 -14.312636 -2.2667699 21
-2.5379286 -3.1106999 -0.35123762 10
-2.5596611 -3.133986 -0.21206531 8
-2.5669584 -3.1395626 -0.07078696 9
-2.5818956 -3.1815569 0.071519956 10
-2.6093783 -3.2119844 0.21688022 6
-2.5808089 -3.1734209 0.35786149 16
-14.422233 -17.708633 2.8042138 7
nan nan nan nan
-17.011673 -20.843508 5.2296929 18
-16.964468 -20.756084 6.1888537 12
-17.44478 -21.320957 7.3815193 12
-3.5136092 -4.2714529 -1.481998 25
-4.2056031 -5.1072497 -1.5274178 23
-5.5033031 -6.6736693 -1.6814089 17
-8.0772924 -9.7846184 -2.0095575 29
-11.700827 -14.158964 -2.2553141 35
-2.5786374 -3.1159301 -0.35385233 15
-2.661751 -3.2129352 -0.21865964 3
-2.597749 -3.1323402 -0.071031295 7
-2.6218359 -3.18507 0.072008632 12
-14.511393 -17.609993 1.1958767 9
-2.6092398 -3.1630106 0.35873303 11
-14.302771 -17.313675 2.757416 7
nan nan nan nan
-15.671952 -18.930679 4.7770944 7
-17.056728 -20.574133 6.1699581 12
-16.485306 -19.863697 6.9166803 10
-3.5458181 -4.2497873 -1.4830333 25
-4.2886257 -5.1346002 -1.5445141 18
-5.5447235 -6.6290622 -1.6798825 8
-8.1885252 -9.7794819 -2.020195 29
-11.721605 -13.984128 -2.2404461 25
-2.601609 -3.0993779 -0.35402662 5
-2.7098145 -3.2248564 -0.2207531 10
-2.6581712 -3.1600368 -0.072078437 12
-2.6337547 -3.1544082 0.071729392 31
-15.100217 -18.066069 1.2339773 10
nan nan nan nan
-14.339144 -17.112982 2.7413292 7
-18.054592 -21.524261 4.4496226 11
-16.962688 -20.201019 5.1274195 8
-17.352953 -20.636518 6.2248459 12
nan nan nan nan
-3.5953672 -4.2485242 -1.4913154 27
-4.3268867 -5.1075091 -1.5454139 18
-5.4854498 -6.4659333 -1.6482083 14
-8.3192539 -9.7958574 -2.0355256 39
-11.7868 -13.864148 -2.2343528 10
-11.794637 -13.853749 -1.5918124 9
-2.7180111 -3.1891387 -0.21960169 8
-2.6957424 -3.1596572 -0.072497301 19
-2.6750975 -3.1588347 0.072252966 10
-15.143315 -17.862705 1.2272782 9
-13.91549 -16.396978 1.8815181 5
-15.414699 -18.137844 2.9226708 8
-20.81822 -24.469973 5.0885005 15
-15.899098 -18.668167 4.7664089 7
-17.977133 -21.078306 6.3958087 13
-15.070127 -17.651098 6.2189045 8
-3.6085839 -4.2042627 -1.484586 25
-4.4119687 -5.1348224 -1.56296 21
-5.7955174 -6.7355361 -1.727203 21
-8.3307123 -9.6716862 -2.0217593 38
-11.843121 -13.734916 -2.2267969 14
-11.932927 -13.824426 -1.597739 19
-2.7336786 -3.1625316 -0.21907835 10
-2.7321279 -3.1573949 -0.072881252 4
-2.7400823 -3.1901414 0.073404826 1
-15.160876 -17.632368 1.2186952 9
-14.185595 -16.480635 1.9024355 5
-15.696471 -18.210224 2.9519196 8
-18.802452 -21.790541 4.5585008 11
-15.611946 -18.073858 4.6423831 7
-15.494447 -17.918858 5.4690104 10
-15.488911 -17.887194 6.3400311 8
-3.6568727 -4.2008252 -1.4923507 27
-4.4502678 -5.1068349 -1.5638598 23
-5.8257442 -6.6781788 -1.7226238 18
-8.3508759 -9.5626812 -2.0108089 29
-12.00144 -13.723627 -2.2384963 15
-12.068517 -13.785757 -1.6029683 20
-2.7696216 -3.1603734 -0.22022973 12
-2.7765279 -3.163794 -0.073474631 10
-15.359595 -17.638079 0.40824667 7
-16.469601 -18.892763 1.3135279 11
-14.440499 -16.541803 1.9210869 5
-15.240083 -17.439289 2.8436995 8
-18.247993 -20.859201 4.3895516 10
-16.781752 -19.156149 4.9503489 8
-15.353192 -17.506964 5.3758807 10
-15.635794 -17.810389 6.3503842 8
-3.6636505 -4.1512127 -1.4835509 25
-4.4991193 -5.0924892 -1.5688088 21
-5.924262 -6.6961589 -1.7378885 21
-8.5811462 -9.6889935 -2.0499175 21
-11.904941 -13.427726 -2.2033978 9
-12.097269 -13.630273 -1.5944271 19
-2.8022316 -3.1529043 -0.22106709 1
-20.642715 -23.201469 -0.54207176 30
-15.424109 -17.464474 0.40671089 7
-14.50297 -16.404163 1.1475183 8
-14.333566 -16.195457 1.8921511 5
-14.297601 -16.132107 2.6467586 7
-18.012987 -20.302782 4.2988195 10
-17.623583 -19.842941 5.1587124 8
-15.147 -17.036507 5.2629552 9
-15.829122 -17.778709 6.3783369 9
-3.7376359 -4.1759157 -1.5016681 29
-4.5319605 -5.0580525 -1.5679089 21
-6.0300026 -6.722909 -1.7554429 18
-8.7274008 -9.7200212 -2.0690024 26
-11.922737 -13.26015 -2.1895049 37
-12.205458 -13.560297 -1.5961703 19
-22.432608 -24.896448 -1.7562902 20
-20.876528 -23.136961 -0.54395658 30
-19.162842 -21.402384 0.50144255 9
-15.992675 -17.842915 1.2557491 10
-14.546099 -16.206196 1.9052244 5
-16.089384 -17.906742 2.9558194 8
-18.93545 -21.052099 4.484664 11
-15.421572 -17.121387 4.4790506 14
-18.32181 -20.319893 6.3166261 13
-15.926468 -17.644743 6.3690195 9
-3.78285 -4.1689763 -1.5083975 27
-4.6213164 -5.0876718 -1.5868049 27
-6.079432 -6.6835518 -1.756206 24
-8.8309555 -9.6982908 -2.07745 35
-12.098307 -13.27258 -2.2051041 9
-12.392827 -13.581399 -1.6085464 20
-22.495386 -24.618336 -1.747707 40
nan nan nan nan
-16.822199 -18.526299 0.43679884 8
-16.450016 -18.097357 1.2817078 10
-14.964478 -16.445747 1.9453162 5
-16.232719 -17.814528 2.9592316 8
-16.93733 -18.568262 3.9806318 9
-18.001398 -19.714052 5.1892419 8
-17.313196 -18.940451 5.9243112 11
-16.516239 -18.04327 6.5543337 9
-3.7974725 -4.1268291 -1.5027034 22
-4.6646428 -5.0638862 -1.5895042 30
-6.1700339 -6.6910887 -1.7691811 21
-8.8820248 -9.6219912 -2.0740085 30
-12.128688 -13.12074 -2.193892 14
-12.559061 -13.572054 -1.6177849 20
-22.686869 -24.491018 -1.7495911 40
nan nan nan nan
-17.170021 -18.652649 0.44252321 8
-15.538795 -16.862833 1.2017384 9
-15.385638 -16.673254 1.9848847 6
-17.156399 -18.572689 3.1044998 9
-16.81522 -18.184233 3.9227512 17
-16.677952 -18.010551 4.7713699 7
-16.832951 -18.158846 5.7164564 11
nan nan nan nan
-3.8333821 -4.1093607 -1.5058093 24
-4.7495446 -5.0861406 -1.6066005 19
-6.2300072 -6.6621895 -1.7729974 18
-9.0245829 -9.6405048 -2.0915291 31
-12.16478 -12.981389 -2.1843865 27
-12.704315 -13.542924 -1.624583 20
-23.08839 -24.578053 -1.7672807 20
-41.395721 -44.020367 -1.0547537 62
-17.370779 -18.608337 0.44433826 8
-15.795231 -16.90279 1.2124149 9
-15.528715 -16.600157 1.9887197 6
-16.721077 -17.849796 3.0031047 8
-18.484865 -19.711941 4.2800474 10
-16.358086 -17.425686 4.6458178 7
-16.731964 -17.805275 5.6408734 10
-16.750204 -17.799767 6.5491571 9
-3.8672874 -4.0881124 -1.5078799 22
-4.7608185 -5.027389 -1.5985023 19
-6.2346892 -6.5768857 -1.7615488 18
-9.0478401 -9.5344353 -2.08183 39
-12.446548 -13.097605 -2.2185097 9
-13.037492 -13.705082 -1.6549132 21
nan nan nan nan
-41.922848 -43.96183 -1.0603385 61
-17.057209 -18.024885 0.43316874 7
-15.6407 -16.510691 1.1918992 9
-19.944368 -21.02433 2.5353606 9
-19.1332 -20.148092 3.4116106 10
-16.658758 -17.524014 3.8295162 8
-16.43602 -17.265562 4.633606 7
-16.663614 -17.48629 5.5765371 10
-16.529608 -17.327496 6.4166422 9
-3.9618804 -4.1314101 -1.5337617 22
-4.7706366 -4.9695616 -1.590404 16
-6.3267126 -6.5813208 -1.7745237 18
-9.1059647 -9.4624977 -2.079953 21
-12.896245 -13.387146 -2.2823691 10
-13.409513 -13.900511 -1.6897755 11
-17.205309 -17.816614 -1.2980366 12
-17.281498 -17.87677 -0.43400645 18
-17.217241 -17.941437 0.43404135 7
-18.711052 -19.477659 1.4154785 12
-19.160341 -19.924465 2.4183974 8
-19.317453 -20.059786 3.4194102 10
-18.242146 -18.923317 4.1630344 9
-17.51429 -18.149256 4.9026465 8
-16.957268 -17.547499 5.6336746 10
-16.805983 -17.37274 6.4766884 9
-3.9300194 -4.0413284 -1.510468 15
-4.826962 -4.9584785 -1.5976025 16
-6.3711338 -6.5355849 -1.7741421 12
-9.2876921 -9.5174513 -2.1062338 9
-12.994937 -13.302466 -2.283344 10
-13.411486 -13.709712 -1.6779224 10
nan nan nan nan
-17.027914 -17.370134 -0.42458215 17
-16.899988 -17.366501 0.42297655 7
-16.229269 -16.659807 1.2189045 9
-17.472572 -17.917315 2.1895266 7
-17.551401 -17.973042 3.0845134 9
-16.609058 -16.990257 3.7631881 8
-17.017164 -17.389503 4.7293921 7
-18.647896 -19.029316 6.151062 12
-16.874092 -17.201206 6.4565001 9
-3.9771278 -4.0330505 -1.517715 15
-4.8395567 -4.9024696 -1.590404 19
-6.4386883 -6.5132885 -1.780248 12
-9.4067078 -9.5057373 -2.1181231 18
-15.947232 -16.098251 -2.7822773 17
nan nan nan nan
-43.279839 -43.58305 -3.2189758 63
-17.430725 -17.534472 -0.43156311 17
-16.723038 -16.946348 0.4155767 7
-17.855474 -18.074966 1.3315315 11
-17.947464 -18.149071 2.2331045 7
-17.557726 -17.730175 3.0637956 8
-18.300146 -18.460545 4.1170425 9
-16.958378 -17.089111 4.6797814 23
-17.811499 -17.930023 5.8347807 23
-18.613716 -18.711435 7.0719719 11
-4.0407033 -4.0407033 -1.5311736 27
-4.9246764 -4.9195218 -1.6070505 22
-6.464808 -6.451283 -1.775287 9
-9.4991732 -9.4693794 -2.1243804 9
-15.722993 -15.651809 -2.7240238 8
-43.900131 -43.655624 -5.4165549 57
nan nan nan nan
-17.691841 -17.550367 -0.43498379 18
-16.942656 -16.936741 0.41815966 7
-18.026144 -18.000996 1.3350904 11
-18.219044 -18.16824 2.2510586 14
-19.490808 -19.416107 3.3779747 10
-18.729225 -18.637917 4.1849351 9
-16.231966 -16.130302 4.4481392 7
-17.500587 -17.372778 5.6930614 11
-15.827079 -15.695045 5.9725084 7
-4.0034752 -3.9493408 -1.5068446 13
-4.9691525 -4.8968291 -1.6106497 22
-6.7223854 -6.615304 -1.833293 18
-9.8552399 -9.6881046 -2.1888313 14
-16.38863 -16.093815 -2.8203006 17
nan nan nan nan
-17.527538 -17.170233 -1.2858946 12
-17.522186 -17.14702 -0.42793301 17
-17.074724 -16.832087 0.41850871 7
nan nan nan nan
-18.318142 -18.02005 2.248095 7
-21.33005 -20.960985 3.6719236 11
-17.620987 -17.291933 3.9102361 8
-16.281101 -15.960345 4.4317303 7
-19.517563 -19.113014 6.3067284 13
-16.219404 -15.866592 6.0796599 8
-4.1230249 -4.0122685 -1.5415263 24
-4.9814081 -4.8425174 -1.603901 19
-6.7249985 -6.5283685 -1.8218443 9
-9.7224236 -9.4282713 -2.1450298 23
-16.370899 -15.858964 -2.7986078 8
nan nan nan nan
nan nan nan nan
-19.402348 -18.730089 -0.47072631 22
-18.017523 -17.521273 0.43868369 8
-18.226782 -17.706207 1.3317409 11
-18.993717 -18.431919 2.3155537 7
-19.238779 -18.650187 3.2899852 9
-16.557432 -16.028467 3.6499293 7
-16.946823 -16.388239 4.582469 7
-17.572886 -16.97587 5.6408734 10
-16.745462 -16.159609 6.2354689 8
-4.1446657 -3.9787598 -1.5394558 20
-5.0409784 -4.8341255 -1.6124493 13
-6.9011483 -6.6087222 -1.8573349 12
-10.166069 -9.7250948 -2.2282526 9
nan nan nan nan
nan nan nan nan
nan nan nan nan
-18.133514 -17.262281 -0.43700826 18
-21.019598 -20.164114 0.50842351 9
-18.929457 -18.14002 1.3740283 12
-19.598392 -18.754829 2.373251 16
-19.260891 -18.412544 3.2717047 9
-19.803371 -18.911299 4.3369894 10
-18.237236 -17.391378 4.8984489 8
-17.243687 -16.426682 5.4982543 10
-17.039825 -16.209805 6.3017263 8
-4.163209 -3.9397047 -1.5358323 24
-5.1094294 -4.8300586 -1.6232469 22
-7.0382032 -6.644074 -1.8813769 22
-10.047132 -9.4745636 -2.1872668 4
nan nan nan nan
nan nan nan nan
-18.07543 -16.979904 -1.2997112 12
-19.656437 -18.445724 -0.47051689 22
-21.163345 -20.013193 0.50842351 9
-19.052967 -17.998617 1.3736097 12
-18.520491 -17.471148 2.2275264 7
-20.224298 -19.05842 3.4120982 10
-16.762348 -15.77948 3.6461749 7
-20.129251 -18.922466 5.3701286 9
-16.853647 -15.826629 5.3376389 9
-16.842545 -15.79409 6.186811 8
-4.1870551 -3.9058597 -1.5342795 24
-5.1738009 -4.8212719 -1.6326948 19
-7.019454 -6.5320177 -1.8638223 19
-11.218592 -10.42861 -2.4259858 10
nan nan nan nan
nan nan nan nan
-46.788612 -43.341892 -3.3424885 63
-19.094913 -17.669704 -0.45411161 20
-19.345968 -18.034103 0.46165106 8
-18.853863 -17.556927 1.3501631 11
-16.640537 -15.479587 1.9883711 6
-17.353912 -16.120609 2.9082901 8
-16.805332 -15.594631 3.6311574 7
-20.975 -19.443478 5.559411 9
-17.794483 -16.472109 5.5981326 10
-16.861618 -15.592184 6.1536818 8
-4.1630363 -3.8294504 -1.5156444 24
-5.2417717 -4.8166795 -1.6434925 19
-7.0634375 -6.4815283 -1.8634408 26
-11.690112 -10.715773 -2.5117123 11
nan nan nan nan
-47.27771 -43.231052 -5.6048117 51
-47.384979 -43.283607 -3.3634231 63
-18.830786 -17.182825 -0.44496655 19
-21.296938 -19.576675 0.504933 9
-18.296322 -16.800768 1.3018047 11
-16.739391 -15.354957 1.9873253 12
-17.543615 -16.070129 2.9212084 16
-20.667881 -18.912098 4.437108 11
-20.507412 -18.745543 5.4006581 9
-17.801104 -16.248941 5.5643897 10
-17.141365 -15.630284 6.2157984 8
-4.2554908 -3.8599975 -1.5394558 24
-5.1886239 -4.7014589 -1.6164984 19
-7.3297925 -6.6322761 -1.9214467 13
-11.896528 -10.75311 -2.5398703 16
-47.657143 -43.031322 -7.8839722 49
nan nan nan nan
nan nan nan nan
-19.809505 -17.824036 -0.46514153 21
-19.732187 -17.885784 0.46486232 8
-18.883966 -17.098932 1.3350904 11
-16.710238 -15.114763 1.9712887 5
-17.692205 -15.980526 2.9273019 8
-18.615631 -16.796921 3.9712458 9
-20.745695 -18.699188 5.4288979 9
nan nan nan nan
-16.971371 -15.259655 6.1153765 8
-4.2189784 -3.7735271 -1.5166796 22
-5.3070583 -4.7417259 -1.6430426 22
-7.4216366 -6.6240654 -1.9336585 13
-12.296769 -10.963727 -2.6093271 29
-48.199535 -42.914062 -7.9239454 48
-48.464764 -43.104736 -5.6745358 48
nan nan nan nan
-18.928255 -16.79348 -0.4416855 18
-18.325481 -16.384872 0.42908487 15
-18.46068 -16.488371 1.2971991 10
-17.151394 -15.297446 2.0106831 6
-18.068842 -16.098747 2.9714186 8
-18.798887 -16.731546 3.9859507 9
-19.436176 -17.27446 5.0545306 8
-19.189255 -17.037018 5.9243112 11
nan nan nan nan
-4.2909231 -3.78562 -1.5332441 22
-5.3202052 -4.6887417 -1.6371939 16
-7.2009439 -6.3373265 -1.8645855 26
-12.932318 -11.369321 -2.7272787 38
nan nan nan nan
nan nan nan nan
nan nan nan nan
-18.876465 -16.513468 -0.43777618 18
-18.32542 -16.156038 0.4264321 7
-18.719227 -16.485815 1.3072476 11
-17.063644 -15.0119 1.9883711 18
-18.319481 -16.094059 2.9940863 8
-19.096367 -16.758863 4.0241208 9
-18.215639 -15.963438 4.7080216 7
-19.074593 -16.698544 5.852777 11
nan nan nan nan
-4.3805857 -3.8093288 -1.5555025 28
-5.3153706 -4.6173239 -1.6254964 19
-7.4318457 -6.4490271 -1.9126694 9
-13.39104 -11.603774 -2.8064346 33
nan nan nan nan
nan nan nan nan
nan nan nan nan
-19.336535 -16.679071 -0.44573447 19
-19.106339 -16.608885 0.44189495 8
-19.35556 -16.801828 1.3432547 11
-17.298574 -15.000362 2.0031877 18
-18.270842 -15.826707 2.9680064 8
-18.435932 -15.947193 3.8608029 8
-18.638592 -16.105442 4.7881613 8
-19.388376 -16.735601 5.913064 11
nan nan nan nan
-4.4144058 -3.7849407 -1.5580908 28
-5.3711557 -4.6003871 -1.6326948 16
-7.5300221 -6.4403453 -1.9260262 6
-13.697001 -11.702484 -2.8533652 20
nan nan nan nan
nan nan nan nan
nan nan nan nan
-18.968094 -16.131702 -0.43463475 18
-18.855696 -16.155575 0.43341306 15
-18.962557 -16.229925 1.3080851 11
-17.312017 -14.801542 1.9927288 6
-19.636679 -16.765388 3.1703095 9
-18.927073 -16.142408 3.9399588 8
-18.421801 -15.694821 4.704205 23
-18.651419 -15.873603 5.6543703 10
nan nan nan nan
-4.4200673 -3.7365694 -1.5508437 27
-5.3286977 -4.4999118 -1.6101998 16
-7.8678083 -6.637054 -2.0008233 16
-13.956096 -11.760456 -2.8905964 42
nan nan nan nan
nan nan nan nan
nan nan nan nan
nan nan nan nan
-18.986607 -16.044928 0.43390173 15
-19.07106 -16.099188 1.3079803 11
-18.172031 -15.318544 2.0793617 13
-18.455112 -15.540652 2.9624002 8
nan nan nan nan
-18.479811 -15.522898 4.6912303 23
nan nan nan nan
nan nan nan nan
-4.4869442 -3.7410367 -1.5653377 28
-5.3427315 -4.4498186 -1.6052508 8
-7.8988581 -6.5694113 -1.997007 13
-13.826662 -11.487273 -2.8471076 27
-23.771738 -19.728674 -3.7930617 16
nan nan nan nan
-51.58643 -42.706364 -3.5097542 63
-19.484587 -16.113323 -0.44133648 18
-19.019804 -15.846703 0.43212157 7
-19.279705 -16.046148 1.3145747 11
-18.268221 -15.188127 2.0784903 6
-18.598289 -15.440594 2.9680064 8
-19.395685 -16.085457 3.9909565 9
-18.739252 -15.524503 4.730155 15
nan nan nan nan
nan nan nan nan
-4.5651865 -3.7525551 -1.5834551 26
-5.4399357 -4.4668231 -1.6250465 8
-8.0401716 -6.5925322 -2.021049 20
-14.456668 -11.841076 -2.9597404 7
-24.406672 -19.969519 -3.8720331 17
nan nan nan nan
nan nan nan nan
-19.878675 -16.206881 -0.44768912 19
-19.281399 -15.837926 0.43554226 8
-18.761295 -15.394264 1.2718686 10
-18.403086 -15.084218 2.0818021 6
-20.071262 -16.428139 3.18469 9
-19.3974 -15.859635 3.96843 9
-19.497967 -15.924838 4.8934879 8
nan nan nan nan
nan nan nan nan
-4.5132246 -3.6573474 -1.5565379 28
-5.5618663 -4.5023046 -1.6520406 8
-8.1715031 -6.6053529 -2.0424197 21
-14.97546 -12.092305 -3.0485952 22
-15.633342 -12.610012 -2.4661481 13
nan nan nan nan
nan nan nan nan
nan nan nan nan
-19.780012 -16.017544 0.44426847 8
-19.036018 -15.398565 1.2831731 10
-19.092178 -15.427464 2.1475174 6
-21.399818 -17.273642 3.3767562 10
-20.885666 -16.834568 4.2487607 10
-19.782995 -15.92869 4.9369922 8
nan nan nan nan
nan nan nan nan
-4.5425425 -3.6301601 -1.5580908 21
-5.5070968 -4.3962579 -1.6268462 11
-8.2132044 -6.5471306 -2.0416565 24
-14.858079 -11.831355 -3.0082352 7
-15.400337 -12.24998 -2.4161818 6
nan nan nan nan
nan nan nan nan
nan nan nan nan
nan nan nan nan
-18.981134 -15.141597 1.2724966 10
-21.577639 -17.194397 2.4138653 8
-21.462536 -17.084312 3.3682251 10
-20.307001 -16.141346 4.1085954 9
nan nan nan nan
nan nan nan nan
nan nan nan nan
-4.5747328 -3.6051357 -1.5606788 23
-5.5751729 -4.3888063 -1.6380937 19
-8.3131428 -6.5347533 -2.0553946 21
-14.824851 -11.640892 -2.9853957 36
-15.332391 -12.022133 -2.3922954 12
nan nan nan nan
nan nan nan nan
nan nan nan nan
nan nan nan nan
nan nan nan nan
-22.47434 -17.660172 2.5006726 8
nan nan nan nan
-21.181314 -16.602299 4.262527 10
nan nan nan nan
nan nan nan nan
nan nan nan nan
-4.579052 -3.5557196 -1.553432 21
-5.6418529 -4.3762689 -1.6484414 11
-8.4501238 -6.5475039 -2.0779099 17
-14.923394 -11.546597 -2.9885242 14
-15.678246 -12.117526 -2.4329998 6
nan nan nan nan
nan nan nan nan
nan nan nan nan
nan nan nan nan
-19.50325 -15.117371 1.2932216 10
nan nan nan nan
nan nan nan nan
nan nan nan nan
nan nan nan nan
nan nan nan nan
nan nan nan nan
-4.6006951 -3.5213165 -1.5523967 18
-5.7156129 -4.3699174 -1.6610386 8
-8.6137953 -6.5762191 -2.1065314 21
-15.188987 -11.583479 -3.0254428 15
-15.785084 -12.020664 -2.4361684 6
nan nan nan nan
nan nan nan nan
nan nan nan nan
nan nan nan nan
nan nan nan nan
nan nan nan nan
nan nan nan nan
nan nan nan nan
nan nan nan nan
nan nan nan nan
nan nan nan nan
-4.6026392 -3.4708574 -1.5446322 15
-5.8089986 -4.3758059 -1.6790347 8
-8.7442074 -6.579668 -2.1271389 29
-15.495743 -11.642991 -3.0698702 15
-15.722558 -11.800538 -2.4137444 18
nan nan nan nan
nan nan nan nan
nan nan nan nan
nan nan nan nan
nan nan nan nan
-16.322588 -12.273179 1.7866927 4
nan nan nan nan
nan nan nan nan
nan nan nan nan
-11.714085 -8.7664442 3.3778653 14
-11.542802 -8.6256981 3.8610628 8
-4.7036738 -3.4970791 -1.5705141 26
-5.9653721 -4.4302769 -1.7154769 16
-8.8183146 -6.5395122 -2.1340079 21
-15.595268 -11.552536 -3.0739377 7
-15.638154 -11.571628 -2.3886392 18
nan nan nan nan
nan nan nan nan
nan nan nan nan
nan nan nan nan
-16.219736 -12.037058 1.0585471 21
nan nan nan nan
nan nan nan nan
nan nan nan nan
nan nan nan nan
-11.74677 -8.6636295 3.369767 32
-12.128507 -8.9353733 4.0365419 3
-4.7217402 -3.459589 -1.5684435 33
-5.9914389 -4.3850698 -1.7141272 13
-8.8700943 -6.4824228 -2.1355343 25
-57.378059 -41.886837 -11.251706 63
-15.781112 -11.507786 -2.3981452 6
nan nan nan nan
nan nan nan nan
nan nan nan nan
-16.396067 -12.004507 0.35470271 5
-16.235661 -11.874012 1.0541509 21
nan nan nan nan
nan nan nan nan
nan nan nan nan
nan nan nan nan
-11.811694 -8.5848513 3.3711169 3
-12.174959 -8.8391333 4.0313659 3
-4.6752949 -3.3756526 -1.5451498 18
-6.0946107 -4.3955731 -1.7348226 13
-8.708025 -6.2711916 -2.0859239 31
nan nan nan nan
-15.769178 -11.331305 -2.3842521 6
nan nan nan nan
nan nan nan nan
-16.41563 -11.752439 -0.35239899 9
nan nan nan nan
-16.292242 -11.74169 1.0524762 21
-16.362135 -11.779051 1.7638578 4
nan nan nan nan
nan nan nan nan
-12.796107 -9.1780138 3.0609579 11
-11.918963 -8.5394354 3.3850636 32
nan nan nan nan
-4.819356 -3.4300048 -1.5850078 21
-6.1402721 -4.3652778 -1.7393217 13
-9.0818968 -6.4470153 -2.1649189 21
nan nan nan nan
-15.844322 -11.222556 -2.3840082 6
nan nan nan nan
nan nan nan nan
-16.44133 -11.602382 -0.35124713 65
nan nan nan nan
nan nan nan nan
-16.441931 -11.667408 1.7638578 23
nan nan nan nan
nan nan nan nan
-12.709195 -8.985302 3.0254676 30
-12.06118 -8.5176878 3.4089084 11
-13.571248 -9.5734634 4.4501348 14
-4.8884559 -3.4292948 -1.6000193 28
-6.1698432 -4.3233814 -1.7393217 13
-9.0435333 -6.3276439 -2.1454566 21
nan nan nan nan
nan nan nan nan
nan nan nan nan
nan nan nan nan
-16.436552 -11.427956 -0.34943208 46
-16.472786 -11.547228 0.35114241 23
nan nan nan nan
-16.462193 -11.514111 1.7575827 14
nan nan nan nan
nan nan nan nan
-12.773229 -8.8974752 3.0258491 33
-12.390687 -8.621376 3.484942 27
-13.675824 -9.5049458 4.4625583 15
-4.8333998 -3.3393211 -1.5741374 28
-6.2054343 -4.2824407 -1.7406714 16
-9.1456776 -6.3044696 -2.1591947 21
-13.425847 -9.2411375 -2.5814819 5
nan nan nan nan
nan nan nan nan
nan nan nan nan
-16.557175 -11.341184 -0.35030469 37
-16.546415 -11.427402 0.35100281 23
-16.200447 -11.171766 1.0313325 6
-16.565495 -11.410709 1.7598487 14
nan nan nan nan
-12.12487 -8.3300791 2.3299353 8
nan nan nan nan
-12.114635 -8.3043861 3.3909123 36
-13.692476 -9.3719234 4.4459939 3
-4.8677726 -3.3131061 -1.5777609 21
-6.2674103 -4.2609282 -1.7496694 19
-9.3237534 -6.3292813 -2.1904874 21
-13.302016 -9.0196915 -2.5455019 16
-13.388618 -9.0681849 -1.9854957 6
nan nan nan nan
nan nan nan nan
-16.589535 -11.193998 -0.34932736 37
-16.571545 -11.270472 0.34981602 5
-16.714197 -11.354691 1.0589658 7
-16.077618 -10.909936 1.6998856 13
nan nan nan nan
-12.302152 -8.3260527 2.3527746 9
nan nan nan nan
-12.218975 -8.2480116 3.4035099 7
-13.848869 -9.3376665 4.4754992 22
-4.9645958 -3.3285277 -1.6015723 23
-6.3310084 -4.23984 -1.7591174 13
-9.4264641 -6.3033237 -2.2042258 22
-13.091977 -8.7444782 -2.4935656 16
-13.458203 -8.9789038 -1.9864705 9
nan nan nan nan
-53.762905 -35.774117 -3.3843572 63
-16.947065 -11.263869 -0.35519138 9
-16.636534 -11.145602 0.34953681 5
-16.436182 -10.998914 1.0364614 34
-16.252773 -10.863862 1.7103442 31
nan nan nan nan
-12.453665 -8.3024216 2.3706081 9
nan nan nan nan
-12.500199 -8.311409 3.4655962 11
nan nan nan nan
-4.9329019 -3.2575927 -1.5839727 21
-6.3588262 -4.1944661 -1.7586675 16
-9.5046701 -6.2600384 -2.2122397 18
-12.934872 -8.509553 -2.4522669 16
-13.228584 -8.6928587 -1.9435725 21
nan nan nan nan
-18.203121 -11.929953 -1.14061 10
nan nan nan nan
-16.884182 -11.141525 0.35309708 5
-16.545919 -10.905882 1.0385549 21
-16.393122 -10.792861 1.7171425 27
-17.287745 -11.364569 2.5402448 6
-12.493158 -8.2033529 2.3671668 4
-12.937879 -8.4856768 3.0075316 11
-12.533665 -8.2111759 3.4592974 31
nan nan nan nan
-5.0429735 -3.2799542 -1.611925 16
-6.3438306 -4.1213078 -1.7465202 11
-9.644228 -6.2582502 -2.234755 22
-12.932818 -8.3826351 -2.4410038 26
-13.192288 -8.5377426 -1.9294356 18
nan nan nan nan
-57.324921 -37.014244 -3.5761161 63
nan nan nan nan
-16.828859 -10.94132 0.35037449 28
-16.661648 -10.820201 1.0411717 21
-16.496489 -10.696579 1.7201056 9
-17.32971 -11.223969 2.5351262 40
nan nan nan nan
-12.962174 -8.3727741 2.9995177 3
-12.51536 -8.0748749 3.438602 33
nan nan nan nan
-4.9903598 -3.1976085 -1.5881137 21
-6.4767828 -4.1452632 -1.7753139 13
-9.6016598 -6.1357951 -2.214911 11
-12.8062 -8.1741686 -2.4062753 31
-12.957176 -8.2609911 -1.8867813 24
nan nan nan nan
nan nan nan nan
nan nan nan nan
-17.086716 -10.940023 0.35414425 41
-16.81081 -10.750966 1.0457772 14
nan nan nan nan
-17.487982 -11.15395 2.5468256 47
nan nan nan nan
-12.651155 -8.0503674 2.9147985 28
-13.408802 -8.5226231 3.6680524 39
-13.616558 -8.6413336 4.3212428 3
-5.038703 -3.1791852 -1.596396 26
-6.5368891 -4.1196871 -1.783862 19
-9.8392553 -6.1937132 -2.2599418 22
-12.801339 -8.0489607 -2.3950119 31
-12.898525 -8.0975084 -1.8699634 8
nan nan nan nan
nan nan nan nan
nan nan nan nan
-17.236898 -10.871469 0.35571498 47
-16.875151 -10.630967 1.0452538 21
-18.97315 -11.934158 1.9610043 5
-17.358433 -10.905818 2.5170896 53
nan nan nan nan
-12.931643 -8.1025724 2.9663167 29
-12.242261 -7.6617031 3.3342247 28
nan nan nan nan
-5.1094503 -3.1754057 -1.611925 21
-6.6012044 -4.0977068 -1.7937598 16
-9.8672352 -6.115562 -2.2565072 33
-12.695979 -7.8595772 -2.3649766 35
-13.132316 -8.1201839 -1.8957996 9
nan nan nan nan
nan nan nan nan
nan nan nan nan
-17.127207 -10.63588 0.35191032 5
-16.938776 -10.50658 1.0446258 21
-17.663427 -10.943257 1.8178945 25
-17.381809 -10.751997 2.5095336 53
-19.396231 -11.984036 3.6111336 7
-12.986495 -8.0143652 2.9663167 29
-12.312042 -7.5862718 3.3387239 28
-13.849574 -8.5236483 4.3574777 24
-5.1792817 -3.1688979 -1.6269366 16
-6.6662321 -4.0738797 -1.8036578 17
-9.9147186 -6.0495954 -2.2576523 30
-12.770782 -7.7830868 -2.368731 30
-13.131032 -7.9932137 -1.8875126 18
nan nan nan nan
nan nan nan nan
nan nan nan nan
nan nan nan nan
-17.033871 -10.4016 1.0459865 21
-17.776814 -10.842499 1.8217293 30
-17.597174 -10.71608 2.5297642 6
-18.200148 -11.07021 3.3739789 6
-13.15287 -7.9907813 2.9915035 14
-12.428018 -7.5385418 3.3558202 39
-13.98805 -8.4748049 4.3823242 10
-5.302227 -3.1934605 -1.6585126 16
-6.7329183 -4.0503445 -1.8140054 11
-9.9062185 -5.9499068 -2.2462037 33
-12.670657 -7.6012678 -2.34026 10
-13.275061 -7.9544034 -1.900187 18
nan nan nan nan
nan nan nan nan
nan nan nan nan
nan nan nan nan
nan nan nan nan
-17.858912 -10.722232 1.8224266 5
-18.073376 -10.833837 2.5872865 41
-19.393875 -11.611594 3.5801597 14
-13.19317 -7.8896971 2.9880691 14
-12.677781 -7.5694737 3.4089084 30
-13.87266 -8.2730446 4.3279719 16
-5.3293777 -3.159323 -1.6600655 14
-6.8213968 -4.0389862 -1.830202 11
-10.06582 -5.9505367 -2.2729168 26
-12.677489 -7.4855042 -2.3318124 30
-12.99855 -7.6659012 -1.8529016 14
nan nan nan nan
nan nan nan nan
nan nan nan nan
-17.974176 -10.646846 0.36465058 36
-17.282297 -10.224796 1.0523715 21
-17.833841 -10.538507 1.8123164 25
-18.128052 -10.695296 2.5843616 27
-19.372353 -11.415749 3.5613873 14
-13.268233 -7.8093491 2.9926486 25
-12.38085 -7.2754259 3.3153288 10
-13.403595 -7.8669896 4.1643987 9
-5.3513031 -3.1220415 -1.6600655 16
-6.9033079 -4.0226617 -1.8445989 9
-10.064691 -5.8554401 -2.2633765 33
-12.65941 -7.3561282 -2.3189847 30
nan nan nan nan
nan nan nan nan
nan nan nan nan
nan nan nan nan
-18.23983 -10.63289 0.36852503 25
-17.199642 -10.014452 1.0430557 21
-17.962093 -10.445799 1.8178945 5
-18.260647 -10.602363 2.5926485 28
-18.142618 -10.521137 3.3217299 12
-13.327525 -7.719481 2.9937932 18
-12.427965 -7.1868663 3.314429 21
-13.474918 -7.7828889 4.1695747 12
-5.3729692 -3.0846047 -1.6600655 14
-6.9616523 -3.9918177 -1.8526969 9
-10.406898 -5.9576788 -2.3309228 27
-12.621285 -7.2165828 -2.3027155 15
nan nan nan nan
nan nan nan nan
nan nan nan nan
-18.498005 -10.521149 -0.37145701 23
-18.036085 -10.346091 0.36294025 30
-17.416441 -9.9785271 1.0519528 21
-18.202322 -10.416132 1.8348027 10
-18.296297 -10.452962 2.5872865 6
-20.464912 -11.677717 3.7319009 8
-13.754635 -7.8391457 3.0773675 34
-14.41379 -8.2014866 3.8286672 25
-13.656573 -7.7611661 4.2089157 22
-5.4481974 -3.0774238 -1.6766298 14
-7.0640302 -3.9852524 -1.8724927 12
-10.491004 -5.9089642 -2.3404634 19
-12.662752 -7.1234512 -2.3011513 30
nan nan nan nan
nan nan nan nan
nan nan nan nan
nan nan nan nan
nan nan nan nan
-18.214685 -10.267635 1.0958104 7
-17.316246 -9.7492409 1.7385828 4
-18.200972 -10.230624 2.5636437 6
-20.604506 -11.567439 3.7425387 8
-13.8878 -7.7870984 3.0949221 31
-14.61863 -8.1834784 3.8678086 30
-14.454033 -8.0813999 4.4371939 10
-5.4661732 -3.0374353 -1.6755946 16
-7.1853962 -3.9878485 -1.8972372 9
-10.516542 -5.8270173 -2.3370285 34
-12.620569 -6.9841852 -2.2845693 43
nan nan nan nan
nan nan nan nan
nan nan nan nan
-18.77449 -10.33417 -0.37407491 35
nan nan nan nan
-17.239664 -9.5600376 1.0331119 20
-15.48236 -8.5749512 1.5484089 7
-18.308434 -10.123481 2.5687623 6
-20.434023 -11.284841 3.6971726 15
-14.228914 -7.8483038 3.1586523 8
-14.316931 -7.8838172 3.773329 47
-14.169861 -7.7931652 4.3331485 16
-5.4719882 -2.9908626 -1.6709359 19
-7.2814789 -3.9749391 -1.9152333 3
-10.587998 -5.7703648 -2.3438978 11
-12.608296 -6.8628502 -2.2736187 39
nan nan nan nan
nan nan nan nan
nan nan nan nan
-18.782869 -10.168573 -0.37281832 46
nan nan nan nan
-17.4182 -9.5006571 1.0398108 21
-15.515602 -8.4523582 1.5457941 3
-18.186836 -9.8910952 2.5419512 6
nan nan nan nan
-14.378267 -7.8002691 3.1796415 8
nan nan nan nan
-14.256207 -7.7115188 4.3429837 28
-5.5676036 -2.9928353 -1.6937119 22
-7.236939 -3.8852949 -1.8963375 9
-10.742953 -5.7603211 -2.3694661 8
-12.616406 -6.7563562 -2.2667358 34
nan nan nan nan
nan nan nan nan
nan nan nan nan
-19.167597 -10.204468 -0.37903136 24
nan nan nan nan
-17.463108 -9.3714867 1.0386595 14
-17.901236 -9.5905161 1.776757 4
-18.341253 -9.8138981 2.5541377 6
-18.115479 -9.6808958 3.2532115 6
-14.434107 -7.7006207 3.1800227 33
-14.529179 -7.7415714 3.8007731 4
-14.316893 -7.6188388 4.345572 10
-5.5946779 -2.9584808 -1.6957825 25
-7.4027967 -3.9096587 -1.9327796 16
-10.822849 -5.7062411 -2.3782434 12
-12.680744 -6.6773152 -2.2698643 29
nan nan nan nan
nan nan nan nan
nan nan nan nan
-19.25787 -10.084893 -0.3794502 74
nan nan nan nan
-16.383471 -8.6453381 0.97083211 5
-18.426134 -9.7108946 1.8222523 15
-21.086657 -11.094227 2.9255955 8
-17.946552 -9.4301453 3.2109742 11
-14.33147 -7.5210013 3.1460588 16
-14.483151 -7.5909333 3.7751291 9
-18.424751 -9.6404228 5.571857 6
-5.6271939 -2.9255886 -1.6994059 17
-7.4195337 -3.8524961 -1.9300803 6
-10.896297 -5.6505184 -2.3858757 12
-12.948669 -6.7062225 -2.3095987 5
nan nan nan nan
nan nan nan nan
nan nan nan nan
-19.189125 -9.8788137 -0.37672764 36
-18.907959 -9.8260918 0.37194568 25
-16.367485 -8.494977 0.96643591 11
-16.526316 -8.562768 1.6284178 4
-21.165209 -10.952262 2.9260831 24
-14.679564 -7.5864248 2.6171491 12
-14.622656 -7.5440841 3.1983407 8
nan nan nan nan
-18.318169 -9.4263906 5.520093 6
-5.6801648 -2.9029355 -1.709241 17
-7.609406 -3.8838809 -1.972371 6
-10.689803 -5.4467278 -2.3320675 7
-12.691752 -6.4584045 -2.2554724 34
nan nan nan nan
nan nan nan nan
nan nan nan nan
nan nan nan nan
-18.744486 -9.5714073 0.36737317 12
-16.24637 -8.2850857 0.95575935 11
-19.145802 -9.7510672 1.879775 5
nan nan nan nan
-14.763418 -7.4963899 2.6224675 21
-14.762517 -7.4862123 3.2174215 34
-16.00634 -8.1064348 4.1422491 18
-18.38343 -9.2941961 5.5195751 6
-5.7192826 -2.8727481 -1.7149351 20
-7.6642051 -3.8446426 -1.9795693 6
-11.105775 -5.5637832 -2.4144971 16
-12.680656 -6.3444653 -2.2457736 24
nan nan nan nan
nan nan nan nan
nan nan nan nan
-19.998425 -9.9447117 -0.38985187 40
-18.96468 -9.521656 0.37040988 25
-14.17599 -7.1080937 0.8310951 10
-15.35434 -7.6855259 1.5022163 3
nan nan nan nan
-17.797424 -8.8851042 3.1505907 11
-14.536791 -7.2446122 3.1571259 28
-20.598505 -10.252091 5.3119946 19
-19.736795 -9.8103199 5.9057331 7
-5.7421684 -2.8354621 -1.7159703 20
-7.5224113 -3.7096424 -1.9363788 3
-11.36452 -5.5945039 -2.4621994 28
-12.800864 -6.2932611 -2.2592268 4
nan nan nan nan
nan nan nan nan
nan nan nan nan
-16.634243 -8.1310425 -0.32318369 23
-16.780075 -8.2786617 0.32660434 30
-16.230062 -7.9967427 0.94822294 5
-14.457036 -7.1137433 1.409657 21
nan nan nan nan
-15.406286 -7.5574684 2.7178926 7
-14.636894 -7.1705422 3.1681926 12
-19.859041 -9.7116566 5.1036901 9
nan nan nan nan
-5.8087525 -2.818074 -1.7299466 20
-6.3976674 -3.0996447 -1.641243 16
-6.3502884 -3.0712163 -1.3711535 10
-6.3092933 -3.0473144 -1.1097462 17
-6.38305 -3.0788178 -0.87014717 22
nan nan nan nan
nan nan nan nan
-16.627512 -7.9844184 -0.32196197 47
-16.760086 -8.1238079 0.32510343 20
-14.370929 -6.9564662 0.83674735 11
-14.714424 -7.1132293 1.429877 16
nan nan nan nan
-15.476464 -7.4583073 2.7210214 10
-20.513828 -9.8726397 4.4252424 7
-20.249561 -9.7280521 5.1864719 9
-19.617548 -9.4117899 5.8301582 21
-5.8526998 -2.789089 -1.7371935 17
-6.2748618 -2.9862351 -1.604351 22
-6.2208409 -2.955204 -1.338716 21
-6.2268987 -2.9540868 -1.0915998 18
-6.2716355 -2.9712887 -0.85211051 15
nan nan nan nan
nan nan nan nan
-17.042765 -8.0378914 -0.32890806 33
-17.054718 -8.1200743 0.32971084 21
-14.386677 -6.8405309 0.83486325 21
-14.862713 -7.0573373 1.4394642 22
nan nan nan nan
-15.681706 -7.4227562 2.7479279 21
-14.407221 -6.8102622 3.0975935 11
-16.323793 -7.7057676 4.1674438 18
-14.717953 -6.9351635 4.3595481 3
-5.8090396 -2.7186806 -1.7185585 22
-6.3626423 -2.9737115 -1.6214473 13
-6.1233969 -2.8579898 -1.3135291 25
-6.0928841 -2.8398645 -1.0646931 21
-6.1698384 -2.8704898 -0.8355363 22
nan nan nan nan
nan nan nan nan
-16.985962 -7.8666158 -0.32674393 24
-16.982801 -7.9444895 0.32726753 25
-18.462753 -8.6250257 1.0679675 22
-14.777996 -6.8910942 1.4265651 9
-15.458078 -7.1983714 2.0937154 4
-15.165857 -7.0526323 2.6490614 21
-18.849323 -8.7495689 4.0394263 12
-19.90793 -9.2282925 5.0658979 9
nan nan nan nan
-5.8923535 -2.708935 -1.7377111 15
-6.1259389 -2.8124368 -1.5562115 15
-6.1003652 -2.7955432 -1.3043704 27
-6.0407128 -2.7643793 -1.0521784 21
-6.1711783 -2.8201768 -0.83309889 15
nan nan nan nan
nan nan nan nan
nan nan nan nan
-17.214117 -7.9066911 0.33065331 31
-18.562456 -8.5142355 1.0702704 7
-14.967663 -6.8558912 1.4403358 13
-15.538648 -7.1043096 2.0978591 4
-15.212929 -6.9457626 2.6487486 21
-18.958462 -8.6438675 4.0501122 6
-16.698069 -7.6027122 4.2358289 38
nan nan nan nan
-5.9111218 -2.6677327 -1.7377111 12
-6.1347637 -2.7647986 -1.5535121 23
-6.2016068 -2.7910178 -1.3219248 22
-5.98912 -2.6916168 -1.0399765 24
-6.0965343 -2.7347767 -0.8204245 15
nan nan nan nan
nan nan nan nan
nan nan nan nan
-17.211031 -7.7638445 0.32957125 36
-17.296097 -7.7913213 0.99417388 6
-16.060022 -7.2210336 1.5405649 7
-15.539558 -6.9772401 2.0915217 24
-18.387165 -8.2442455 3.1915762 11
-18.991465 -8.4992723 4.0443878 12
-16.108463 -7.1989179 4.0734143 5
-15.402775 -6.8738713 4.5194983 15
-6.0050893 -2.6610913 -1.7599696 17
-6.2603641 -2.770293 -1.5805062 16
-6.7579093 -2.9848216 -1.4360286 7
-6.3005614 -2.7788796 -1.0906612 12
-6.0496063 -2.6644125 -0.81164992 21
nan nan nan nan
nan nan nan nan
nan nan nan nan
-17.191671 -7.6111231 0.32817504 25
-17.191143 -7.6001267 0.98506743 18
-16.564472 -7.3127131 1.5841427 12
-15.064723 -6.6380525 2.0213251 3
-15.276511 -6.7218246 2.64343 6
-20.14889 -8.8531342 4.2779379 13
-17.020321 -7.4643135 4.2907166 19
-15.478703 -6.7785721 4.5277805 31
-6.0713558 -2.6399004 -1.7739457 22
-6.0167875 -2.6124284 -1.5143706 23
-5.9787712 -2.5909634 -1.2665902 25
-6.2581692 -2.7081523 -1.0800236 15
-6.0443707 -2.6118767 -0.80848128 23
nan nan nan nan
nan nan nan nan
nan nan nan nan
nan nan nan nan
-17.720182 -7.6865745 1.0122821 6
-16.328085 -7.0725627 1.5567759 15
-15.161717 -6.55478 2.0281496 3
-15.130822 -6.532023 2.6102657 12
-18.703001 -8.0625286 3.9589052 6
-19.832323 -8.5329409 4.9844656 26
-15.518548 -6.6672945 4.5257096 15
-6.1340613 -2.6164 -1.7868867 17
-6.2805042 -2.6749778 -1.5760072 19
-6.0274291 -2.5622172 -1.2730777 32
-5.9659863 -2.5324111 -1.0265231 27
-5.9802113 -2.534755 -0.79751301 21
nan nan nan nan
nan nan nan nan
nan nan nan nan
-19.308826 -8.2279463 0.3663609 6
-17.043804 -7.2522249 0.97072738 17
-15.854451 -6.7363472 1.5070971 3
-15.316761 -6.495275 2.0427742 3
-18.519411 -7.8419538 3.1853189 11
-18.163918 -7.6802092 3.8333528 5
-19.794456 -8.3533678 4.9601712 8
-15.776565 -6.648067 4.5873089 3
-6.1094055 -2.5556188 -1.7744634 25
-6.0131159 -2.5116417 -1.5044727 21
-5.9563766 -2.4830616 -1.2543784 25
-5.9634595 -2.4823501 -1.0230815 24
-5.9830966 -2.4868498 -0.79556316 21
nan nan nan nan
nan nan nan nan
nan nan nan nan
-17.910042 -7.4845905 0.33882102 16
-17.132725 -7.1492157 0.97292548 11
-17.738379 -7.3910441 1.6812342 17
-15.658667 -6.5116615 2.0822597 36
-15.576299 -6.467845 2.6712751 3
-18.159058 -7.5291562 3.8211412 11
-19.74065 -8.1687746 4.9322772 17
-18.814997 -7.7741947 5.4548702 6
-6.0931373 -2.4989779 -1.7646283 27
-5.9709916 -2.4452312 -1.4896259 15
-5.9408545 -2.4280481 -1.2475092 35
-6.1635389 -2.5152929 -1.0543684 15
-5.9378099 -2.419549 -0.78727603 21
nan nan nan nan
nan nan nan nan
nan nan nan nan
-17.33272 -7.1016006 0.32695338 15
-17.507563 -7.1625347 0.99134779 18
-17.84119 -7.2881236 1.6861149 4
-16.030945 -6.5355835 2.1256454 8
-18.78261 -7.6459317 3.2119129 11
-19.889887 -8.0845404 4.1733747 13
-20.303194 -8.2401457 5.0586996 9
-17.076471 -6.9166837 4.9367146 9
-6.0853405 -2.4462926 -1.7573814 30
-5.9318538 -2.3809845 -1.475679 21
-5.9426651 -2.3817108 -1.2444563 35
-5.8650727 -2.347048 -1.0005549 18
-5.9674606 -2.3831911 -0.78898221 19
nan nan nan nan
nan nan nan nan
nan nan nan nan
-17.037386 -6.845531 0.32049599 20
-19.190828 -7.6991057 1.0836685 7
-17.874989 -7.1567249 1.6845462 13
-15.979211 -6.3879952 2.1129708 12
-15.561255 -6.211462 2.6537545 22
-19.867418 -7.9142385 4.1569653 19
-17.441278 -6.937201 4.3334575 6
-18.568489 -7.3742871 5.3534136 5
-6.0191746 -2.3722308 -1.7335701 20
-5.8790145 -2.3134363 -1.4585828 21
-5.8951883 -2.3150482 -1.2310997 27
-5.8077526 -2.2772031 -0.98804021 28
-5.9317865 -2.3222539 -0.78215748 19
nan nan nan nan
nan nan nan nan
nan nan nan nan
-17.081038 -6.7249599 0.32042617 20
-17.727333 -6.9686942 0.99825615 6
nan nan nan nan
-17.903198 -7.0125833 2.3608532 17
-21.316473 -8.3366737 3.6252129 15
-19.395969 -7.5738764 4.047441 6
-17.333126 -6.7544222 4.2947659 6
-18.702333 -7.2767015 5.3772249 5
-6.0283809 -2.327368 -1.7314996 22
-5.7677388 -2.2232735 -1.4270896 26
-5.8507385 -2.250577 -1.2185063 30
-5.7995358 -2.227396 -0.98397291 21
-5.921905 -2.2708366 -0.77874517 19
nan nan nan nan
-20.121834 -7.6878066 -1.1288867 30
-19.898176 -7.5904193 -0.37173626 23
-17.455946 -6.7321868 0.32656944 20
-18.72798 -7.2115064 1.0517435 7
-17.53866 -6.7429981 1.6439316 4
-17.986933 -6.9009342 2.3654842 5
-19.907646 -7.6258879 3.376482 6
-19.532722 -7.4705434 4.0649948 12
-17.166843 -6.5519495 4.2421274 25
nan nan nan nan
-5.9884639 -2.2640467 -1.7154527 55
