# .PCD v0.7 - Point Cloud Data file format
VERSION 0.7
FIELDS x y z intensity
SIZE 4 4 4 4
TYPE F F F F
COUNT 1 1 1 1
WIDTH 1494
HEIGHT 1
VIEWPOINT 0 0 0 1 0 0 0
POINTS 1494
DATA ascii
-2.9935849 3.2669239 -0.86131191 24
-2.9644334 3.2396483 -0.69550771 24
-2.9773085 3.2571414 -0.54183114 37
-3.1464145 3.4457624 -0.40823749 4
-4.5418277 4.9809151 -0.35326776 2
nan nan nan nan
nan nan nan nan
nan nan nan nan
nan nan nan nan
nan nan nan nan
nan nan nan nan
nan nan nan nan
-17.803974 19.532042 6.1015725 12
nan nan nan nan
-2.9550996 3.263597 -1.1796973 26
-3.0118906 3.3298192 -1.0365745 17
-3.162262 3.5009708 -0.91702807 22
-2.9642406 3.2851973 -0.70082647 38
-3.0382276 3.3707416 -0.55718666 15
-3.1076159 3.4513578 -0.40632007 18
-4.5750489 5.0882444 -0.35860601 11
nan nan nan nan
nan nan nan nan
nan nan nan nan
nan nan nan nan
nan nan nan nan
nan nan nan nan
nan nan nan nan
-17.544731 19.519621 6.0592818 12
nan nan nan nan
-2.9425375 3.2956758 -1.1838384 48
-3.0417535 3.4103913 -1.0550205 16
-3.0430191 3.4154084 -0.88916999 24
-2.9785829 3.3466144 -0.7095868 6
-2.9816535 3.3547771 -0.55109322 16
-3.1099021 3.5027666 -0.40980628 13
-4.5495853 5.1297274 -0.3593387 5
nan nan nan nan
nan nan nan nan
nan nan nan nan
nan nan nan nan
nan nan nan nan
nan nan nan nan
nan nan nan nan
-17.64069 19.904142 6.1402645 12
nan nan nan nan
-2.9098217 3.3040302 -1.1796973 43
-3.1240191 3.5509927 -1.0919125 16
-3.0307627 3.4498439 -0.89260459 9
-3.2704678 3.7266273 -0.78530115 11
-2.9757612 3.3943989 -0.55426186 34
-3.0604384 3.4959087 -0.40649435 15
-4.4150534 5.0486054 -0.35148832 11
nan nan nan nan
-41.860786 47.565346 1.1059939 53
nan nan nan nan
nan nan nan nan
nan nan nan nan
nan nan nan nan
nan nan nan nan
-17.447447 19.965183 6.1213684 12
nan nan nan nan
-2.8980844 3.3373923 -1.184356 29
-3.036582 3.5005844 -1.0698673 22
-3.2264116 3.7246709 -0.95786124 14
-3.0582397 3.5342653 -0.74024802 27
-2.9467988 3.4090836 -0.55328691 14
-3.0268438 3.5066326 -0.40527418 20
-4.3562231 5.0520787 -0.34960422 11
nan nan nan nan
-41.349468 47.651016 1.1012468 53
nan nan nan nan
nan nan nan nan
nan nan nan nan
nan nan nan nan
-17.319843 20.072315 5.1533694 8
-17.16008 19.915251 6.06918 12
nan nan nan nan
-2.9086387 3.3971639 -1.1983322 39
-3.0222034 3.5335457 -1.0734665 22
-3.1557028 3.6948547 -0.94450456 24
-3.13606 3.6757512 -0.7652775 11
-2.9667058 3.480942 -0.56157398 19
-2.9783647 3.4983304 -0.40196225 19
-4.4165807 5.1949692 -0.35734996 13
nan nan nan nan
nan nan nan nan
nan nan nan nan
nan nan nan nan
nan nan nan nan
nan nan nan nan
-17.239082 20.263021 5.1713057 8
-15.410048 18.13238 5.4937549 20
nan nan nan nan
-2.9508972 3.4956253 -1.225767 29
-3.0225863 3.5843534 -1.0824646 20
-4.2308931 5.0225654 -1.2765123 2
-2.9329083 3.4854074 -0.72147578 20
-3.0125718 3.5851552 -0.57497966 19
-2.9782093 3.5480313 -0.40527418 18
-4.3759837 5.2187896 -0.35693124 11
nan nan nan nan
-40.010178 47.412739 1.0828869 53
nan nan nan nan
nan nan nan nan
nan nan nan nan
-15.731822 18.728539 3.8739436 8
-16.361633 19.505953 4.9488225 8
-17.106642 20.415834 6.1492624 12
-14.944015 17.85384 6.238575 8
-2.9628813 3.5586853 -1.2407786 15
-2.9370594 3.5314291 -1.0604193 28
-3.0329642 3.6519248 -0.92275238 13
-3.3814833 4.0759087 -0.83880174 18
-2.9158976 3.5184569 -0.56108648 17
-2.9616125 3.5774295 -0.40632007 22
-4.4157953 5.3415766 -0.36321157 11
nan nan nan nan
-39.3866 47.34042 1.0749286 52
-16.510132 19.86537 1.353722 11
nan nan nan nan
nan nan nan nan
nan nan nan nan
-16.336113 19.746958 4.9816418 8
-15.061758 18.225948 5.4586625 10
-14.882946 18.035213 6.265492 8
-2.9784122 3.6285598 -1.2578605 35
-2.8975062 3.5337644 -1.0550205 35
-2.8711941 3.5054157 -0.88077438 16
-2.9583764 3.6157165 -0.7399351 14
-3.0017893 3.6740055 -0.58253551 15
-2.96806 3.6366072 -0.41067785 20
-6.7065682 8.2259922 -0.55622661 16
-6.6572351 8.1771317 -0.18405308 7
-38.789463 47.273506 1.0673892 52
-16.288435 19.872253 1.3466043 11
-17.347912 21.195002 2.39626 8
nan nan nan nan
-15.69953 19.222105 3.9308856 8
-16.217709 19.884867 4.9877472 8
-14.756896 18.113106 5.3938766 10
-15.169563 18.639547 6.4394183 9
-2.9366276 3.6277277 -1.2506137 35
-2.8304994 3.5003698 -1.039274 36
-3.1623979 3.9164045 -0.9784686 22
-3.0297976 3.7562099 -0.76433885 20
-3.0041122 3.7283595 -0.58789778 15
-2.9575872 3.6758673 -0.41276959 20
-6.5613918 8.1636391 -0.54889959 13
nan nan nan nan
nan nan nan nan
-15.991137 19.789745 1.3334156 11
-16.996756 21.056787 2.3674986 8
-15.510904 19.243481 3.0347905 8
nan nan nan nan
-15.141917 18.826012 4.6961913 7
-14.62277 18.206566 5.3911772 10
-14.56759 18.157324 6.2375388 8
-2.9546106 3.7024992 -1.2692486 33
-2.8229992 3.5413785 -1.0455725 31
-3.1643238 3.9752512 -0.98762739 12
-2.9936652 3.7649014 -0.76183593 13
-2.9014609 3.6528678 -0.57278597 15
-2.9405193 3.7073522 -0.41398975 18
-6.4174156 8.0996656 -0.54157251 33
nan nan nan nan
-37.59203 47.141331 1.0524499 52
nan nan nan nan
nan nan nan nan
-15.452748 19.447657 3.0499024 8
-15.269966 19.238293 3.8902128 8
-17.098312 21.564964 5.3495212 9
-14.409423 18.19973 5.3592343 9
-14.838336 18.761641 6.4093952 9
-2.9227166 3.7154455 -1.2666605 22
-2.8367367 3.6100333 -1.0599694 13
-2.8674459 3.6543584 -0.90290827 16
-2.9429374 3.7546134 -0.75557858 15
-2.9542103 3.773066 -0.58838522 12
-2.9121113 3.7246516 -0.41364115 18
-6.3201442 8.0923262 -0.53811836 20
nan nan nan nan
nan nan nan nan
-15.903223 20.253002 1.3495351 11
nan nan nan nan
-15.358219 19.6082 3.0581896 8
-15.507764 19.820494 3.9859507 9
-14.7446 18.865438 4.6542134 7
nan nan nan nan
-15.098958 19.367552 6.5802159 9
-2.8801358 3.7143848 -1.2594135 45
-2.910512 3.7576208 -1.0973114 11
-2.8658848 3.7053485 -0.91054058 5
-2.8514349 3.6906576 -0.73868364 2
-2.983588 3.8658872 -0.59959722 5
-2.9261718 3.7969694 -0.41939342 21
-6.3512158 8.2502003 -0.54565471 33
-6.637445 8.6313562 -0.19005671 7
nan nan nan nan
nan nan nan nan
-16.051178 20.760294 2.2958565 7
-17.001806 22.021591 3.415998 10
-14.885262 19.30102 3.8604903 8
-14.744331 19.138994 4.6961913 7
nan nan nan nan
-14.239459 18.53042 6.261868 8
-2.8553071 3.7359362 -1.2599311 31
-2.827446 3.7034996 -1.075716 20
-3.0065837 3.9438465 -0.96396708 18
-2.9572477 3.8833456 -0.77309924 2
-2.9372985 3.861342 -0.5956974 16
-2.9429779 3.8744218 -0.42566866 16
-6.2862201 8.2847919 -0.54502672 33
nan nan nan nan
nan nan nan nan
-17.523264 22.969278 1.5140795 14
-16.601454 21.784624 2.39626 8
-16.775526 22.044968 3.4013736 10
-15.760275 20.733328 4.1248646 9
-18.582909 24.473213 5.9730849 11
-13.961535 18.413656 5.3349395 9
-14.266041 18.835739 6.3312321 8
-2.8152077 3.7372627 -1.2537196 24
-2.8401878 3.7745347 -1.0905627 33
-2.9801548 3.9663115 -0.96434873 18
-2.9229479 3.8944182 -0.771222 16
-2.9066958 3.876991 -0.59496623 13
-2.9982488 4.0049238 -0.43769613 10
-6.2712922 8.386054 -0.54879487 30
-34.942627 46.776783 -1.0191507 63
nan nan nan nan
-15.22113 20.243183 1.3273447 11
-15.351729 20.439142 2.2364163 7
-16.171003 21.561245 3.3092403 9
-15.359323 20.501362 4.0572848 9
-14.965024 19.99687 4.8549447 8
-15.127484 20.243418 5.834331 11
-14.747821 19.756922 6.6060977 9
-2.8189883 3.7971547 -1.2671782 38
-2.8474305 3.8396645 -1.1036099 18
-2.8133616 3.7992644 -0.91893619 16
-2.9896681 4.0417781 -0.79625154 17
-2.8772013 3.893995 -0.59447873 15
-2.8987458 3.927454 -0.42706311 16
-6.1995564 8.4119501 -0.54764348 27
-34.425503 46.761948 -1.013566 63
-34.770626 46.869926 1.0186621 47
nan nan nan nan
-15.186142 20.515394 2.2331045 7
-14.87318 20.121964 3.0723264 17
-14.49422 19.630764 3.8648703 8
-14.745813 19.993416 4.8289943 8
-14.328192 19.448483 5.5769873 10
-13.597564 18.483767 6.1485052 8
-2.7821441 3.8027101 -1.2625194 21
-2.8355031 3.8799036 -1.1094587 30
-2.9680169 4.0656929 -0.9784686 12
-3.1133924 4.2695255 -0.83692449 28
-2.963289 4.0696473 -0.61812133 13
-2.8876634 3.9701529 -0.4295035 20
-6.1280665 8.4345636 -0.54638743 23
-33.910347 46.742146 -1.0079812 63
-16.885418 23.087902 0.49927846 9
nan nan nan nan
-16.132195 22.114645 2.3948655 8
-14.63533 20.084764 3.0513649 8
-14.402112 19.786465 3.8761337 8
-18.18174 25.015821 6.0112472 12
-14.755352 20.323904 5.7983389 11
-13.816216 19.051317 6.3058672 8
-2.7392447 3.7980566 -1.2547548 21
-2.8204186 3.9149261 -1.1139576 36
-2.8111558 3.9078174 -0.93572736 22
-3.1342289 4.3617406 -0.85069072 16
-2.9702454 4.1381035 -0.62543356 3
-2.9046886 4.0512462 -0.43612733 20
-6.0143919 8.4008102 -0.54146785 23
nan nan nan nan
-15.366415 21.321743 0.45875397 8
-15.138167 21.02824 1.3579088 11
-15.525314 21.589851 2.3265355 7
-14.756424 20.550865 3.1064498 9
-14.393723 20.067913 3.9114878 8
-18.079643 25.234758 6.0341439 12
nan nan nan nan
-14.345567 20.074652 6.6112738 9
-2.6858044 3.7792947 -1.2423315 21
-2.7941468 3.9361095 -1.1144077 22
-2.8889661 4.0741992 -0.97083622 26
-2.8293009 3.9944863 -0.7752893 11
-3.1063437 4.3921204 -0.66053188 12
-2.9165711 4.1283808 -0.44222823 17
-5.9282813 8.4007587 -0.53885108 40
nan nan nan nan
-15.413171 21.696461 0.46454817 8
nan nan nan nan
-15.489398 21.860277 2.3439665 7
-15.570349 21.99893 3.3092403 9
-14.552145 20.583183 3.9925208 9
-15.346428 21.738829 5.1724505 8
nan nan nan nan
-13.725775 19.486385 6.3866191 9
-2.6356356 3.7626772 -1.2309434 22
-2.8879483 4.1274805 -1.162997 21
-2.8919351 4.1393309 -0.98152149 23
-2.9517 4.2295895 -0.81690085 17
-3.2421143 4.6509209 -0.69611776 6
-2.9775984 4.2778263 -0.45599884 16
-6.1693473 8.8732214 -0.56637979 14
nan nan nan nan
-15.15239 21.647902 0.46123222 8
-23.478149 33.580147 2.1473446 37
-14.915865 21.357555 2.2791226 7
-15.500414 22.227589 3.3272772 9
-14.873271 21.352085 4.1214228 9
-14.41319 20.71471 4.9053183 8
-12.388714 17.831661 5.0128093 8
-13.518908 19.48016 6.3534899 8
-2.5884535 3.7507777 -1.2211083 26
-2.8413644 4.121871 -1.1557986 21
-2.866308 4.1642699 -0.98266637 21
-3.0138721 4.3835688 -0.84255612 30
-2.9949226 4.3608956 -0.64956367 14
-2.894702 4.2212811 -0.44780618 18
-5.8803864 8.5848742 -0.54534072 13
-31.83853 46.533833 -0.9841761 63
-15.199565 22.041239 0.46734056 8
-16.821407 24.42046 1.554064 14
-14.795761 21.503843 2.2836547 7
-14.812041 21.559719 3.211745 9
nan nan nan nan
-15.361593 22.409863 5.2812119 27
-14.349739 20.965111 5.8653741 11
nan nan nan nan
-2.5806708 3.7959149 -1.2299082 21
-2.8639765 4.2173772 -1.176944 21
-2.8404694 4.1890554 -0.9838112 17
-2.8569093 4.2180529 -0.80688912 15
-2.9343691 4.3373065 -0.64298266 26
-2.9198103 4.3222852 -0.45634744 16
-5.8694639 8.6985636 -0.54994625 16
nan nan nan nan
-14.796978 21.781256 0.45962656 8
-16.410515 24.183624 1.5316643 14
-14.441834 21.306446 2.25193 7
nan nan nan nan
nan nan nan nan
-15.027881 22.254608 5.2197709 9
-12.435955 18.444006 5.135633 9
-14.671172 21.783695 7.0372901 11
-2.5218589 3.7656846 -1.2143791 29
-2.8572173 4.2712831 -1.1863919 23
-2.9976227 4.4879527 -1.0490679 27
-2.8164308 4.2214608 -0.80376035 17
-2.9315407 4.398983 -0.64907616 16
-2.8696971 4.3127074 -0.45320985 15
-5.820755 8.7576265 -0.55109769 3
-30.836201 46.447384 -0.9731462 63
-14.666799 21.917267 0.46032467 8
-14.904953 22.298403 1.4056393 12
nan nan nan nan
-14.580047 21.870134 3.227344 9
-13.309348 19.986748 3.8032351 8
-13.653278 20.526518 4.7919774 8
-14.304678 21.538406 5.9693017 11
-12.555859 18.926723 6.0858717 8
-2.4997628 3.789649 -1.2164496 29
-2.7458432 4.1674533 -1.1521994 40
-2.8237877 4.2922711 -0.9986943 19
-2.9550374 4.496902 -0.85225511 27
-2.9356134 4.4724479 -0.65687585 16
-2.8362443 4.3276362 -0.45268691 21
-7.7897887 11.899503 -0.74536878 26
nan nan nan nan
-21.444393 32.534473 0.68015516 14
-15.44743 23.462875 1.4722105 13
nan nan nan nan
-14.161164 21.566504 3.167872 9
-13.473927 20.543324 3.8911512 8
-12.327277 18.816532 4.3725791 7
-14.100614 21.556213 5.9468064 11
-12.400164 18.978346 6.0744834 8
-2.4648254 3.7940478 -1.2123084 34
-2.7994237 4.3140297 -1.1872917 17
-2.8684809 4.4272146 -1.0254076 19
-2.8538091 4.4096279 -0.8319186 18
-2.8159516 4.3561301 -0.63688928 18
-2.8437788 4.4059205 -0.45878783 27
-7.6718936 11.89988 -0.74201924 8
nan nan nan nan
nan nan nan nan
-13.422965 20.701174 1.2930123 21
-13.54622 20.915243 2.1801138 7
-14.070623 21.758188 3.1815214 9
-14.618505 22.631386 4.26722 10
-14.311592 22.181717 5.1312361 8
nan nan nan nan
-14.324658 22.261618 7.0931954 11
-2.4372365 3.809536 -1.2117908 39
-2.8049157 4.3892989 -1.2025884 29
-2.8406713 4.4520979 -1.0265524 19
-2.792166 4.381134 -0.8228454 21
-2.88994 4.5397921 -0.66077566 16
-2.8383107 4.4638453 -0.46279699 24
-4.6779962 7.3684959 -0.45741633 9
-29.308432 46.218327 -0.95527494 63
-23.652754 36.999004 0.76650971 19
-13.383455 20.959347 1.3032701 11
-13.325948 20.893396 2.1680863 7
nan nan nan nan
-15.836298 24.896339 4.6733236 11
-14.844936 23.364817 5.3808141 18
-14.833729 23.374205 6.3913097 13
-13.993102 22.083673 7.0051966 11
-2.3992548 3.8084784 -1.2060968 34
-2.8219459 4.4846454 -1.2232839 24
-2.761199 4.3932071 -1.0086164 31
-2.804292 4.4669595 -0.83536011 23
-2.9477904 4.7028255 -0.68149346 19
-2.8461974 4.5460343 -0.46924651 11
-4.5694876 7.3070297 -0.45165932 9
nan nan nan nan
nan nan nan nan
-13.859382 22.033905 1.3641891 12
-13.675668 21.775547 2.2496638 7
nan nan nan nan
-14.357519 22.914488 4.2828636 10
-14.587746 23.31809 5.346468 9
-12.772128 20.439671 5.5643897 10
-13.834287 22.165295 7.0010552 11
-2.3793893 3.8345695 -1.2092026 35
-2.7718511 4.4722772 -1.2147357 65
-2.7397594 4.4274025 -1.012051 19
-2.7719996 4.4847479 -0.8350473 23
-2.8270714 4.5792065 -0.66077566 16
-2.8227544 4.5793619 -0.47064099 23
-2.9330096 4.7638116 -0.29318607 2
nan nan nan nan
-13.070726 21.080929 0.43295929 7
-13.116335 21.179239 1.3055729 11
-13.803838 22.315458 2.2956822 7
-13.768004 22.292301 3.2171071 9
-13.441133 21.788557 4.0547819 9
-14.181514 23.015701 5.25488 9
-11.541636 18.760656 5.0852437 27
-11.304436 18.396671 5.7856412 7
-2.3525591 3.8510888 -1.2092026 34
-2.7476637 4.5031648 -1.217885 20
-2.8517811 4.6811495 -1.0654775 18
-2.8145549 4.6254921 -0.85757387 24
-2.8795755 4.7379327 -0.68076223 23
-2.8258581 4.6568699 -0.4765676 25
-3.1450303 5.1889729 -0.31799328 2
-10.03805 16.58132 -0.33833236 17
-19.118153 31.320538 0.64050329 13
-14.527716 23.828245 1.4625808 13
-13.787617 22.641003 2.3192141 7
-13.65845 22.464205 3.2280755 9
-14.10078 23.219088 4.3025742 10
-11.619596 19.156038 4.3550248 7
-12.05545 19.905912 5.3727312 10
-11.218722 18.546217 5.8078995 7
-2.3534935 3.9137733 -1.2236965 29
-2.7131515 4.5172253 -1.2165354 18
-2.8059075 4.6790547 -1.0605165 22
-2.7872691 4.653502 -0.85913813 22
-2.8087204 4.6948905 -0.67174387 19
-2.8647959 4.7962193 -0.48876941 15
-3.1731944 5.318861 -0.32458761 2
-7.0917082 11.901175 -0.24182054 4
-18.670372 31.072731 0.63275445 13
-14.420608 24.028423 1.4686518 13
-13.65379 22.777727 2.3233976 7
-13.636881 22.785549 3.2604928 9
-13.936319 23.313566 4.3019485 10
-11.316504 18.953495 4.2909131 6
-11.607856 19.472359 5.2337117 9
-13.204969 22.177937 6.916163 10
-2.3143051 3.9101584 -1.2174848 35
-2.690474 4.5511537 -1.2205845 20
-2.8110931 4.7627773 -1.0750179 20
-2.8279476 4.7970695 -0.88197768 17
-2.8040798 4.76228 -0.67856854 19
-2.8595164 4.864193 -0.49365011 24
-4.2564845 7.2492046 -0.44056413 3
-26.939236 45.935188 -0.92951518 63
-18.621979 31.488029 0.63854867 13
-14.961539 25.328825 1.5417128 14
-20.492249 34.73344 3.5282388 14
-12.07501 20.499308 2.9212084 8
-12.91276 21.947792 4.0331941 9
-11.09438 18.879705 4.256567 13
-12.151073 20.711004 5.543694 10
-12.137569 20.71283 6.4326892 9
-2.280144 3.9145346 -1.2138613 21
-2.6106174 4.4872894 -1.1985393 17
-2.9246993 5.0352364 -1.131879 7
-2.8568387 4.9243407 -0.9016884 24
-2.8245075 4.8744888 -0.69173044 10
-2.8773663 4.9737177 -0.50271428 18
-4.2257562 7.3133297 -0.44265756 6
-6.9368448 12.019814 -0.24223942 4
-19.174215 32.944592 0.6653555 13
-14.75122 25.375677 1.5382587 14
-12.54812 21.611845 2.186389 7
-13.088438 22.578726 3.2044327 9
-13.960821 24.112755 4.4130168 10
-11.246346 19.447863 4.3668551 7
-12.03152 20.839209 5.5553918 10
-12.465546 21.617094 6.6863317 10
-2.2585239 3.9404142 -1.2169672 27
-2.5453405 4.4462132 -1.1827928 14
-2.8300495 4.9515581 -1.1086004 11
-2.8361013 4.9681826 -0.9060685 27
-2.8887317 5.0665374 -0.71610433 9
-3.0377316 5.3365231 -0.53722799 13
-3.0512388 5.3667855 -0.3235409 2
-6.7234139 11.840151 -0.23766688 9
-20.560661 35.900932 0.72214568 16
-13.410467 23.444445 1.4154785 12
-12.337634 21.595123 2.1759303 7
-11.254552 19.731321 2.7891021 7
nan nan nan nan
-10.648131 18.713678 4.185205 6
nan nan nan nan
-11.176998 19.69907 6.0687895 8
-2.2233682 3.9426239 -1.2128261 37
-2.5362341 4.5029273 -1.1931405 21
-3.0186601 5.368206 -1.1971357 25
-2.8738966 5.1170359 -0.92953372 18
-3.0077057 5.3618588 -0.75485879 19
-3.0412633 5.4283414 -0.54437476 22
-4.0491381 7.239141 -0.43470252 9
-6.5547662 11.733173 -0.23459524 18
-13.364293 23.717796 0.47519413 9
-13.17398 23.408693 1.4077326 12
-12.264672 21.819675 2.1898751 7
-11.083496 19.750551 2.7808149 7
-11.441986 20.414408 3.7065585 8
-11.745699 20.982033 4.674057 7
-18.771015 33.572998 8.880168 32
nan nan nan nan
-2.1976633 3.9614284 -1.2138613 39
-2.4867909 4.4881368 -1.1845924 23
-2.960186 5.3491201 -1.1883584 17
-2.9737346 5.3802505 -0.97364825 6
-2.9682813 5.37925 -0.75437129 16
-3.1783161 5.7670202 -0.57609946 3
-4.0007319 7.2682843 -0.43480718 21
-6.386982 11.622676 -0.23148872 17
-12.850512 23.173399 0.46252367 17
-12.06988 21.792578 1.3055729 11
-11.903795 21.528151 2.1522238 6
-10.78374 19.526651 2.7388918 15
-11.363824 20.60252 3.7265823 8
-11.163307 20.272436 4.4985127 7
-12.83577 23.338518 6.1492624 12
-11.682811 21.268526 6.5020523 9
-2.173425 3.9813828 -1.2154143 29
-2.4291308 4.4553423 -1.1715451 23
-2.9302814 5.38345 -1.1914115 17
-3.1115875 5.7236829 -1.0318419 6
-3.9451056 7.2659798 -1.0151716 21
-4.0067363 7.3917909 -0.73559445 9
-3.9613025 7.3171139 -0.43606326 15
-6.2287788 11.519881 -0.22859162 30
-12.807154 23.480236 0.46685189 17
-12.012992 22.051701 1.3160402 11
-11.277067 20.72662 2.0643709 12
-10.804442 19.891027 2.7793527 7
-10.566934 19.478081 3.509764 14
-10.832392 19.992365 4.4198999 7
-10.88031 20.114315 5.2796016 9
-11.57261 21.420956 6.5237932 9
-2.1419234 3.9896498 -1.2133437 29
-2.4016533 4.4790606 -1.1733447 29
-2.8574157 5.3380036 -1.1769099 20
-3.5307026 6.6040945 -1.1860863 19
-3.9905884 7.4737086 -1.0402768 23
-3.8631876 7.2472796 -0.71851194 14
-3.9467275 7.4133472 -0.44014546 12
-6.110651 11.492461 -0.22719543 12
-12.382036 23.082708 0.45721817 17
-11.85876 22.135023 1.3160402 11
-11.173451 20.882141 2.0720406 6
-10.723302 20.074528 2.7944641 7
-10.440922 19.570549 3.5132055 7
-11.365572 21.330603 4.6980996 7
-10.703928 20.122684 5.2620554 9
-11.904962 22.408838 6.7991762 10
-2.1293504 4.0335488 -1.2221435 30
-2.3721426 4.499166 -1.1742446 31
-2.7853341 5.2918038 -1.1624085 22
-3.4551015 6.572629 -1.1760744 19
-3.8202064 7.2764134 -1.0090783 23
-3.8069482 7.263485 -0.71746606 11
-3.7420454 7.1487536 -0.42287454 21
-5.9505954 11.382439 -0.22419362 12
-12.451957 23.607235 0.46587455 17
-12.094896 22.959446 1.3600023 11
-12.051558 22.906254 2.2644804 15
-10.560741 20.106724 2.7886147 7
-10.645397 20.293705 3.6295929 7
-11.222756 21.421602 4.7007709 15
-10.875672 20.794403 5.4177217 10
-10.343987 19.803053 5.9864845 7
-2.0868998 4.0208817 -1.2138613 14
-2.3209448 4.4775543 -1.1643467 23
-2.7392974 5.2936854 -1.1585923 25
-3.3864555 6.5527196 -1.1682527 14
-3.7829676 7.3293681 -1.0127343 26
-3.712347 7.2048707 -0.70909911 11
-3.6756003 7.1427355 -0.4209905 21
-5.8737335 11.429036 -0.22429833 8
-11.975692 23.093573 0.45407671 17
-10.912931 21.071165 1.2436072 10
-11.069372 21.400658 2.1079488 6
-10.312651 19.971825 2.7598534 15
-10.388476 20.14456 3.5898588 7
-11.781283 22.874779 5.0014858 8
-10.515489 20.452148 5.3092952 9
-10.692594 20.823412 6.2722211 8
-2.0254161 3.9699616 -1.1941911 3
-2.2878599 4.4901757 -1.163447 19
-2.6978257 5.3039289 -1.1566842 22
-3.3218417 6.5392151 -1.1616825 17
-3.7433856 7.3786111 -1.015903 13
-3.692035 7.2868466 -0.7146771 5
-3.6157255 7.1486187 -0.41983908 21
-3.9842484 7.8874731 -0.15424436 9
-12.044847 23.629137 0.46294254 17
-10.682199 20.983088 1.2339773 10
nan nan nan nan
-10.162189 20.022093 2.7569287 15
-10.253849 20.228922 3.5920486 22
-10.480993 20.703909 4.510725 7
-11.671165 23.084959 5.9720006 11
-10.073445 19.959345 5.9906259 7
-1.9777353 3.9442856 -1.1822854 4
-2.2651825 4.5234632 -1.167946 23
-2.6203878 5.2396421 -1.1387482 19
-3.2604835 6.5280981 -1.155738 14
-3.6218083 7.2642193 -0.9966476 23
-3.53983 7.1091237 -0.69480556 11
-3.5776539 7.1945248 -0.42109516 18
-3.9673231 7.9921136 -0.15574528 12
-12.012753 23.968008 0.46796882 8
-10.548063 21.073175 1.2350241 10
-10.682218 21.378462 2.0908663 6
-10.197621 20.435387 2.8042138 7
-10.127371 20.321234 3.5961158 15
-10.323955 20.751966 4.5053821 7
-10.897554 21.933764 5.6543703 10
-9.7269793 19.60347 5.8638043 7
-1.9388838 3.9333975 -1.1750386 4
-2.2377822 4.5457706 -1.1697456 25
-2.5638294 5.2172823 -1.1299709 19
-3.1904614 6.5010481 -1.1469777 14
-3.5923719 7.3297019 -1.0022535 2
-3.4878573 7.1258941 -0.69410831 22
-3.488764 7.1403661 -0.41648957 17
-4.0224457 8.2435789 -0.16010839 6
-11.370692 23.087948 0.44922495 8
-10.291383 20.924065 1.2220447 9
-10.490774 21.357689 2.0818021 6
-10.082674 20.563118 2.8120134 7
-12.656619 25.846779 4.558188 11
-10.225585 20.909941 4.5244632 7
-10.069839 20.618835 5.2975979 9
-9.915822 20.339441 6.0630951 8
-1.9063241 3.9364057 -1.1719327 4
-2.2068408 4.5630364 -1.1701955 25
-2.5367954 5.2522912 -1.1337872 21
-3.0946448 6.4158616 -1.1282055 11
-3.4618859 7.1900544 -0.97982955 23
-3.4466584 7.1680264 -0.69585145 8
-3.4158728 7.1135359 -0.41355878 17
-5.3261561 11.111561 -0.21508345 24
-11.113076 22.957821 0.4452109 16
-11.059713 22.878115 1.3317409 11
-10.421942 21.597284 2.0980129 6
-9.926959 20.599083 2.8076262 7
-11.263964 23.404779 4.113914 9
-10.397311 21.642662 4.6671882 7
-11.803735 24.603214 6.2999797 13
-12.111039 25.277674 7.5104113 12
-1.8628843 3.9144018 -1.16158 4
-2.1648555 4.5550714 -1.1643467 29
-2.4765041 5.2202077 -1.1231018 19
-3.0548527 6.4480209 -1.1300827 14
-3.4196568 7.2278075 -0.98177958 23
-3.3676035 7.1306596 -0.68992484 8
-3.375499 7.1570802 -0.41471016 20
-5.2197247 11.082432 -0.21382689 23
-11.049562 23.238916 0.44915515 8
-10.850037 22.850128 1.3256699 11
-10.724573 22.616453 2.1898751 7
-9.7506351 20.599703 2.7983642 23
-10.610661 22.447023 3.9324501 8
-10.236344 21.684528 4.6610823 7
-9.8549099 20.914312 5.3376389 9
-10.784358 22.917919 6.7867537 10
-1.8248758 3.9045608 -1.1548507 6
-2.1247604 4.5524154 -1.1598477 25
-2.4225914 5.1999969 -1.1150879 21
-3.0080991 6.4656067 -1.129457 14
-3.3431845 7.1956968 -0.97422361 21
-3.2951078 7.1051946 -0.68521845 22
-3.3044677 7.1351628 -0.41209337 17
-5.0675197 10.957067 -0.21072036 7
-11.750031 25.163626 0.48475805 9
-10.815171 23.193216 1.3411614 11
-10.250175 22.011656 2.1243341 6
-10.61067 22.827427 3.0908506 9
-11.36025 24.473564 4.2734771 10
-10.360482 22.350382 4.7885427 8
-9.7659435 21.106401 5.3691325 10
-9.5731134 20.718109 6.1153765 8
-1.7838768 3.8873558 -1.1460507 4
-2.0986116 4.5795379 -1.162997 34
-2.3723443 5.1864333 -1.1086004 19
-2.9366205 6.4289536 -1.1194451 11
-3.2623856 7.1520367 -0.96520531 28
-3.2359312 7.1038885 -0.6829524 22
-3.216548 7.0744238 -0.40727845 17
-3.3077018 7.285027 -0.13965416 6
-11.599083 25.299568 0.48580518 9
-10.847552 23.69309 1.3656546 12
-10.334029 22.602716 2.1743615 7
-11.024653 24.157871 3.2604928 9
-9.7670279 21.431787 3.7303367 8
-10.094412 22.180935 4.7370248 7
-10.88951 23.961309 6.0763783 12
-9.2518692 20.39563 6.0009785 7
-1.7503469 3.8856239 -1.1419097 4
-2.0673892 4.5958552 -1.163447 29
-2.3587093 5.250813 -1.118904 16
-2.8903663 6.4433866 -1.1185066 17
-3.197777 7.1420245 -0.96081799 21
-3.1651168 7.0790148 -0.67842031 16
-3.1764653 7.1143899 -0.40832517 8
-3.2103651 7.2038298 -0.13766459 5
nan nan nan nan
-10.695855 23.788237 1.3669107 12
-11.459183 25.5336 2.4485533 8
-10.868079 24.250471 3.2629302 9
-10.400405 23.239521 4.032568 9
-9.8872662 22.13435 4.7122192 15
-10.136089 22.723326 5.7443504 11
-9.0357933 20.285194 5.9502501 7
-1.7160432 3.8797808 -1.1367333 4
-2.0297594 4.5955601 -1.1598477 23
-2.3433769 5.3156562 -1.1292077 23
-2.7848277 6.3260026 -1.0947285 18
-3.1690605 7.2090569 -0.96691149 23
-3.0851955 7.0316091 -0.67179644 27
-3.073015 7.0138259 -0.40131214 20
-3.1700723 7.245667 -0.13804853 8
nan nan nan nan
-10.589188 23.997545 1.3746563 12
-11.272262 25.581837 2.4457645 8
-10.620206 24.147671 3.2390437 9
-9.5714903 21.794109 3.770071 16
-9.7458458 22.22271 4.7167988 15
nan nan nan nan
-8.9403782 20.453989 5.9813085 7
-1.6819937 3.8757167 -1.1320745 4
-2.0061505 4.6292868 -1.1647967 19
-2.2875042 5.2886405 -1.1200489 21
-2.7351131 6.3325958 -1.0925384 24
-3.0620515 7.0997648 -0.94936228 28
-3.0573037 7.1023865 -0.67650288 22
-3.0279214 7.0442815 -0.40183553 25
-3.0996964 7.2216811 -0.13717592 11
-11.07434 25.542343 0.48594481 9
-10.434092 24.100212 1.3763311 12
-10.222915 23.646393 2.2538474 7
-9.1804342 21.275818 2.8451619 8
-10.229696 23.741665 4.0945163 19
-9.4375954 21.934937 4.6416197 22
-9.6525202 22.477644 5.6476216 21
-8.6846952 20.25313 5.9046979 22
-1.6465716 3.8678129 -1.1263806 4
-1.977595 4.6521468 -1.1670462 4
-2.2696965 5.3496642 -1.1295893 30
-2.7147248 6.4079227 -1.1022373 23
-3.0611358 7.2361474 -0.96471781 21
-3.0277944 7.1712799 -0.68103498 13
-2.9670308 7.0376434 -0.40026543 20
-2.9987683 7.1233487 -0.13490711 14
nan nan nan nan
-11.024438 25.959345 1.4780722 13
-9.5768719 22.583603 2.1461229 6
-9.1222029 21.55328 2.8736794 8
-10.056778 23.796127 4.0917006 9
-9.5849886 22.712946 4.7919774 16
-9.544529 22.661222 5.6768656 11
-8.6704092 20.615997 5.9926963 7
-1.600922 3.834645 -1.1134396 4
-1.8985789 4.5543199 -1.1391522 4
-2.2277687 5.3545036 -1.1272997 26
-2.6593127 6.4011793 -1.0978571 20
-2.9968522 7.2243376 -0.96033055 36
-2.9448836 7.1130862 -0.67353958 19
-2.9452956 7.1246328 -0.40403363 11
-2.971858 7.1995611 -0.13595425 11
nan nan nan nan
-10.153402 24.379986 1.3840768 12
-9.4335108 22.684866 2.1494348 6
-8.9159622 21.482597 2.8558865 8
-10.295005 24.842066 4.2590852 10
-9.4809885 22.911737 4.8198357 8
-9.337739 22.610226 5.6476216 10
nan nan nan nan
-1.56021 3.8117583 -1.1036046 4
-1.8637886 4.5602479 -1.1373526 4
-2.1881084 5.3644724 -1.1261548 23
-2.5594218 6.2842083 -1.0747049 18
-2.9269009 7.1972733 -0.95399332 21
-2.8779202 7.091011 -0.66953039 16
-2.9517438 7.2838497 -0.41188401 8
-2.8945208 7.1534004 -0.13469768 14
-18.322039 44.807346 0.84497577 24
-9.9912548 24.470613 1.3852282 12
-9.4336166 23.139458 2.1862147 7
-9.0949421 22.353355 2.9631314 8
-9.6216888 23.683498 4.0488372 9
-9.8551073 24.294521 5.096127 8
-9.1196995 22.526745 5.6107297 10
-9.1491547 22.633566 6.5413933 9
-1.5306817 3.8153865 -1.1015339 4
-1.8195876 4.5423951 -1.1297042 2
-2.1578918 5.3978477 -1.1299709 28
-2.4876595 6.2322073 -1.0628159 18
-2.8626192 7.1824951 -0.94936228 36
-2.8482273 7.1609159 -0.67423683 19
-2.828577 7.1223679 -0.40162617 8
-2.8599892 7.2124701 -0.13543068 20
nan nan nan nan
-9.6636152 24.14851 1.3631425 11
-17.843603 44.657398 4.2073565 28
-8.6151466 21.60499 2.8558865 8
-9.9500713 24.990728 4.2603369 10
-8.9585381 22.534702 4.7137456 7
-9.2237968 23.24921 5.7744942 22
nan nan nan nan
-1.4927013 3.7972119 -1.0932516 4
-1.7757294 4.5241489 -1.122056 4
-2.1344757 5.4493408 -1.1376033 28
-2.4714303 6.3193316 -1.0747049 21
-2.8470645 7.2910619 -0.96106172 28
-2.789484 7.1583481 -0.67214507 24
-2.8200643 7.2480378 -0.40759248 14
-2.805222 7.221077 -0.13522124 17
nan nan nan nan
-8.9406805 22.802221 1.2835917 10
-9.4037809 24.020306 2.2568107 7
-9.0131235 23.069836 3.0411277 8
-9.1888647 23.55604 4.0047226 9
-8.7112207 22.366192 4.6656618 7
-9.0845594 23.372978 5.789341 11
nan nan nan nan
-1.4592134 3.7895122 -1.0880753 4
-1.7308124 4.5018764 -1.1135077 6
-2.0907567 5.4494448 -1.1345503 33
-2.4300823 6.3438082 -1.0759563 27
-2.8350997 7.4127355 -0.97446734 23
-2.7458355 7.1944013 -0.67371386 19
-2.7843301 7.3067422 -0.40979058 17
-2.7710962 7.2834721 -0.13602406 17
-17.191563 44.69223 0.83583063 23
-8.8357067 23.005779 1.2915468 10
-8.7008486 22.690136 2.1260772 6
-8.8305511 23.076582 3.0338156 8
-17.01128 44.524834 7.5492153 44
-9.3707447 24.565287 5.1106281 8
-8.9378023 23.479538 5.800138 11
-9.3025064 24.476151 7.016067 11
-1.4231797 3.7743006 -1.0808283 4
-1.6945372 4.5010829 -1.1103585 6
-2.0243537 5.388557 -1.118904 30
-2.3836539 6.3550706 -1.0750178 27
-2.7561259 7.3598471 -0.96496153 23
-2.7192545 7.2768507 -0.67964047 11
-2.7451198 7.3578138 -0.41157001 11
-2.7278588 7.3232541 -0.13640802 28
-16.852346 44.740051 0.83450425 23
-8.6453524 22.988388 1.2871506 21
-8.5345268 22.729811 2.1241598 6
-8.6769028 23.15811 3.0364966 8
-8.9898825 24.031721 4.0638547 9
-9.2196379 24.685278 5.122077 8
nan nan nan nan
nan nan nan nan
-1.3901057 3.7660208 -1.075652 4
-1.650943 4.4798899 -1.1022602 6
-1.9880403 5.4062433 -1.1196673 28
-2.3324211 6.353013 -1.071889 24
-2.6978488 7.3602695 -0.96252412 23
-2.686868 7.3461771 -0.68434685 19
-2.7389038 7.5006199 -0.41847834 11
-2.7150218 7.4473286 -0.13836268 17
-16.449657 44.612701 0.82996666 23
-9.264327 25.166138 1.40543 12
-9.3110723 25.334023 2.3613977 8
-9.0064421 24.558136 3.211745 9
-8.4007874 22.943834 3.8698761 8
-8.1141834 22.197065 4.5939174 7
nan nan nan nan
-8.8514557 24.305946 6.9311743 10
-1.3545922 3.7501972 -1.068405 4
-1.5971508 4.4289784 -1.0869635 3
-1.9568963 5.4384642 -1.1234834 26
-2.262634 6.2984977 -1.0600001 24
-2.7127433 7.5639114 -0.98665434 21
-2.6455328 7.3886814 -0.6866129 16
-2.6454837 7.4048281 -0.41209337 25
-2.6864796 7.532022 -0.13958435 20
-16.086222 44.583504 0.8273139 23
-9.0857 25.222681 1.4050112 12
-9.061162 25.195927 2.342572 7
-8.8538389 24.659969 3.2171071 9
-8.1151667 22.652308 3.8110569 8
-8.441678 23.602629 4.872499 8
nan nan nan nan
-8.7805119 24.631306 7.0067492 11
-1.3271022 3.7538662 -1.0668522 8
-1.5598323 4.4195328 -1.0820147 3
-1.9348309 5.4942493 -1.1322607 19
-2.236088 6.3603415 -1.0678217 30
-2.6592219 7.576582 -0.98592305 15
-2.5997901 7.4196796 -0.68783307 24
-2.6457727 7.5678368 -0.42015311 21
-2.6588707 7.6181021 -0.14084093 12
-8.6569357 24.514397 0.45379746 17
-8.1355162 23.076332 1.2823358 10
-9.0680447 25.764452 2.389636 8
-15.574388 44.324596 5.7685642 29
-8.2130566 23.426577 3.9318242 8
-8.2795267 23.655838 4.8717356 8
nan nan nan nan
-8.5528383 24.519043 6.9580913 10
-1.2964677 3.7482071 -1.0627111 5
-1.5233527 4.4116278 -1.0775157 3
-1.8782029 5.4516063 -1.1208121 4
-2.1972399 6.3884907 -1.0700119 27
-2.635308 7.6752405 -0.99640387 18
-2.6053951 7.605402 -0.70334685 11
-2.5974302 7.595119 -0.42067644 18
-2.6327977 7.7117224 -0.14223711 15
-8.4683323 24.510376 0.4526456 33
-8.7805691 25.457317 1.4112916 12
-15.268126 44.341858 4.1029439 26
-8.391737 24.426752 3.1712844 9
-15.179519 44.260098 7.4109268 41
nan nan nan nan
nan nan nan nan
nan nan nan nan
-1.2585144 3.7223945 -1.052876 4
-1.4837941 4.3963046 -1.0712169 3
-1.806892 5.3659735 -1.1005863 2
-2.1563628 6.4149094 -1.071889 24
-2.6555488 7.913641 -1.0249213 23
-2.6167533 7.8161159 -0.72112656 11
-2.6196792 7.8384857 -0.43313241 18
-2.6080072 7.8171725 -0.14384274 9
-8.3110752 24.610586 0.45341352 8
-8.5503111 25.362804 1.4027085 25
-14.926414 44.352951 4.0942283 26
nan nan nan nan
-8.1642418 24.357952 4.068861 9
nan nan nan nan
nan nan nan nan
nan nan nan nan
-1.2203758 3.6944032 -1.0425231 5
-1.4481817 4.3917513 -1.0676178 1
-1.7558893 5.3374295 -1.0921907 4
-2.0911872 6.3678741 -1.0615644 27
-2.6169324 7.9829178 -1.0315022 21
-2.5831795 7.8985786 -0.72705317 9
-2.5983639 7.9591107 -0.43878472 12
-2.5998392 7.9777851 -0.14646059 18
-14.641555 44.37582 0.81565571 22
-8.4024153 25.511034 1.4076281 12
-14.560425 44.285725 4.0785398 26
-14.497925 44.199669 5.7115288 28
-14.421763 44.045334 7.3405318 40
nan nan nan nan
nan nan nan nan
nan nan nan nan
-1.189811 3.6881239 -1.0383821 4
-1.3995681 4.3461061 -1.0541208 3
-1.7101798 5.3233881 -1.086848 2
-2.043061 6.3710318 -1.0596871 30
-2.5175638 7.8648701 -1.0139531 7
-2.621917 8.2106047 -0.75407147 6
-2.5912609 8.1292906 -0.44715846 12
-2.5992546 8.1691475 -0.14963694 15
-14.287219 44.339924 0.81314254 22
nan nan nan nan
-8.4440613 26.300184 2.4166543 8
-14.167222 44.231743 5.7027545 28
-14.057391 43.968071 7.3111224 40
-13.993608 43.847702 8.9466524 39
nan nan nan nan
nan nan nan nan
-1.1605523 3.6852844 -1.0352762 5
-1.3645175 4.3408985 -1.0505215 3
-1.6594633 5.2921119 -1.0780709 4
-2.0032563 6.4002204 -1.0621902 27
-2.4661512 7.8936224 -1.0154155 13
-2.5609791 8.2172947 -0.75302559 6
-2.5730071 8.2711449 -0.45396215 6
-2.6050172 8.3895273 -0.15333684 12
-13.941341 44.324127 0.81104827 21
nan nan nan nan
-7.9784417 25.459215 2.3342052 7
nan nan nan nan
-13.715946 43.955776 7.2929759 40
-13.657941 43.850616 8.9275713 38
nan nan nan nan
nan nan nan nan
-1.1342286 3.6914504 -1.0347586 5
-1.3238941 4.316783 -1.0424232 3
-1.6012267 5.2341051 -1.063951 2
-1.9642946 6.4329429 -1.0653188 30
-2.370472 7.7777262 -0.99835372 18
-2.5783043 8.4808817 -0.7755118 6
-2.5760946 8.489583 -0.46495271 18
-2.6385474 8.7118101 -0.1588867 12
-13.589321 44.28273 0.8085351 21
-13.527963 44.165222 2.4207475 46
-13.498123 44.150337 4.0391455 25
nan nan nan nan
-13.403009 44.031555 7.2898469 40
-13.351493 43.944889 8.9275713 38
nan nan nan nan
nan nan nan nan
-1.0962309 3.6585662 -1.0233705 5
-1.289258 4.3109837 -1.038824 3
-1.5500554 5.1962419 -1.054029 2
-1.9323009 6.4900436 -1.0725149 24
-2.3019791 7.7465143 -0.99226028 18
-2.5137224 8.4753122 -0.77342004 6
-2.599489 8.7869806 -0.4802348 12
-2.6795964 9.0752296 -0.16516958 13
-13.223655 44.188782 0.80511445 21
nan nan nan nan
-13.150863 44.113667 4.0272927 24
-13.088984 44.018314 5.6386514 27
nan nan nan nan
-13.016475 43.942913 8.9084911 38
nan nan nan nan
nan nan nan nan
-1.0636224 3.6420231 -1.0166413 5
-1.2547678 4.3049126 -1.0352248 3
-1.5058755 5.1765103 -1.0479231 2
-1.889732 6.5087376 -1.0734534 21
-2.2180254 7.6594315 -0.97909838 18
-2.5833848 8.9386282 -0.81403458 7
-2.6901786 9.3264446 -0.50870556 13
-2.7073972 9.4108038 -0.17092887 6
-12.900156 44.200985 0.80371821 21
nan nan nan nan
-12.790318 44.024551 4.0109072 24
nan nan nan nan
nan nan nan nan
-12.651687 43.832764 8.8680391 38
nan nan nan nan
nan nan nan nan
-1.0356336 3.6380305 -1.0135354 5
-1.2020032 4.2308736 -1.0154291 3
-1.45739 5.1434526 -1.0391458 4
-1.8313458 6.4761515 -1.0659446 21
-2.1658378 7.6743522 -0.97909838 18
-2.6569779 9.4335318 -0.85743815 8
-2.7071013 9.637269 -0.52461565 23
nan nan nan nan
-12.550795 44.147629 0.8011353 21
-12.502056 44.063889 2.4004412 46
-12.429017 43.893967 3.99121 24
nan nan nan nan
nan nan nan nan
-12.33496 43.853611 8.8550644 38
nan nan nan nan
nan nan nan nan
-1.0040189 3.6228318 -1.0073237 5
-1.1682811 4.2241359 -1.0118299 7
-1.4098095 5.1078343 -1.029987 4
-1.7735825 6.438951 -1.0578099 21
-2.085917 7.593576 -0.96691149 21
-2.6100178 9.5210257 -0.86371344 8
-6.7485294 24.668461 -1.3403239 26
-8.3642673 30.65867 -0.55470729 32
-12.2212 44.127968 0.79925042 21
-12.180573 44.070961 2.3962543 45
-12.08363 43.839455 3.9784853 23
-12.079153 43.912952 5.5920973 27
-12.052583 43.906239 7.2113171 38
-11.992217 43.806107 8.828351 37
nan nan nan nan
nan nan nan nan
-0.97631794 3.6183906 -1.0042179 5
-1.1308898 4.2000008 -1.0041816 5
-1.3593512 5.0625653 -1.0189201 2
-1.7188731 6.4149237 -1.0518655 3
-2.0439236 7.6440353 -0.97154254 18
-2.9171789 10.940508 -0.99061215 10
-6.5448198 24.597237 -1.333939 25
-8.0784092 30.424984 -0.54947156 31
-11.865986 44.038441 0.79610896 21
nan nan nan nan
-11.756543 43.81485 3.9688981 23
-11.742529 43.884987 5.57796 26
-11.708565 43.849991 7.1884775 38
-11.660398 43.761513 8.8031645 37
nan nan nan nan
nan nan nan nan
-0.94171876 3.5896149 -0.99438286 6
-1.0975906 4.1927128 -1.0005825 5
-1.3160408 5.0415382 -1.0128142 2
-1.662096 6.3808885 -1.0443566 3
-1.9770252 7.6062441 -0.96496153 18
-2.7787461 10.721454 -0.9689976 10
-6.3844409 24.686802 -1.3363464 12
-7.7818613 30.15535 -0.54360753 30
-11.45692 43.733322 0.78912807 20
nan nan nan nan
-11.436814 43.8438 3.9641917 23
-11.401888 43.835258 5.5613861 26
nan nan nan nan
-11.275353 43.535866 8.741724 36
nan nan nan nan
nan nan nan nan
-0.91377258 3.5848696 -0.99127698 6
-1.0654131 4.188941 -0.99788296 4
-1.2706801 5.0106397 -1.0048002 4
-1.5986134 6.3176503 -1.0321548 3
-1.9472009 7.7122455 -0.97666097 21
-2.7057028 10.74012 -0.9689976 10
-4.7152734 18.772297 -1.0143756 25
-7.4680858 29.797726 -0.53620774 29
-11.136526 43.754101 0.78808087 20
-11.14971 43.902126 2.3738544 45
-11.446593 45.170227 4.076797 25
-11.075178 43.832954 5.5511494 26
-11.024212 43.727619 7.1424856 37
-10.935719 43.472622 8.7134838 36
nan nan nan nan
nan nan nan nan
-0.88454473 3.5742846 -0.98661828 6
-1.031002 4.1754656 -0.99293399 4
-1.229967 4.992486 -0.9994576 4
-1.5301077 6.2247992 -1.0152597 3
-1.8961506 7.7372198 -0.97812337 26
-2.6013217 10.638752 -0.9581902 10
-4.16609 17.077044 -0.92121762 6
-4.174839 17.164904 -0.30834913 14
-10.80484 43.693008 0.78563756 20
nan nan nan nan
nan nan nan nan
-10.744384 43.77623 5.534575 26
-10.651606 43.496578 7.0927396 37
-10.604463 43.435387 8.6909685 36
nan nan nan nan
nan nan nan nan
-0.85568345 3.5614383 -0.98144192 6
-0.99165636 4.1369052 -0.98213637 4
-1.1841336 4.955122 -0.99029869 4
-1.4779117 6.1988196 -1.0093153 3
-1.8439004 7.7518783 -0.97836721 23
-2.4768732 10.445344 -0.93919033 9
-3.998029 16.899693 -0.91012239 12
-4.0004773 16.949646 -0.30398601 20
-10.474373 43.662361 0.78375268 20
nan nan nan nan
nan nan nan nan
-10.353921 43.494846 5.489727 25
-10.322121 43.46225 7.0752187 36
-10.275538 43.3671 8.6631098 35
nan nan nan nan
nan nan nan nan
-0.82729524 3.5522728 -0.97730076 5
-0.9579019 4.1228476 -0.97718745 6
-1.14331 4.9364915 -0.98495609 4
-1.4163672 6.1300755 -0.99648768 3
-1.7906289 7.7684312 -0.97885466 23
-2.3842647 10.376943 -0.93152058 9
-3.8875434 16.960283 -0.91190183 19
-3.885623 16.992756 -0.30426523 21
-10.145272 43.631195 0.78190273 20
nan nan nan nan
-10.094574 43.620167 3.9171274 22
-10.025476 43.459682 5.4763212 25
-9.9887419 43.404282 7.0542564 36
-9.954936 43.361248 8.6478462 35
nan nan nan nan
nan nan nan nan
-0.7982235 3.5391173 -0.9721244 5
-0.92396057 4.1066198 -0.97178859 4
-1.0972195 4.8926301 -0.97465241 2
-1.3597366 6.0781264 -0.98647583 3
-1.737216 7.7846169 -0.9793421 23
-2.2983515 10.333043 -0.92611688 9
-3.7729371 17.004559 -0.91284388 19
-3.7789967 17.074139 -0.3052426 14
-9.8184586 43.60342 0.78015751 39
-9.8230886 43.730808 2.3489428 44
-9.7423162 43.477661 3.8981276 22
-9.6937008 43.402691 5.4604783 25
-9.662734 43.370766 7.0376744 36
-9.6298485 43.330029 8.6280012 35
nan nan nan nan
nan nan nan nan
-0.76814198 3.520067 -0.96539509 6
-0.89236712 4.0996408 -0.96863931 4
-1.0559623 4.8675542 -0.96816492 4
-1.3084967 6.0469265 -0.97990561 3
-1.7083751 7.9149208 -0.99421012 28
-2.2001793 10.228071 -0.91530961 9
-3.6683772 17.096882 -0.91640264 13
-3.7023902 17.299555 -0.30880287 14
-9.4916754 43.569305 0.77834243 39
-9.4632635 43.5485 2.3355446 43
-9.4166002 43.443363 3.8890634 22
-9.3741083 43.393627 5.4509721 25
-9.3380756 43.33675 7.0214052 35
-9.3019476 43.279118 8.604723 35
nan nan nan nan
nan nan nan nan
-0.74235249 3.5196729 -0.96384215 5
-0.85570097 4.0676312 -0.95964128 4
-1.0130903 4.8325348 -0.95976931 4
-1.2500776 5.9785724 -0.96739089 3
-1.6522664 7.9227681 -0.99372268 21
-2.1242657 10.221723 -0.91339219 9
-3.5700076 17.22377 -0.92184561 13
-3.6126986 17.475771 -0.31149057 14
-9.1547451 43.479916 0.77558494 19
-9.1352196 43.500134 2.3294737 43
-9.0951271 43.422237 3.8813937 21
-9.0514679 43.364742 5.4392734 24
-9.0143652 43.300323 7.0051365 35
-8.9788208 43.243042 8.5848789 34
nan nan nan nan
nan nan nan nan
-0.71352381 3.5039463 -0.95814812 6
-0.82185483 4.0467691 -0.95334268 4
-0.97076136 4.7971559 -0.9513737 4
-1.1946312 5.9193816 -0.95644045 3
-1.5792886 7.8465366 -0.98275441 2
-2.047755 10.21091 -0.91112614 9
-3.4485011 17.242399 -0.92153168 13
-5.6826005 28.490387 -0.50709713 25
-8.8386269 43.482018 0.77450287 19
-8.8019238 43.418003 2.321728 43
-8.7633142 43.344078 3.8688436 21
-8.7246103 43.308163 5.4244051 24
-8.6900835 43.253746 6.9876156 35
-8.6562872 43.202644 8.5646534 34
nan nan nan nan
nan nan nan nan
-0.68532175 3.4898858 -0.95297176 6
-0.7894634 4.0313716 -0.9483937 4
-0.92897868 4.7614241 -0.94297814 4
-1.1415849 5.8674674 -0.94674152 3
-1.5078386 7.7716255 -0.97202998 2
-1.9596645 10.128761 -0.90258491 9
-3.2463911 16.842443 -0.89892244 6
-5.445817 28.332989 -0.50360662 25
-8.5129051 43.430817 0.77251333 19
-8.4809685 43.388222 2.3169129 43
-8.4463968 43.331837 3.8623939 21
-8.4019928 43.26474 5.4114871 24
-8.3721094 43.231911 6.9744754 35
-8.33881 43.181068 8.548625 34
-8.3125744 43.166595 10.148892 49
nan nan nan nan
-0.65591323 3.4680109 -0.94572484 5
-0.75913107 4.0252948 -0.94569427 4
-0.89073962 4.7367668 -0.93687224 4
-1.0968843 5.8498626 -0.94267422 3
-1.4294901 7.6531739 -0.95594323 2
-1.8586267 9.9796238 -0.88811702 8
-3.134598 16.879858 -0.89975989 6
-5.2639008 28.456835 -0.50514245 25
-8.2011385 43.403255 0.77101243 38
-8.1662292 43.34288 2.31147 43
-8.1227493 43.278133 3.8524582 21
-8.0926971 43.242882 5.4017372 24
-8.0588226 43.186913 6.9582062 35
-8.0177717 43.133999 8.528017 34
-7.9833121 43.07412 10.1138 48
nan nan nan nan
-0.62814063 3.4495873 -0.93951315 5
-0.72614634 3.9996903 -0.93849593 6
-0.85555512 4.7312775 -0.93458253 4
-1.045506 5.7990561 -0.9332881 3
-1.3576968 7.5533152 -0.94229382 2
-1.7773191 9.9276361 -0.88236475 8
-2.9896476 16.749935 -0.89170009 12
-5.01261 28.169128 -0.49941805 25
-7.8771882 43.345337 0.76898789 38
-7.8520455 43.335949 2.3081205 42
-7.8159332 43.265759 3.8465316 21
-7.7730312 43.200638 5.3895502 24
-7.7344532 43.115742 6.9378695 34
-7.7053375 43.083214 8.50741 33
-7.6673865 43.044384 10.094005 48
nan nan nan nan
-0.59971619 3.4291501 -0.93278384 6
-0.69151133 3.9662666 -0.92949778 6
-0.81175643 4.6752372 -0.92237073 3
-0.99657279 5.7575531 -0.92546642 3
-1.2907549 7.4804497 -0.93205678 2
-1.7042609 9.9182014 -0.88044727 8
-2.8463442 16.616848 -0.88353568 11
-4.8542142 28.428148 -0.50339723 25
-7.5602937 43.318512 0.76755685 19
-7.5369873 43.318874 2.3043525 42
-7.4973474 43.22504 3.8381646 20
-7.4529986 43.14822 5.3763881 24
-7.4228687 43.108337 6.9281702 34
-7.3880973 43.041145 8.4887114 33
-7.3522463 43.012341 10.074208 48
nan nan nan nan
-0.57608271 3.4351585 -0.93330151 6
-0.66252142 3.963309 -0.92769819 4
-0.77587396 4.6614242 -0.91855454 3
-0.94988698 5.7253952 -0.91920906 3
-1.2223063 7.3913541 -0.9198699 2
-1.6294745 9.8964376 -0.87748402 8
-2.7111835 16.520031 -0.87735999 17
-4.6330328 28.3232 -0.50095385 25
-7.242177 43.277542 0.76591629 19
-7.2094064 43.220711 2.2963972 42
-7.1770964 43.166264 3.8284032 20
-7.1376448 43.114986 5.3659077 23
-7.1124082 43.102585 6.9190974 34
-7.075645 43.019997 8.4745913 33
-7.0366683 42.970314 10.052613 47
nan nan nan nan
-0.54932928 3.4219298 -0.92864275 5
-0.63113981 3.9447472 -0.92229944 6
-0.73652053 4.624073 -0.91015899 3
-0.89688838 5.6499467 -0.9060685 3
-1.1576504 7.3173571 -0.90963286 2
-1.5569351 9.8859224 -0.8755666 8
-2.5406618 16.187344 -0.85872847 21
-2.9379408 18.782722 -0.33184007 16
-6.9272156 43.248066 0.76452017 18
-6.8999362 43.222652 2.2938852 42
-6.8655467 43.152351 3.8228252 20
-6.8240495 43.085335 5.3561578 23
-6.7956142 43.051674 6.903141 34
-6.7635427 42.994648 8.4600897 66
-6.7226176 42.929829 10.031918 47
nan nan nan nan
-0.52220464 3.4046769 -0.92294878 7
-0.59975725 3.9240143 -0.91645068 4
-0.699494 4.5980477 -0.90405309 3
-0.85209054 5.6209159 -0.90043688 3
-1.093488 7.2388968 -0.89890838 2
-1.4867002 9.888669 -0.87486929 12
-2.3977125 16.005188 -0.84815663 5
-2.8170829 18.871996 -0.33306172 16
-6.613039 43.216301 0.76312393 18
-6.5805755 43.155251 2.2878141 42
-6.5506711 43.110592 3.8149812 20
-6.5085459 43.035755 5.3442149 23
-6.4769344 42.978916 6.8840556 33
-6.4468918 42.932095 8.4387188 32
-6.4121103 42.904404 10.015272 47
nan nan nan nan
-0.49506989 3.3853011 -0.91673708 6
-0.57066387 3.9165351 -0.91375124 4
-0.6645593 4.5833893 -0.9002369 3
-0.80379069 5.5641651 -0.89042509 2
-1.0310471 7.1638308 -0.88867134 2
-1.4283565 9.9737549 -0.88149315 13
-2.169117 15.202963 -0.80482239 4
-2.7055154 19.033749 -0.33557487 8
-6.2947178 43.148628 0.76113439 18
-6.2693672 43.132942 2.2842555 42
-6.2395487 43.086258 3.8088803 20
-6.1994677 43.021198 5.3369031 23
-6.1674843 42.958557 6.8737311 33
-6.1389718 42.919693 8.4276524 32
-6.0959506 42.832367 9.9882774 47
nan nan nan nan
-0.46956068 3.3752809 -0.91311359 6
-0.53795725 3.8818178 -0.90475321 4
-0.62959766 4.5665231 -0.89603907 5
-0.75982183 5.5324574 -0.8844806 2
-0.970788 7.0961165 -0.87940925 2
-1.3615149 9.9911423 -0.88219041 8
-2.0264392 14.948571 -0.79058707 4
-2.6276917 19.460405 -0.34276527 8
-5.9836903 43.1222 0.75991273 18
-5.9533014 43.068825 2.2786031 41
-5.9241734 43.024158 3.7996416 20
-5.8830771 42.947395 5.3225222 23
-5.858881 42.937943 6.8637195 33
-5.8238502 42.848675 8.4055185 32
-5.7979832 42.826523 9.9774799 46
nan nan nan nan
-0.44472119 3.3689005 -0.91052544 7
-0.50957382 3.875818 -0.90250367 3
-0.59696811 4.5590239 -0.89374936 5
-0.71473539 5.4806967 -0.87540734 2
-0.91152167 7.0279136 -0.87014717 2
-1.2766719 9.8838215 -0.87190604 4
-1.9468168 15.134358 -0.79969347 9
-3.7569373 29.368164 -0.51680064 26
-5.6780243 43.070728 0.75830704 18
-5.6517038 43.044979 2.2752535 41
-5.6143961 42.993343 3.7933664 20
-5.58395 42.935261 5.316185 23
-5.5532598 42.874958 6.8474503 33
-5.5190296 42.845455 8.3971233 32
-5.4881945 42.782837 9.9581337 46
nan nan nan nan
-0.41890207 3.3488467 -0.9043138 7
-0.47980797 3.852124 -0.89620507 4
-0.55692351 4.4968357 -0.88077438 5
-0.67162019 5.4463425 -0.86914998 2
-0.85640192 6.9748473 -0.86283505 2
-1.1902509 9.7500982 -0.85935563 4
-1.7933899 14.755013 -0.77896845 4
-2.9933512 24.735748 -0.43491399 18
-5.369276 43.045822 0.75719011 37
-5.3389926 42.986267 2.2701247 41
-5.3120823 42.953449 3.7865684 19
-5.2734094 42.886505 5.3054605 23
-5.2466202 42.853855 6.8380642 33
-5.218492 42.809914 8.3830032 32
-5.1832843 42.769814 9.9464369 46
nan nan nan nan
-0.39279577 3.3286672 -0.89810216 6
-0.4492656 3.8244126 -0.88900661 1
-0.52323914 4.4811139 -0.87695819 5
-0.62811005 5.4038062 -0.86164117 2
-0.79856437 6.9017787 -0.85308552 2
-1.0880107 9.4612684 -0.83320886 3
-1.6955609 14.812813 -0.78137589 9
-2.4561317 21.557226 -0.37871721 12
-5.0639558 43.042538 0.75649202 18
-5.0322571 42.966953 2.267194 41
-5.0044465 42.924183 3.7808161 19
-4.9661078 42.855232 5.2971735 23
-4.9396195 42.82272 6.8274264 33
-4.9100895 42.763386 8.3669748 32
-4.8735414 42.708141 9.9239416 46
nan nan nan nan
-0.36656734 3.3044472 -0.89085519 7
-0.42148781 3.817771 -0.88675714 4
-0.48808905 4.4495301 -0.87008911 5
-0.58565301 5.3648577 -0.85475802 2
-0.74092823 6.8203516 -0.84236097 2
-1.0219365 9.4686327 -0.83320886 3
-1.5686532 14.605846 -0.769862 9
-2.3000598 21.52215 -0.3778097 12
-4.7512512 42.967525 0.75457227 18
-4.7251768 42.937504 2.2638443 41
-4.6988215 42.904598 3.7761095 19
-4.6611972 42.837555 5.2908359 22
-4.6294618 42.75404 6.8111572 32
-4.6038332 42.72636 8.3532372 63
-4.5677972 42.671371 9.9077454 45
nan nan nan nan
-0.34268913 3.2992399 -0.88878465 7
-0.38981476 3.7721603 -0.87550956 4
-0.45420942 4.4254866 -0.86474639 5
-0.54377311 5.325582 -0.84787488 5
-0.68326491 6.7266116 -0.83017403 2
-0.93581218 9.2773037 -0.81577778 3
-1.4502954 14.453484 -0.76127887 9
-2.1576948 21.617275 -0.37920588 12
-4.4445758 42.935993 0.75345528 18
-4.4187541 42.905872 2.2604947 41
-4.388617 42.833298 3.7670455 19
-4.3540034 42.790051 5.2810869 22
-4.3263149 42.740116 6.8039618 32
-4.2973909 42.677368 8.3375902 63
-4.2629771 42.634357 9.8919983 45
nan nan nan nan
-0.31853071 3.2900145 -0.88567883 7
-0.36160284 3.7553921 -0.87101054 5
-0.42161933 4.4109612 -0.86131191 3
-0.50265223 5.2879515 -0.84130466 2
-0.6310569 6.6758823 -0.82334936 2
-0.85772491 9.1247683 -0.80183285 3
-1.3328437 14.28627 -0.75196314 13
-2.0207636 21.783138 -0.38185865 12
