# .PCD v0.7 - Point Cloud Data file format
VERSION 0.7
FIELDS x y z intensity
SIZE 4 4 4 4
TYPE F F F F
COUNT 1 1 1 1
WIDTH 1431
HEIGHT 1
VIEWPOINT 0 0 0 1 0 0 0
POINTS 1431
DATA ascii
0.37070674 3.2587121 -0.75718528 15
0.42264572 3.6923301 -0.72240293 31
0.47842839 4.1603804 -0.66328222 22
0.56612331 4.900362 -0.60569072 3
0.72536063 6.2500157 -0.55047566 3
0.967085 8.2822876 -0.43700528 3
1.6165063 13.781406 -0.24220449 23
5.0235953 44.22884 0.77698112 19
nan nan nan nan
3.5182824 30.688992 2.7025251 9
3.5328684 30.627386 3.785506 11
3.5444949 30.587488 4.8770013 27
4.6337638 39.805145 7.7895865 25
3.5617948 30.457823 7.0796599 86
3.5845084 30.46767 8.2200937 17
0.35258216 2.930737 -0.79095107 47
0.39181137 3.242502 -0.75403601 18
0.44634962 3.6776741 -0.72011316 18
0.50052148 4.1060448 -0.65514761 22
0.60032046 4.8962903 -0.60569072 3
0.75972319 6.1696553 -0.54385179 3
1.00603 8.1347799 -0.42957357 3
1.6406019 13.19034 -0.23201229 13
5.2958322 43.955383 0.77279258 19
nan nan nan nan
2.7762127 22.807894 2.01016 6
3.7402973 30.594746 3.7845309 11
3.75406 30.574419 4.8788786 13
3.9476333 31.96632 6.2608247 13
3.774358 30.432211 7.0796599 86
3.7899168 30.427229 8.2159519 17
0.37179154 2.9225199 -0.78939813 43
0.40671206 3.1837018 -0.74098879 33
0.46325883 3.6063144 -0.70675659 22
0.53043848 4.1122465 -0.656712 21
0.62547511 4.8290935 -0.59789103 5
0.78885347 6.0655537 -0.53513628 3
1.0444102 7.9869494 -0.42214185 3
nan nan nan nan
5.5949779 43.85783 0.77174538 19
nan nan nan nan
3.9385247 30.617805 2.7007821 19
3.9532886 30.563951 3.7840433 35
3.9636018 30.518082 4.8741856 27
4.1623225 31.917297 6.2566271 13
3.9819078 30.409681 7.0805597 86
4.0019941 30.398113 8.2154341 17
0.38755643 2.8853893 -0.78008062 25
0.42814726 3.1749911 -0.7396391 47
0.49042946 3.6225326 -0.71057272 22
0.55229849 4.0635214 -0.64951599 22
0.65487373 4.7931399 -0.59399122 11
0.81764263 5.9612036 -0.52642071 6
1.0804981 7.8470893 -0.41512883 8
0.76626724 5.5363722 -0.097558953 25
nan nan nan nan
nan nan nan nan
nan nan nan nan
4.1612248 30.536335 3.7840433 35
4.1741862 30.511925 4.8776274 27
4.2253704 30.726324 6.028801 24
4.1951771 30.388863 7.0823593 86
4.2074752 30.360605 8.2128468 17
0.39989233 2.831037 -0.7661044 24
0.45002243 3.1739328 -0.740089 27
0.51127446 3.5879228 -0.70446682 19
0.57729548 4.0361009 -0.64576155 27
0.68014759 4.737483 -0.58765399 21
0.85155773 5.9021063 -0.52171427 6
0.80435354 5.554359 -0.29412812 70
0.80163074 5.5151978 -0.097279713 27
1.537871 10.859982 0.19145289 5
nan nan nan nan
4.356081 30.531006 2.6981676 59
4.3760128 30.51833 3.785506 11
4.3862534 30.476173 4.8766885 13
4.4114032 30.537518 5.9975085 96
4.4220524 30.461048 7.1062045 35
4.4210153 30.341957 8.2159519 17
0.42219889 2.8453748 -0.77076316 30
0.47159567 3.1668589 -0.73918921 18
0.5310809 3.5493164 -0.69759774 15
0.60194039 4.0085297 -0.64200711 29
0.70492435 4.6776571 -0.58082932 21
0.83606642 5.5217309 -0.4885951 66
0.84100783 5.5347867 -0.2933954 40
0.84192055 5.5213284 -0.097489148 29
1.5871682 10.670968 0.18831147 3
4.5719323 30.628151 1.6229382 17
4.5696969 30.503794 2.6985161 59
4.5883727 30.483109 3.7850182 35
4.6000905 30.452621 4.8779402 13
4.6486168 30.665148 6.028801 24
4.64254 30.481449 7.1183515 70
4.6330123 30.312265 8.2164698 17
0.4423486 2.8442671 -0.77128083 11
0.49188858 3.151937 -0.73648983 12
0.55067927 3.5125494 -0.69111025 19
0.62622696 3.9808137 -0.63825274 19
0.72580194 4.5981107 -0.57156724 15
0.8786512 5.5413404 -0.49086115 45
0.87931609 5.5268068 -0.2932907 45
0.87950313 5.5093918 -0.09738443 46
1.6690185 10.707047 0.18914919 3
2.1963661 14.04176 0.74484539 13
4.7856317 30.490831 2.7002592 59
4.8004403 30.446413 3.7845309 35
4.813798 30.427568 4.8791914 13
4.8638039 30.639706 6.0303278 24
5.4075856 33.912266 7.9281759 24
4.8497071 30.311611 8.2252693 17
0.45847216 2.818228 -0.76506913 25
0.51388127 3.1484258 -0.73648983 16
0.57391602 3.5008702 -0.68958372 20
0.65143639 3.9607511 -0.63574976 19
0.76176119 4.6164355 -0.57449216 15
0.91373503 5.5134497 -0.4889437 51
0.9195171 5.5303855 -0.29381409 60
0.9172864 5.4991722 -0.097314619 48
1.553555 9.5287151 0.16852044 1
2.2885454 13.990603 0.74296135 9
4.9983959 30.456678 2.7002592 59
5.0173993 30.439579 3.7879431 11
5.0244937 30.383478 4.8776274 27
5.2671719 31.7477 6.2554822 13
5.6896873 34.146645 7.9920611 25
5.0605669 30.273205 8.2242346 17
0.47295988 2.7844851 -0.75678688 31
0.53486687 3.1389985 -0.73514009 21
0.59403801 3.4716213 -0.6846227 17
0.6727221 3.9191155 -0.62980521 17
0.79127663 4.5953546 -0.57254225 15
0.95220387 5.5069361 -0.4889437 51
0.95946932 5.5317025 -0.29423279 52
0.95565552 5.4926343 -0.097314619 25
1.5361525 9.0248013 0.15979423 1
2.3488407 13.755754 0.73134273 19
5.2118959 30.426931 2.7007821 29
5.2318048 30.415548 3.7894058 23
5.2388539 30.361286 4.8798175 13
nan nan nan nan
5.2748618 30.348742 7.1116033 17
5.2727709 30.242847 8.2257872 17
0.49205098 2.7792134 -0.75626928 40
0.54859048 3.0891387 -0.72434247 27
0.61619234 3.4557931 -0.68233299 17
0.69415414 3.8812668 -0.62448645 19
0.81352478 4.5350089 -0.56571752 12
0.99380219 5.5178022 -0.49051252 27
0.99699664 5.5189734 -0.29391876 42
0.99504501 5.4917321 -0.097419336 29
1.4527612 8.1888676 0.14516912 3
2.4444671 13.737055 0.73123807 19
5.4392428 30.474144 2.7082775 9
5.4426317 30.370464 3.7884309 35
5.4545321 30.345358 4.8832588 27
5.480042 30.395872 6.0036144 36
5.4817481 30.28433 7.1053047 35
5.4858623 30.216703 8.2288933 17
0.50934112 2.7643113 -0.75316346 39
0.56447732 3.0545728 -0.71714401 26
0.63922733 3.4456162 -0.68118817 19
0.72087413 3.8743837 -0.62417358 19
0.82768869 4.4355507 -0.55401808 16
1.0245957 5.469605 -0.48685199 6
1.0332894 5.5001006 -0.2932907 45
1.0341008 5.4885821 -0.097489148 42
1.4445471 7.8245616 0.13888624 1
2.5403099 13.719655 0.73123807 9
5.6522236 30.437387 2.708452 9
5.6552377 30.335632 3.7889183 23
5.6731324 30.343433 4.8892035 27
5.6805196 30.29513 5.9914026 36
5.7031469 30.298943 7.1179018 52
5.7020564 30.206142 8.2366571 17
0.52753729 2.7549958 -0.75161052 37
0.57917356 3.0161097 -0.70904577 32
0.65472198 3.3967307 -0.67241096 17
0.74415416 3.8498623 -0.62104493 15
0.85523278 4.4121256 -0.55182445 17
1.0501992 5.3977804 -0.48109969 5
1.0754894 5.5123553 -0.29433745 57
1.0704758 5.4714155 -0.097314619 31
1.4271724 7.4391851 0.13221943 1
2.6235709 13.636864 0.72778392 13
5.8656969 30.403057 2.7089746 9
5.8721666 30.322697 3.7923305 24
5.8848314 30.303087 4.8892035 27
5.9065166 30.329887 6.0062857 48
6.868186 35.137299 8.2656021 27
5.9153824 30.178871 8.2402811 17
0.53734273 2.703876 -0.73866957 24
0.6005953 3.0139041 -0.70949566 26
0.66147846 3.3073716 -0.65561974 22
0.7628563 3.8039002 -0.61447465 19
0.87975276 4.3749094 -0.54792464 9
1.0752443 5.3278203 -0.47552174 5
1.1151326 5.5105863 -0.29465145 60
1.1110308 5.4755683 -0.097524047 31
2.7398772 13.761767 0.24492706 17
2.7265372 13.657387 0.72987735 9
6.0817327 30.380899 2.7107179 9
6.0891895 30.308207 3.795743 24
6.1005344 30.282566 4.8926449 27
6.1313314 30.353342 6.0192609 12
7.1675286 35.355877 8.3285885 28
6.1305447 30.159557 8.2464924 17
0.56049383 2.7208722 -0.74436361 16
0.62319839 3.0172718 -0.71129531 27
0.68335676 3.2969055 -0.65447485 16
0.78215921 3.7636688 -0.60884303 28
0.90703446 4.3531137 -0.54597467 14
1.1083355 5.3006816 -0.47377861 2
1.156855 5.5183053 -0.29548883 37
1.1504643 5.4735489 -0.097628765 29
2.8213429 13.6718 0.24367051 31
2.8598568 13.821868 0.73971647 6
6.3001585 30.368916 2.7135067 59
6.3014274 30.268848 3.7962303 36
6.3150272 30.254707 4.8951478 27
6.3455014 30.321327 6.0215507 36
7.4374137 35.415588 8.3546829 28
6.3445311 30.133038 8.2511511 17
0.5786708 2.7131143 -0.74332833 31
0.63650674 2.9766395 -0.70274711 25
0.70800275 3.2997332 -0.65600139 20
0.80675203 3.7503924 -0.60759157 27
0.93070507 4.3156285 -0.54207492 16
1.1259308 5.2032385 -0.46576029 2
1.190694 5.4886236 -0.29433745 35
1.1894988 5.4692917 -0.097698569 38
2.9693654 13.89817 0.24806851 18
2.9194696 13.629704 0.73050535 9
6.518713 30.35536 2.716296 59
6.5192952 30.255165 3.8001301 24
6.5273423 30.215677 4.8960867 27
6.5595226 30.287802 6.0238404 49
7.8052955 35.918861 8.4860544 29
6.5600905 30.112547 8.2578812 17
0.59718162 2.7071216 -0.74281067 29
0.65348506 2.9549985 -0.69869804 38
0.72974622 3.28896 -0.6548565 22
0.83077228 3.7350266 -0.60602719 21
0.95174074 4.2683372 -0.53695637 16
1.1517872 5.1485882 -0.46157682 2
1.2289802 5.4801779 -0.29433745 37
1.2307204 5.4745121 -0.097942911 38
3.1409547 14.214903 0.25410703 31
3.0188646 13.628491 0.73155206 9
6.7356429 30.332453 2.7183874 49
6.7320833 30.216663 3.801105 24
6.7463098 30.205999 4.9020309 13
6.7648067 30.214449 6.0184975 24
6.7874079 30.216446 7.1498451 71
6.769731 30.064131 8.2573633 17
0.61391848 2.693469 -0.74022251 27
0.6723612 2.9427655 -0.6968984 48
0.7483049 3.2646487 -0.65104032 37
0.85373104 3.7156594 -0.60383707 18
0.97661537 4.2403102 -0.53427523 14
1.1787323 5.1015959 -0.45809054 5
1.269465 5.4811926 -0.29486081 40
nan nan nan nan
3.1648998 13.863157 0.24820814 27
3.1166091 13.618765 0.73218012 19
8.1282034 35.432796 3.1804872 12
6.9499803 30.199884 3.8050051 24
6.9636683 30.18704 4.906724 13
6.9729099 30.15501 6.0162077 36
nan nan nan nan
6.9873295 30.050007 8.2666807 17
0.61943394 2.6327024 -0.72469336 37
0.68975806 2.9247227 -0.69374907 31
0.75932521 3.2096717 -0.64111823 30
0.87417936 3.6865444 -0.6000827 13
0.99884796 4.2024884 -0.53037542 19
1.1944528 5.0099049 -0.45059517 5
nan nan nan nan
2.1552646 8.9980707 -0.16150458 6
3.3368213 14.159933 0.25393254 34
3.2056479 13.571404 0.73081934 22
7.1589704 30.237387 2.7185619 9
7.167068 30.177668 3.8084173 24
7.1765313 30.147299 4.9082885 27
7.1919188 30.141878 6.0234585 24
nan nan nan nan
7.1973839 30.002375 8.2671986 17
0.63051116 2.6002634 -0.71692878 56
0.70642853 2.9067047 -0.6905998 37
0.78766483 3.2311325 -0.64646095 22
0.876279 3.5864809 -0.58475208 22
1.0279025 4.1975203 -0.53061914 14
1.2218708 4.9745712 -0.44815481 5
1.5540286 6.3126073 -0.34070709 2
2.2063992 8.9424229 -0.16077158 3
3.4350216 14.144662 0.25407213 21
3.3003068 13.558975 0.73134273 9
8.626359 35.359943 3.1843224 12
7.3789206 30.15518 3.8118296 24
7.3862772 30.116936 4.911417 13
7.4002028 30.105572 6.0261297 36
nan nan nan nan
7.406549 29.973314 8.272892 18
0.64958578 2.5995467 -0.71796405 45
0.72149628 2.880908 -0.68565083 35
0.80542046 3.2065139 -0.64264476 34
0.90081382 3.5783603 -0.58443922 30
1.0552392 4.1825428 -0.52964419 13
1.2497276 4.9388785 -0.44571447 5
1.5980611 6.3016047 -0.34070709 2
2.2323248 8.7833824 -0.15818861 6
3.4618382 13.833236 0.24890622 18
3.040189 12.121408 0.65493226 2
3.5233631 14.016746 1.2644554 2
7.5912042 30.110628 3.8128045 24
7.6040955 30.095278 4.9164228 13
7.6126084 30.062691 6.028038 36
7.6500711 30.122252 7.1750393 18
7.6289496 29.973303 8.2873859 18
0.66723675 2.5930774 -0.71744639 37
0.73672515 2.8569307 -0.68115181 32
0.82385403 3.1856072 -0.63959181 33
0.92230433 3.558599 -0.58224916 28
1.0689429 4.1155124 -0.52208835 13
1.2721237 4.88376 -0.441531 5
1.6152794 6.1878719 -0.33515951 11
2.2551274 8.6205549 -0.15553585 3
3.567802 13.845524 0.24956942 36
3.1052561 12.02447 0.65085006 8
3.5806916 13.835572 1.2503363 15
7.8072152 30.079954 3.8157294 36
7.8189878 30.060577 4.9195518 27
7.8287382 30.033512 6.032999 24
7.8429275 30.002125 7.1592927 18
7.8478084 29.956686 8.297739 36
0.68186116 2.575284 -0.71382296 29
0.75765049 2.8554854 -0.6820516 15
0.83648211 3.1437302 -0.63234103 27
0.94050938 3.5272603 -0.57818186 31
1.0909868 4.0830178 -0.51891971 15
1.2891707 4.8112512 -0.43577868 5
1.62063 6.0356326 -0.32751846 2
2.2788846 8.46943 -0.1530925 3
3.6433692 13.741028 0.24813831 33
3.8338318 14.428863 0.7824226 3
3.6648977 13.764028 1.2461528 15
8.0241785 30.051571 3.8191419 24
8.0342617 30.026251 4.9229932 13
8.0468502 30.010365 6.0394869 37
8.0582638 29.969221 7.1646919 36
8.0647964 29.931015 8.3060217 18
0.69576347 2.5555487 -0.70968187 33
0.7698735 2.8219259 -0.6753031 46
0.85529935 3.1264522 -0.63005131 30
0.95779836 3.4939377 -0.5738017 27
1.1147308 4.058075 -0.51672608 16
1.3208303 4.7985234 -0.43543008 2
1.643597 5.9548616 -0.32375026 5
2.3017097 8.3222551 -0.15071899 3
3.7828677 13.875388 0.25103542 31
3.239162 11.856634 0.64415103 11
3.7440655 13.676613 1.2405748 15
8.2474594 30.044588 3.825479 24
8.2562761 30.015139 4.9305019 13
8.266614 29.991304 6.0471191 37
8.2890491 30.011354 7.1880865 54
8.2766361 29.885155 8.3091269 18
0.71150702 2.5431874 -0.70761132 23
0.79429108 2.8333697 -0.67935222 23
0.87125278 3.1016564 -0.62623513 28
0.97567302 3.4664202 -0.57036012 27
1.1311727 4.0081635 -0.5113638 18
1.3450837 4.7565923 -0.4324668 7
1.7069608 6.0242434 -0.32814649 2
2.3171232 8.1559458 -0.14799641 3
3.9117227 13.972562 0.25326934 25
3.3138528 11.813158 0.64299959 8
3.8615668 13.728779 1.2477216 18
8.4636078 30.029793 3.8308413 36
8.4689674 29.988665 4.9355078 27
8.4838142 29.961197 6.0528436 24
10.824419 38.151001 9.155508 36
8.4862213 29.850422 8.3153391 18
0.72400188 2.521574 -0.70295256 31
0.80224311 2.7885695 -0.66990429 27
0.88853091 3.0804081 -0.62318224 35
0.99546015 3.4443431 -0.56785715 34
1.154564 3.9870234 -0.50965762 18
1.3660368 4.7049918 -0.42863193 14
1.7210821 5.9162912 -0.32291287 2
2.3339787 8.0075159 -0.14558797 6
3.3908961 11.794364 0.21421084 18
3.4001191 11.803168 0.64373231 11
3.9411199 13.654318 1.2433639 15
8.6785688 29.989044 3.8332787 24
8.6891241 29.966753 4.9417653 14
8.6984978 29.940466 6.0604753 50
11.204928 38.467415 9.2499886 37
8.7041368 29.823833 8.3246565 18
0.74049598 2.5127521 -0.70191729 25
0.81286198 2.7529972 -0.66270584 24
0.91001463 3.0741298 -0.62318224 33
1.0177969 3.431628 -0.56691855 22
1.1795434 3.969352 -0.50843894 18
1.3960038 4.6857939 -0.42776039 21
1.7377765 5.8218384 -0.31841198 11
2.4087327 8.0542498 -0.14673983 12
4.1064305 13.916582 0.25326934 21
3.4597824 11.702533 0.63954544 14
4.0363426 13.626473 1.2433639 13
8.8888645 29.931524 3.8337662 12
8.9071484 29.935652 4.9467711 28
8.9174204 29.912872 6.0673447 37
11.568074 38.705662 9.3264713 38
8.9126883 29.764191 8.3251734 55
0.75802028 2.5075212 -0.70191729 31
0.83036709 2.7416601 -0.66135615 25
0.92860192 3.0583091 -0.62127411 30
1.0359802 3.40554 -0.56378984 22
1.1997025 3.9363351 -0.50527036 18
1.4249575 4.6666551 -0.42688882 23
1.7561632 5.7369928 -0.31443447 8
2.4238572 7.9034128 -0.1442965 12
3.5795677 11.826258 0.21567684 20
3.5495114 11.704853 0.64101082 8
3.6645463 12.061447 1.1028687 2
9.1114769 29.91432 3.8396161 12
9.1285906 29.91431 4.9536543 28
9.1352043 29.879932 6.0734506 25
9.16996 29.937494 7.2285781 18
9.1372919 29.756643 8.340703 55
0.75720656 2.4431198 -0.68535286 29
0.85757756 2.7618513 -0.66765475 14
0.9499808 3.0537918 -0.62165576 27
1.0538472 3.3814363 -0.56097406 26
1.22597 3.9240742 -0.50478286 18
1.4444113 4.6147614 -0.42305395 19
1.7862116 5.6963186 -0.31286436 2
2.4304018 7.7317772 -0.1414692 15
3.6516852 11.77488 0.21518818 22
3.6634674 11.791047 0.64708179 17
3.6615663 11.755939 1.077245 14
9.3237543 29.88003 3.843272 12
9.3414307 29.881643 4.9586601 14
9.3588467 29.864136 6.0833726 37
9.3886499 29.904358 7.2362266 18
9.3500462 29.726933 8.3500204 55
0.7837534 2.4692118 -0.69415271 39
0.85568696 2.6909516 -0.65190822 12
0.97068095 3.0452149 -0.62127411 30
1.0672131 3.3420069 -0.5556553 27
1.2472084 3.8986218 -0.50258923 19
1.473549 4.5950794 -0.42218241 16
1.7996655 5.6019444 -0.30836347 2
2.4554062 7.629396 -0.13989849 18
3.8034554 11.968262 0.21920222 25
3.7687249 11.837502 0.65105933 17
3.7154684 11.649121 1.0697495 18
9.5448112 29.85392 3.8483903 73
9.5642633 29.860857 4.9661694 28
9.5721207 29.831516 6.0898604 37
12.715505 39.533054 9.5874147 41
9.5680161 29.694029 8.3593378 56
0.80156988 2.465517 -0.69467032 30
0.86298752 2.6497059 -0.64336008 39
0.98582256 3.0197012 -0.61745793 32
1.0892889 3.3307202 -0.55502951 27
1.2694492 3.8747289 -0.50063932 16
1.5055928 4.5846806 -0.42218241 19
1.8181335 5.5266352 -0.30490932 7
2.4535301 7.4449363 -0.13682686 17
3.9017715 11.987054 0.22003995 27
3.7986445 11.649499 0.64216226 8
3.8053656 11.649413 1.0721899 16
9.7653666 29.824286 3.8532653 73
9.7848253 29.830891 4.9724264 14
9.7930059 29.803135 6.0978742 25
13.016772 39.521061 9.6063108 42
9.7884035 29.66687 8.3707266 56
0.81205302 2.439698 -0.68897635 33
0.88208133 2.6454654 -0.64380997 38
0.99567866 2.979229 -0.61058879 32
1.106244 3.3043025 -0.55190086 37
1.280691 3.8187196 -0.49454582 15
1.5183643 4.5195551 -0.41712737 23
1.8432877 5.4740582 -0.30271122 2
2.4901063 7.3821507 -0.13598914 23
3.9859881 11.96142 0.22007485 27
3.8887291 11.64922 0.64362764 8
3.8922825 11.639571 1.0737587 20
9.982173 29.781733 3.8566775 49
10.004792 29.797434 4.9783711 14
10.017731 29.784281 6.1081777 38
13.300436 39.475861 9.6171083 42
10.009494 29.639906 8.3826313 37
0.83093303 2.4394557 -0.69052929 16
0.89863956 2.6337101 -0.64246029 28
1.0172045 2.9760983 -0.61135209 26
1.1357486 3.3172536 -0.55534244 31
1.2925003 3.7665005 -0.48893982 25
1.5434029 4.4900026 -0.41538426 20
1.873353 5.4406114 -0.30155981 2
2.5180979 7.2965355 -0.13473257 17
4.0660305 11.930224 0.22000504 40
3.9847162 11.671622 0.64634913 8
3.9811873 11.634735 1.0758505 14
10.200093 29.758171 3.8625274 61
10.221484 29.769751 4.9852543 28
10.238836 29.752604 6.1161919 25
10.268785 29.788933 7.2744675 57
10.243804 29.666042 8.4095488 19
0.84307134 2.4209723 -0.68690574 29
0.91654581 2.6275322 -0.64246029 27
1.0243506 2.9300058 -0.60333806 33
1.1445161 3.2682281 -0.54845929 24
1.3253343 3.7782214 -0.49162099 19
1.5608345 4.4396462 -0.41172373 15
1.8893974 5.3652329 -0.29810563 2
2.4892111 7.0567012 -0.1306138 11
4.1623802 11.939314 0.22070314 25
4.0634632 11.63598 0.64593047 20
4.0576591 11.599843 1.0751532 20
10.427313 29.742428 3.8698394 61
10.44479 29.742393 4.992763 28
10.458058 29.730373 6.1261144 38
10.462232 29.676088 7.2645702 37
10.49246 29.712215 8.4431953 58
0.85865629 2.4113879 -0.68587047 40
0.94665122 2.6541083 -0.65055853 28
1.0421376 2.9153881 -0.60181159 33
1.1706342 3.2694569 -0.55002367 23
1.3469878 3.7557967 -0.48991477 16
1.5762888 4.3855181 -0.40771458 18
1.8956839 5.26547 -0.2932907 2
2.5160263 6.9770751 -0.12946194 19
4.2409306 11.89678 0.22045881 29
4.1707916 11.680685 0.65001267 28
4.1486068 11.599373 1.0777678 18
10.678909 29.79224 3.8859262 37
10.666862 29.70965 4.9996462 14
10.683298 29.706516 6.1364174 39
10.702207 29.693985 7.287065 57
10.723922 29.705467 8.462348 58
0.87480932 2.4035192 -0.68535286 42
0.95381033 2.6163099 -0.64291012 23
1.0718991 2.9338577 -0.60715425 28
1.1757821 3.2129722 -0.54188907 20
1.3608801 3.7127516 -0.48552752 15
1.5835094 4.3108196 -0.40178797 12
1.9151567 5.2052474 -0.29067394 2
2.5197284 6.837378 -0.12719314 16
nan nan nan nan
4.2645621 11.685054 0.65189672 14
4.2848926 11.721703 1.0918871 14
10.920766 29.810165 3.8981133 12
10.895775 29.693808 5.0096579 29
10.904635 29.66991 6.1444311 26
14.507948 39.388992 9.6908922 43
10.945753 29.669748 8.4737358 39
0.89089429 2.3955426 -0.68483526 29
0.96865124 2.6004562 -0.64066064 37
1.0854878 2.9079103 -0.60333806 27
1.2009497 3.2120869 -0.54314053 24
1.3777149 3.6789939 -0.4823589 22
1.6212685 4.320178 -0.40370542 22
1.9402083 5.1618366 -0.28899917 2
2.5603585 6.8009048 -0.12684409 16
4.4268513 11.890756 0.22147104 27
4.3195119 11.583885 0.64791918 17
4.3275781 11.586982 1.0821257 16
11.132789 29.74435 3.8995755 75
11.118067 29.657707 5.016541 29
11.125999 29.63166 6.1524458 26
nan nan nan nan
8.1052265 21.506618 6.1583405 24
0.90347934 2.3784294 -0.68172938 31
0.98955292 2.6009166 -0.64246029 36
1.1071613 2.9039304 -0.6041013 23
1.221231 3.1980884 -0.54220194 19
1.3948561 3.6470368 -0.47943404 22
1.6456831 4.2938714 -0.40231091 24
1.9489964 5.0773115 -0.28502163 4
2.5754805 6.698873 -0.12527338 21
nan nan nan nan
4.4145012 11.590775 0.65001267 23
4.4232826 11.595577 1.0857862 25
11.360018 29.717823 3.9064002 75
11.35239 29.651314 5.0287428 14
11.361415 29.628418 6.1680918 39
4.070281 10.592398 2.6197803 18
8.0712938 20.971733 6.0211668 23
0.91517174 2.3594561 -0.67810595 34
1.0027469 2.5812294 -0.63931096 33
1.1217099 2.881494 -0.60104835 30
1.2385052 3.1766016 -0.54001182 15
1.4238935 3.6464555 -0.48065275 23
1.6821542 4.2989769 -0.4038797 20
1.9712777 5.0301094 -0.28313756 14
2.5717719 6.55229 -0.12286495 18
4.2088385 10.839807 0.20297149 3
4.6162004 11.870538 0.66749287 6
4.5106354 11.581123 1.087355 23
11.590306 29.696966 3.9141998 37
11.573503 29.608131 5.0350003 29
4.3386202 11.082242 2.3133683 36
4.146266 10.569165 2.6211298 38
8.0324154 20.443785 5.8855453 22
0.93020034 2.349417 -0.67707068 34
1.022899 2.5796001 -0.64066064 41
1.1301987 2.8444011 -0.59494245 26
1.2423906 3.1219935 -0.53219014 17
1.4346151 3.599546 -0.47577798 22
1.7017733 4.2633719 -0.40161365 14
1.9766777 4.9420476 -0.27895069 7
2.5706062 6.4172287 -0.12066595 28
4.0339046 10.178094 0.19110386 3
4.653275 11.722928 0.66100323 3
4.5928488 11.553054 1.0877036 19
13.880012 34.843513 4.6051993 15
8.718009 21.85186 3.7262695 16
4.402771 11.018867 2.3064992 17
4.1153021 10.283786 2.5572438 46
7.9987917 19.947908 5.7587242 28
0.94296128 2.3339095 -0.67448246 29
1.0328426 2.552525 -0.63571173 24
1.1333133 2.7966123 -0.5865469 33
1.2784715 3.1500716 -0.5384475 17
1.4507378 3.5673759 -0.47285309 26
1.7089523 4.1960301 -0.39638433 14
2.0547767 5.0375891 -0.28512633 7
2.6085324 6.3824682 -0.1203518 18
nan nan nan nan
4.7329626 11.690982 0.66100323 3
4.7370472 11.677643 1.1025201 12
14.114605 34.742718 4.6044679 15
4.5010142 11.062512 1.8916059 16
4.334322 10.631536 2.2317021 70
4.163424 10.197071 2.5428469 28
4.2189136 10.317537 2.9867721 30
0.96323991 2.3381546 -0.67758828 68
1.0330976 2.5040028 -0.62536401 23
1.1520584 2.7868183 -0.58616525 26
1.291363 3.1191685 -0.53469306 15
1.4666215 3.5372481 -0.47017199 23
1.7069098 4.1106987 -0.38941187 19
2.0952661 5.0360298 -0.28585902 14
2.6457663 6.3497958 -0.12007255 15
4.1952004 10.173271 0.19208118 10
4.894516 11.851486 0.67199373 12
4.8103385 11.630398 1.1011256 19
8.9024229 21.481764 2.8551552 64
8.917758 21.486925 3.6846578 47
4.2815037 10.300848 2.1683536 35
nan nan nan nan
4.2596025 10.212948 2.9650311 42
0.98178583 2.3367155 -0.67914116 67
1.0467759 2.4877481 -0.62311447 34
1.1633786 2.7608194 -0.58234906 31
1.310262 3.1048455 -0.53375447 17
1.495919 3.5378933 -0.47163439 16
1.7363431 4.1005168 -0.38958618 25
2.1123397 4.9811988 -0.28355622 19
2.6532753 6.2446704 -0.11843203 20
4.2263751 10.054153 0.19037086 8
5.0827832 12.07377 0.68654317 9
4.8883138 11.58919 1.1004283 25
9.069294 21.470041 2.8617361 96
4.5361319 10.722871 1.8440496 39
4.3885565 10.353856 2.1859078 5
4.2160583 9.9324074 2.4911082 18
3.9987569 9.4067812 2.7388234 18
0.98666334 2.3031685 -0.67137665 30
1.0702634 2.4947069 -0.62671363 25
1.1810731 2.7490232 -0.58158582 32
1.326198 3.0808747 -0.53125149 19
1.5190116 3.5237169 -0.47114691 15
1.7799336 4.1230493 -0.39289808 19
2.1296294 4.9259973 -0.28125346 19
2.6623545 6.1493897 -0.11696602 5
4.3376169 10.115544 0.1921161 8
5.2762308 12.286675 0.70077848 6
5.0659184 11.77991 1.1218687 14
nan nan nan nan
4.5788069 10.616572 1.8312221 19
4.4482679 10.294132 2.1798022 1
4.4323401 10.242542 2.5765896 4
4.1042709 9.4708109 2.7657404 40
0.99690807 2.2840054 -0.66775316 45
1.083317 2.478436 -0.62446415 27
1.1926726 2.7247336 -0.57815129 30
1.3418422 3.0611565 -0.5293743 22
1.5319741 3.4899359 -0.46797833 15
1.8095592 4.1144862 -0.39324668 17
2.1421773 4.8638644 -0.27853197 30
2.6710618 6.0561118 -0.11553493 15
4.1501293 9.5037928 0.18101637 7
5.171948 11.826868 0.67649466 3
5.1076055 11.657559 1.1135018 14
4.7544103 10.83599 1.4529265 9
4.6803675 10.652074 1.8427982 15
4.4096999 10.021811 2.1282835 5
4.1882186 9.5049534 2.3979785 2
nan nan nan nan
1.0096807 2.272047 -0.66620022 33
1.099731 2.4711967 -0.62446415 29
1.2127906 2.7201383 -0.57891452 27
1.3239912 2.9653718 -0.51435655 30
1.5611646 3.4900281 -0.46944076 23
1.831008 4.0875278 -0.39185223 21
2.1719654 4.8418818 -0.27811331 30
2.7058985 6.0209002 -0.11522079 20
3.8815074 8.7262144 0.16670538 1
5.336031 11.979309 0.68727589 18
5.3000631 11.881806 1.1382539 13
4.7008977 10.51884 1.4146595 21
4.6978951 10.497362 1.8215232 24
nan nan nan nan
nan nan nan nan
4.5465374 10.111789 2.9707251 20
1.0346818 2.284121 -0.67189431 52
1.1045058 2.4348691 -0.61726576 29
1.2341871 2.7169678 -0.58005941 27
1.3754517 3.022346 -0.52593273 16
1.5747899 3.4555614 -0.46627215 19
1.8504004 4.0547066 -0.38993478 19
2.1965919 4.8044186 -0.27685726 28
2.7178988 5.936408 -0.11396421 20
4.2997561 9.4875584 0.18181917 10
5.3464766 11.775328 0.67775071 18
5.3041306 11.665834 1.1211715 10
4.6894884 10.299683 1.3895544 35
4.8573313 10.64859 1.8537486 13
4.7009192 10.291418 2.1992648 18
4.324574 9.4544096 2.4002278 16
4.6171699 10.075484 2.9696898 32
1.0457453 2.2663176 -0.66878843 47
1.1296504 2.4447894 -0.62176478 39
1.2469999 2.6938138 -0.57700646 23
1.3940257 3.0072927 -0.52499413 27
1.5978049 3.4406033 -0.46578467 20
1.8877696 4.0594282 -0.39167792 19
2.21067 4.7451277 -0.2743451 22
2.7340984 5.860631 -0.11288217 15
4.3381915 9.3930082 0.1805975 12
5.5761156 12.056762 0.69617295 12
4.9242783 10.627883 1.0247772 22
4.7814517 10.305476 1.3949165 34
4.6843472 10.082358 1.7608266 30
4.7288766 10.159621 2.1782756 35
4.6292176 9.9319162 2.5297997 6
4.3810077 9.3822756 2.7745402 13
1.0594701 2.2535315 -0.66723549 32
1.1429658 2.4278278 -0.61951524 38
1.2645695 2.6812699 -0.57624322 33
1.4112918 2.9883096 -0.52342981 31
1.6334209 3.4524086 -0.46895328 15
1.9031211 4.0170069 -0.38888893 19
2.2308669 4.7003174 -0.27267036 22
2.7304726 5.745193 -0.11103221 16
4.3797479 9.3074446 0.17955035 7
5.6239333 11.935251 0.69146276 12
5.0444307 10.686064 1.0338414 39
4.8924003 10.349964 1.4056411 13
nan nan nan nan
4.7905207 10.102461 2.1733146 13
4.7536669 10.0112 2.5585935 12
4.4189887 9.2896271 2.756423 31
1.0688934 2.2319536 -0.6630944 33
1.1670507 2.4336441 -0.62311447 30
1.2709717 2.6456077 -0.57051897 37
1.4189383 2.9496522 -0.51842386 23
1.6471456 3.4194596 -0.46602839 15
1.9112103 3.962348 -0.38487977 20
2.2427742 4.6414676 -0.27015823 20
2.7147763 5.6107855 -0.1087983 16
4.3883266 9.1550484 0.17721173 10
5.7999415 12.083763 0.70245332 9
nan nan nan nan
4.9310303 10.241359 1.3956479 27
3.5035896 7.2669415 1.2777568 17
3.465385 7.1780896 1.5493692 13
3.5970109 7.440783 1.9080349 17
5.0815663 10.493024 3.123946 11
1.0827563 2.220964 -0.66205913 48
1.1677694 2.3921638 -0.61456633 31
1.2906734 2.6404235 -0.57128215 23
1.4389817 2.9399261 -0.51842386 35
1.6534975 3.3722308 -0.46115363 17
1.9317994 3.9346018 -0.38348526 20
2.2531655 4.5830789 -0.2676461 20
2.6478608 5.3764238 -0.10460973 6
4.5294366 9.286725 0.18035316 10
5.7707458 11.816081 0.68915993 15
3.3395143 6.8258371 0.66482401 6
4.9063129 10.015025 1.369324 4
4.7578912 9.6992035 1.7110804 15
nan nan nan nan
3.60413 7.3245659 1.88464 21
4.4732189 9.0787878 2.7119062 22
1.0987072 2.2152731 -0.66257679 61
1.1788247 2.3736873 -0.61186689 27
1.3186946 2.6506834 -0.57547992 31
1.4541864 2.9191997 -0.51654667 25
1.6781853 3.3644505 -0.4616411 23
1.9451849 3.894624 -0.38087061 30
2.283319 4.563664 -0.26743674 24
2.7426128 5.4744892 -0.10687853 16
4.48035 9.02561 0.17588535 15
5.1374612 10.335761 0.60489905 25
5.1454253 10.338199 1.0103093 11
5.1390834 10.307413 1.4141719 65
3.7684481 7.5484414 1.3362634 15
3.5973864 7.1963553 1.5638705 10
3.614655 7.2214441 1.8643944 19
5.3868179 10.74317 3.2202265 6
1.1132755 2.2058241 -0.66205913 65
1.1971254 2.3688784 -0.61276674 27
1.3180922 2.6048594 -0.56746602 38
1.4686663 2.8986611 -0.51466948 32
1.6908531 3.3314097 -0.45871624 23
1.9696192 3.8756206 -0.38034767 20
2.316144 4.5515757 -0.2676461 27
2.7925711 5.4783692 -0.1073323 16
4.4010782 8.7164345 0.17044021 13
5.1329012 10.152612 0.59621125 25
5.2129726 10.293138 1.0094378 5
nan nan nan nan
5.1442642 10.131138 1.7996223 16
3.5095735 6.8998337 1.5047197 7
3.6808977 7.2272916 1.8724927 14
4.9156766 9.639246 2.899291 8
1.1220882 2.1861649 -0.6584357 48
1.2203472 2.3745415 -0.61636597 46
1.3326508 2.5886116 -0.56593949 30
1.4942975 2.8988721 -0.51654667 23
1.7125782 3.3180602 -0.45847249 24
1.9783252 3.8263798 -0.37686142 28
2.3285787 4.4980488 -0.26544797 18
2.8178332 5.4361539 -0.10687853 14
4.5193887 8.7975559 0.17263921 11
5.2109632 10.130739 0.59704864 17
5.0959015 9.8943062 0.97370398 3
3.5113761 6.8060746 0.94034398 21
3.5113354 6.7972593 1.2117414 5
nan nan nan nan
4.9092755 9.4750032 2.4636641 40
nan nan nan nan
1.128383 2.1611526 -0.65325934 36
1.2260618 2.3452394 -0.6109671 25
1.347046 2.5722888 -0.56441307 37
1.5062417 2.8726249 -0.51373082 22
1.721858 3.2796602 -0.45481643 27
1.9947891 3.7930779 -0.37494397 16
2.3450353 4.4534068 -0.26377326 15
2.8165457 5.3420563 -0.10541254 19
4.5417995 8.6913548 0.1711732 9
5.2528582 10.039253 0.59380382 5
5.4718223 10.444421 1.0315753 16
3.5726392 6.8077621 0.94400001 28
5.1032848 9.7120886 1.7376742 1
3.6281404 6.8959627 1.5146419 11
3.6551614 6.9355588 1.8099563 17
5.0993743 9.66364 2.9277611 18
1.1371009 2.141279 -0.64963585 33
1.2396601 2.331461 -0.60961735 38
1.3640494 2.5610886 -0.56403142 33
1.516966 2.8446083 -0.51060218 15
1.753129 3.2833188 -0.45701009 34
2.0137041 3.7650044 -0.37354952 16
2.3685255 4.4228415 -0.26293588 9
2.8339272 5.285253 -0.10467953 15
4.4475107 8.3680811 0.16541392 9
5.2890348 9.9388657 0.59003562 20
5.4471612 10.2231 1.0134469 7
nan nan nan nan
5.1123085 9.5664644 1.7179635 30
3.5669003 6.6662035 1.4696109 31
3.6013041 6.7192211 1.7600172 23
5.6124945 10.458494 3.1803684 5
1.1474313 2.1247895 -0.64704764 33
1.253125 2.3176079 -0.60826772 29
1.3772211 2.5428717 -0.5621233 22
1.5339632 2.8287392 -0.50966352 33
1.7542224 3.2308753 -0.45140409 19
2.0370839 3.7456033 -0.37302658 18
2.3936143 4.3956738 -0.26230782 9
2.8707561 5.2653399 -0.10467953 22
4.4316602 8.1996107 0.16269134 13
5.5702662 10.29341 0.61337745 17
3.7216451 6.8687115 0.68347532 2
nan nan nan nan
nan nan nan nan
3.5495484 6.5238724 1.443661 25
3.6537206 6.7041821 1.7627167 42
5.3115296 9.7339497 2.9712427 22
1.1724648 2.1353545 -0.65274167 31
1.270213 2.3105104 -0.60871756 38
1.3807337 2.5073991 -0.55639905 30
1.5431827 2.7989326 -0.50622195 26
1.7815322 3.2272391 -0.45262277 17
2.0519304 3.7124691 -0.37110916 16
2.4203742 4.3718667 -0.26188916 15
2.8793306 5.1944499 -0.10366729 15
4.0506105 7.3710761 0.14680965 6
5.582304 10.145778 0.60688782 11
5.3951778 9.7935343 0.97823608 8
3.7921083 6.8722324 0.96374285 23
5.2768993 9.5512133 1.7282882 60
nan nan nan nan
3.7823539 6.829175 1.8023078 31
5.0194826 9.0479374 2.7724698 24
1.1901687 2.1321778 -0.65429455 37
1.2863126 2.3015864 -0.60871756 33
1.3929757 2.4893765 -0.55449098 24
1.563163 2.7900877 -0.50653487 22
1.8156753 3.2354975 -0.45554763 27
2.0631573 3.6719997 -0.36849448 20
2.4383233 4.334403 -0.26063308 8
2.9273045 5.195128 -0.10408615 22
3.9924655 7.149538 0.14293522 9
5.6755967 10.15113 0.60950464 2
5.7564487 10.278873 1.0307038 16
3.8504517 6.8670373 0.96666771 33
3.997643 7.120801 1.2934003 17
nan nan nan nan
3.6731493 6.5241127 1.7285241 10
5.1786642 9.1868982 2.8257864 23
1.1998892 2.1156251 -0.6517064 46
1.2961756 2.2826102 -0.60601819 34
1.4083807 2.4761772 -0.55372775 22
1.5845597 2.7825391 -0.5071606 23
1.8189768 3.1902976 -0.45091662 27
2.0851424 3.6526787 -0.36797154 20
2.4546444 4.2930007 -0.25916767 8
2.9377615 5.1316962 -0.10321353 18
4.0965734 7.2171402 0.14485498 14
5.5706711 9.8021746 0.590873 8
4.0142484 7.0548859 0.710145 22
5.6174383 9.8564157 1.3929666 11
3.8827796 6.804482 1.2408383 19
3.6871903 6.4538631 1.4448059 14
3.7948763 6.634285 1.7645162 40
5.2647634 9.1890736 2.8376923 6
1.2155945 2.1088705 -0.65222406 52
1.3120797 2.2735054 -0.60601819 34
1.4281486 2.4716337 -0.55487263 31
1.6084077 2.7802391 -0.50872493 18
1.82727 3.1534758 -0.44750425 27
2.098593 3.6173537 -0.36587983 20
2.4486992 4.2157464 -0.25550416 17
2.9745216 5.1127901 -0.10324844 27
4.0936589 7.0990076 0.14303991 30
4.0853925 7.0761094 0.42821282 2
5.4996619 9.5103474 0.96115357 7
2.5622089 4.4253783 0.62787092 13
3.8864107 6.7044058 1.2273849 17
nan nan nan nan
3.7823377 6.5065446 1.7375221 10
5.4185305 9.3099747 2.8863502 27
1.2318733 2.1038814 -0.65325934 47
1.3304812 2.2695649 -0.60736787 27
1.4563025 2.4802265 -0.55907035 24
1.604753 2.7297754 -0.50152892 23
1.8361471 3.1184046 -0.44433567 16
2.1086183 3.5768692 -0.36326513 24
2.4669037 4.1796284 -0.25435278 8
3.0019996 5.0781293 -0.10296919 18
4.1309876 7.049552 0.14262106 24
4.1286292 7.0370789 0.4275848 2
2.576273 4.3858886 0.44501722 4
2.5759268 4.3782973 0.62372732 11
3.9180801 6.6515822 1.2226919 21
nan nan nan nan
3.8256903 6.4766226 1.7366222 36
3.8322818 6.4800315 2.0172358 5
1.2508478 2.1016533 -0.65532982 52
1.3446915 2.2566388 -0.60646808 20
1.4715718 2.4666264 -0.55830717 37
1.6262723 2.7216134 -0.50215465 23
1.8568538 3.1038063 -0.44409195 19
2.1273956 3.5518057 -0.36221924 33
2.4813373 4.136178 -0.2527827 6
3.0085492 5.0090489 -0.10199186 20
4.1453156 6.9621239 0.1414343 30
4.2566271 7.1377254 0.43553987 2
2.5258811 4.2304873 0.43107229 10
2.5239291 4.2221942 0.60398453 18
4.0203729 6.7148948 1.2395868 15
4.0597577 6.7726283 1.5348676 28
3.8417282 6.4013014 1.723575 46
5.9526854 9.9030209 3.0959935 5
1.2454988 2.0598063 -0.64497709 33
1.3543588 2.2371929 -0.60376865 24
1.476969 2.4358885 -0.55372775 31
1.6380565 2.6983743 -0.49996459 27
1.8722897 3.0805902 -0.44262949 19
2.1392896 3.5143671 -0.35995319 26
2.4914432 4.0880551 -0.2508986 12
3.0080326 4.9298844 -0.1008051 20
4.1670799 6.8860888 0.14049187 27
2.6370075 4.3525019 0.26670405 24
2.4406574 4.0236621 0.41172373 13
2.5406787 4.1819701 0.60081595 18
3.7940938 6.2377353 1.1563637 12
4.1079617 6.7457976 1.5352492 19
3.9533939 6.4817872 1.7528187 21
4.2164822 6.9049993 2.1678684 27
1.2568152 2.0461226 -0.64342415 26
1.3832152 2.2492628 -0.60961735 28
1.4887918 2.4171593 -0.55181968 24
1.6547824 2.6835091 -0.49933887 30
1.9177368 3.106293 -0.44823548 27
2.1595793 3.492569 -0.35925597 26
2.5115104 4.0569777 -0.25006124 12
3.0444808 4.9121652 -0.10087491 15
4.2014351 6.8346848 0.1400381 17
2.5825341 4.1962113 0.25822562 9
2.328634 3.7792294 0.38836598 21
2.5395794 4.1151414 0.5937475 11
4.2632513 6.9000983 1.2846401 17
4.0764632 6.5900617 1.5062463 29
4.0118914 6.475565 1.7586675 34
5.8032169 9.3559866 2.9500196 10
1.2782261 2.0487721 -0.64704764 38
1.3864946 2.2197185 -0.60421854 38
1.4983418 2.3950558 -0.54914832 20
1.6504085 2.6350608 -0.49245578 26
1.9172298 3.0575109 -0.44311696 17
2.1870902 3.4824681 -0.35977891 22
2.5121334 3.995383 -0.24733976 18
3.0936162 4.9144816 -0.10136358 24
2.6318254 4.2150769 0.08673846 5
2.4444947 3.9104929 0.24168746 13
2.3560181 3.7645693 0.3885403 16
2.5640275 4.0905848 0.59277254 18
4.2231154 6.7296195 1.2583591 26
3.967792 6.3154106 1.4497669 24
4.0725694 6.4721398 1.765416 19
5.5399108 8.7938251 2.784893 24
1.2883624 2.0332713 -0.64497709 26
1.3873427 2.1869471 -0.59791994 25
1.507655 2.3729382 -0.54647696 20
1.6761847 2.6351426 -0.49464583 22
1.9481238 3.0591223 -0.44531062 16
2.192064 3.4368777 -0.35664126 22
2.512018 3.9339805 -0.24461828 18
3.1170795 4.875916 -0.10101452 22
2.5283983 3.9871917 0.082410261 11
2.4631734 3.8798418 0.24085009 10
2.3630068 3.7177618 0.38540271 21
2.5893245 4.0675607 0.59204131 25
nan nan nan nan
4.0265694 6.3107266 1.4551095 30
4.0851212 6.3926473 1.751469 21
6.0238543 9.4156265 2.995054 16
1.3063527 2.0309534 -0.64704764 31
1.394811 2.1659839 -0.59477061 39
1.5195169 2.3560209 -0.54495054 24
1.7058707 2.6419258 -0.49808741 21
1.9376506 2.9974442 -0.4382422 15
2.1991634 3.3967912 -0.35402662 21
2.545254 3.9268482 -0.24524632 16
3.0903258 4.7623267 -0.099094771 4
2.5230067 3.9194469 0.081363119 15
2.409461 3.7387533 0.23310436 19
2.331007 3.6128607 0.37616417 18
2.5738568 3.9831502 0.58229178 15
4.2039108 6.498261 1.2258207 15
4.1441398 6.3985205 1.4818227 6
4.1105146 6.3368974 1.7438207 51
5.8216128 8.9644957 2.8640919 34
1.3141613 2.0120795 -0.64394182 33
1.4120315 2.1594558 -0.59567046 20
1.5488338 2.3650646 -0.54952991 20
1.7361858 2.6481247 -0.50152892 23
1.9726887 3.0054188 -0.44141081 19
2.2118814 3.3647056 -0.35228351 21
2.5517464 3.8772829 -0.24325755 14
2.6405072 4.0075812 -0.083771549 1
2.5459318 3.8950424 0.081223503 9
2.4344101 3.7201695 0.2329997 16
2.3419795 3.5748341 0.37389815 30
2.5885334 3.9451673 0.57936692 27
6.3076067 9.6024189 1.819646 12
4.104568 6.2414865 1.4520565 18
4.1203508 6.2559695 1.7294238 23
5.798974 8.7946119 2.8226805 21
1.3228378 1.9948057 -0.64135361 36
1.4356956 2.1625333 -0.59926963 40
1.5555243 2.3394806 -0.54609537 27
1.7601039 2.6441612 -0.5030933 18
2.0046308 3.0080922 -0.44384819 15
2.2380486 3.3545454 -0.35280645 17
2.5621064 3.8344648 -0.24168746 16
2.5828073 3.8610685 -0.081083886 17
2.3917205 3.6039214 0.07549911 12
2.3973227 3.6082609 0.22703341 12
2.3746033 3.5700092 0.37511832 25
2.5466781 3.8229187 0.56401139 21
6.2692714 9.4003801 1.7896105 1
4.2167215 6.3155437 1.4760985 22
4.1541748 6.2148166 1.7258246 46
6.7113781 10.025343 3.23265 18
1.33781 1.987125 -0.64187121 31
1.4387764 2.1346829 -0.59432071 25
1.5714116 2.3288388 -0.54609537 24
1.7459934 2.5846503 -0.4940201 25
2.0333688 3.005533 -0.44555435 15
2.2446535 3.3140941 -0.35019177 28
2.5332236 3.7359362 -0.23655853 14
2.5456648 3.7486479 -0.079094306 6
2.4441228 3.6290231 0.076371737 20
2.3860974 3.5388672 0.22368389 27
2.3559837 3.4889481 0.36832017 16
2.5192757 3.7265565 0.5523119 20
6.3740792 9.4180183 1.8011867 13
4.2662172 6.2940774 1.4780066 11
4.1613545 6.1324482 1.7109778 27
6.1856537 9.1053257 2.949502 34
1.3469468 1.9715917 -0.63980073 38
1.4532745 2.1248393 -0.59432071 30
1.5865232 2.3161912 -0.54571378 33
1.7606447 2.5675099 -0.49308151 26
2.0250816 2.9487197 -0.43921715 19
2.2857947 3.3246129 -0.35298076 12
2.5615065 3.7214513 -0.23676789 16
2.5876627 3.7538347 -0.079582974 6
2.4840686 3.633333 0.0768255 15
2.3836694 3.482568 0.22117178 28
2.4010742 3.5040593 0.3716321 26
2.5396147 3.7006946 0.55109322 12
6.5280418 9.5019131 1.8259033 4
4.2800074 6.22047 1.4677029 33
4.2604413 6.1850963 1.7339228 51
6.2073908 9.0014887 2.9298317 18
1.3566161 1.9555535 -0.63773018 38
1.4706655 2.1175866 -0.59522051 43
1.5824811 2.2760439 -0.53884465 39
1.7880026 2.5678139 -0.49558446 23
2.043349 2.9312522 -0.43872967 15
2.2907071 3.2824306 -0.35019177 12
2.5766299 3.6866558 -0.23572117 24
2.5851443 3.6947174 -0.078710355 3
2.4922721 3.5912595 0.076301925 16
2.3800325 3.4244206 0.21855497 26
2.355535 3.3853898 0.36082479 23
2.5631173 3.6796176 0.55060571 13
3.1532683 4.5201044 0.87290442 3
4.5504007 6.515574 1.5447898 28
4.5234952 6.46983 1.8225535 36
6.2594562 8.9394321 2.9241376 22
1.3613368 1.933399 -0.63358909 31
1.4887804 2.112047 -0.59657025 31
1.6043888 2.272681 -0.54075271 24
1.8058858 2.5552688 -0.49558446 25
2.045419 2.8909874 -0.43482983 19
2.3032024 3.2517259 -0.34862295 10
2.5757284 3.6311088 -0.23331371 22
2.9744315 4.1885276 -0.089670464 5
2.4764409 3.5144861 0.075045347 35
2.3785529 3.3718162 0.21625218 16
2.3515282 3.329803 0.35664126 20
2.5538487 3.6109405 0.54304987 13
2.9861269 4.2174625 0.81846523 28
4.5560374 6.4275899 1.531433 12
4.5256948 6.3777022 1.8054572 27
nan nan nan nan
1.3770478 1.9269913 -0.6346243 31
1.503489 2.1016018 -0.59657025 36
1.6232498 2.2664969 -0.54189759 41
1.8094236 2.5236535 -0.49182999 25
2.0516567 2.8572888 -0.431905 22
2.301425 3.2015951 -0.34496242 11
2.6050515 3.6199768 -0.2337324 22
2.5791914 3.5787694 -0.077000014 6
2.4154117 3.378794 0.072497301 23
2.3747146 3.3181915 0.21384473 24
2.3863254 3.3294981 0.3583844 22
2.5922573 3.6128263 0.54597467 12
3.0366635 4.2275205 0.82440978 13
4.2912517 5.9653206 1.4283962 35
7.6825209 10.667777 3.0350399 13
6.3143253 8.7582579 2.8930793 32
1.376526 1.8988044 -0.62841266 40
1.5177594 2.0913191 -0.59657025 39
1.6505759 2.2709904 -0.54571378 27
1.8235114 2.5061681 -0.49089143 22
2.0815787 2.8576975 -0.43409866 17
2.3178492 3.177402 -0.34409088 16
2.6349699 3.6081548 -0.23415108 16
2.8123827 3.8468616 -0.08317817 12
2.5058742 3.4541097 0.074486867 12
2.3989961 3.3031485 0.21394941 30
2.394872 3.2938416 0.35629267 17
2.5636642 3.5208235 0.53476268 11
2.9194887 4.005085 0.78498822 13
4.5655336 6.256319 1.505483 33
7.6544785 10.473851 2.9949987 36
nan nan nan nan
1.3908932 1.8907042 -0.62893027 28
1.5207665 2.064981 -0.59207124 28
1.6663901 2.2594118 -0.54571378 28
1.8409632 2.4933765 -0.49089143 22
2.0814192 2.8159575 -0.42995507 13
2.3293066 3.1467304 -0.34252208 17
2.65415 3.5816481 -0.23362774 22
2.8880208 3.8929787 -0.084609263 15
2.4777639 3.3656747 0.072951064 30
2.3935595 3.2477326 0.21143727 13
2.4000657 3.2529929 0.35367799 36
2.5952599 3.5124195 0.53622514 13
2.8510492 3.8543806 0.75933295 18
4.7446241 6.4073167 1.5497508 23
nan nan nan nan
3.560585 4.7960792 1.6005371 18
1.3728578 1.8391491 -0.61495411 47
1.5433115 2.0652409 -0.59522051 38
1.6797705 2.2445793 -0.54495054 33
1.845297 2.4630733 -0.48744985 32
2.0938799 2.7918308 -0.42849267 19
2.3380578 3.1128669 -0.34060463 14
2.6310794 3.4991765 -0.22944085 18
2.5820053 3.4301708 -0.074940629 8
2.5323141 3.3899491 0.073858589 12
2.3611515 3.1573687 0.20662238 26
2.5492876 3.4052217 0.37215498 6
2.5780406 3.4386261 0.52769434 22
3.0142529 4.0160694 0.79531288 10
4.6229548 6.1527262 1.4959426 12
4.6457658 6.1741071 1.783862 12
3.5730567 4.7433314 1.5912195 3
1.3728329 1.8125806 -0.60926002 52
1.5541587 2.0497584 -0.59387082 22
1.6823398 2.2155981 -0.54075271 42
1.8588611 2.4454126 -0.48651123 28
2.097692 2.7566082 -0.42532405 15
2.339201 3.0695298 -0.33764133 14
2.6384823 3.458493 -0.22797546 22
2.5828269 3.3818674 -0.074277438 13
2.4025168 3.1697917 0.069425672 20
2.3795161 3.1360333 0.20630836 18
2.4283788 3.1969538 0.35123762 36
2.5370827 3.3352289 0.51453239 23
3.1594999 4.1489434 0.82597405 12
4.5539155 5.9735384 1.4600705 12
4.7017646 6.1585612 1.7888108 2
nan nan nan nan
1.3925164 1.8121432 -0.6123659 34
1.5624909 2.0311346 -0.59162134 46
1.7001619 2.2069106 -0.54151595 36
1.862617 2.4151702 -0.48306966 25
2.1229501 2.749754 -0.42654276 27
2.3490751 3.0393486 -0.33607253 14
2.7029049 3.4921103 -0.23142964 16
2.5843272 3.3353004 -0.073649161 15
2.5038226 3.2559791 0.071694486 23
2.437902 3.1668236 0.20944853 17
2.404423 3.1199536 0.34461379 25
2.5227089 3.2687178 0.50697654 22
2.9516759 3.8204007 0.76465172 28
4.9714575 6.4276772 1.579517 43
4.7590852 6.1464453 1.7946596 6
7.2707696 9.3768015 3.1793332 1
1.4324532 1.8374188 -0.62427157 22
1.5634441 2.003278 -0.58667237 41
1.7163543 2.1968331 -0.54189759 33
1.8838824 2.4086587 -0.48432118 23
2.1372001 2.7286134 -0.42556778 16
2.3505664 2.9977887 -0.33328354 17
2.7093475 3.4516356 -0.22996421 16
2.5395799 3.2307105 -0.071729392 28
2.493952 3.1978636 0.07078696 23
2.4446509 3.1312652 0.20819245 10
2.3930101 3.0607135 0.33990738 20
2.5400059 3.2452178 0.50600159 23
2.9873593 3.8126607 0.76715469 18
4.907135 6.2538052 1.5451714 11
7.3743577 9.3879852 2.7561007 2
7.2365079 9.2025709 3.1368871 1
1.4401335 1.8215644 -0.62220097 44
1.5782523 1.9941185 -0.58712232 30
1.7377466 2.1924899 -0.54380566 31
1.863818 2.3490248 -0.47493511 18
2.1458464 2.7015676 -0.42361787 34
2.3714378 2.9813056 -0.33328354 17
2.667439 3.3498287 -0.2244166 13
2.8718848 3.6027038 -0.080420688 17
2.4901626 3.1474407 0.070053965 20
2.4825737 3.1344748 0.20955318 4
2.3890331 3.0131283 0.33642116 15
2.5811141 3.2507265 0.50965762 23
2.9893188 3.7607858 0.76089734 12
4.9703679 6.2463765 1.5516587 14
7.3571358 9.2326384 2.725507 2
7.2596169 9.1004801 3.1192875 5
1.450398 1.8084521 -0.62116575 52
1.5933554 1.9845712 -0.58757222 36
1.7382476 2.1619451 -0.53922629 41
1.9061809 2.3682721 -0.48150533 21
2.1434801 2.660244 -0.4194743 35
2.4022026 2.9770818 -0.33467805 14
2.7083302 3.3528762 -0.22588199 22
2.8416421 3.5141492 -0.078884877 17
2.4782803 3.087872 0.069111533 9
2.5344186 3.154434 0.21206531 9
2.4399796 3.0336373 0.34060463 21
2.5788429 3.2017074 0.50478286 27
2.9770648 3.6921525 0.75119835 15
5.1445684 6.3734565 1.5921104 9
7.3528051 9.0961857 2.7003126 2
7.3642869 9.1006393 3.1368871 1
1.4666463 1.8027773 -0.62271863 41
1.6059419 1.9718872 -0.58712232 38
1.7582617 2.1558428 -0.54075271 41
1.9151725 2.3457258 -0.47962815 26
2.1612051 2.6433008 -0.41923055 15
2.4027352 2.935571 -0.33188906 14
2.7342019 3.3369784 -0.22609136 22
2.6777163 3.2633867 -0.073684059 18
2.5326014 3.1108158 0.070019051 23
2.4377697 2.9911335 0.20222615 10
2.5127378 3.0798249 0.34775141 12
2.6023881 3.1851628 0.50502658 20
2.8839583 3.5260179 0.72147578 60
5.3430581 6.5232925 1.6390493 6
7.4470234 9.0823011 2.7115602 6
7.4276466 9.0490017 3.1368871 15
1.4696686 1.780319 -0.61857754 52
1.616287 1.9558383 -0.58577257 29
1.7782763 2.1495655 -0.54227924 41
1.9293883 2.3289185 -0.47900239 27
2.1682012 2.6143963 -0.41703692 12
2.4040809 2.8957312 -0.32927439 16
2.7426887 3.2988975 -0.22483528 13
2.6799645 3.2200224 -0.073125578 19
2.524971 3.0575953 0.069216244 13
2.4183807 2.9243603 0.19887665 22
2.5524993 3.0832512 0.35019177 8
2.6321599 3.1760888 0.50648904 13
2.8649621 3.4520881 0.71052545 13
7.551384 9.0892258 2.2969587 6
7.5301862 9.0540619 2.7187586 18
7.419261 8.908041 3.1063464 35
1.484543 1.772977 -0.61961281 28
1.6198864 1.9325597 -0.58217335 31
1.7797272 2.1202452 -0.53808141 46
1.9367046 2.3048058 -0.4768123 23
2.1876795 2.600714 -0.41728067 15
2.4088395 2.8605876 -0.32718265 16
2.7386136 3.2476058 -0.22263718 11
2.8004129 3.3173649 -0.075778343 22
2.6328349 3.1421435 0.071554869 17
2.4862289 2.9640231 0.20274951 10
2.5329635 3.0165305 0.34461379 4
2.6599302 3.1632495 0.50746399 12
3.0225637 3.5906832 0.74337667 15
7.6399536 9.0663157 2.3045912 46
7.6459827 9.0638361 2.7376547 36
7.4102135 8.7719059 3.0768409 24
1.5081395 1.7758224 -0.62427157 25
1.6257653 1.9122957 -0.57947397 31
1.7763041 2.0871506 -0.53273875 22
1.9433808 2.2810442 -0.47462222 27
2.2122233 2.5929294 -0.41849938 6
2.4248683 2.8391571 -0.32665971 15
2.7437832 3.2091548 -0.22127645 19
2.659636 3.1063392 -0.07138034 21
2.4495971 2.8833611 0.066039905 24
2.4390624 2.8679166 0.19730657 8
2.5320001 2.9729872 0.34165049 14
2.6569304 3.1163695 0.50283301 33
3.0020516 3.5174372 0.73242623 18
7.7515321 9.0694695 2.3190925 19
3.6930072 4.3163247 1.3114648 17
7.3918324 8.6302986 3.0447474 31
1.5151492 1.7596604 -0.62220097 13
1.6400156 1.9026619 -0.57992387 33
1.7921147 2.076185 -0.53312039 23
1.9682987 2.2778838 -0.4768123 48
2.2129388 2.5582936 -0.41533077 11
2.435008 2.8120422 -0.32543954 18
2.7621949 3.1853943 -0.22096242 17
2.604687 3.0005791 -0.069355868 24
2.4970787 2.8980024 0.066772908 18
2.5255556 2.9279497 0.20264484 15
2.5118117 2.9089355 0.33624685 13
2.687711 3.1082556 0.50453913 13
3.248903 3.7532835 0.78623968 13
2.9763529 3.4347849 0.88344568 2
3.6341927 4.1895146 1.2804215 15
7.3898244 8.507019 3.019383 45
1.5146908 1.7344881 -0.6170246 13
1.6519771 1.8896983 -0.57947397 36
1.8036196 2.0609834 -0.53235716 30
1.9980767 2.2807777 -0.48025388 23
2.22158 2.5323374 -0.41362458 12
2.4348583 2.7725198 -0.32282487 13
2.795682 3.1800194 -0.22190447 17
2.6876762 3.052865 -0.070996389 12
2.5022738 2.8643734 0.066388957 23
2.5598881 2.9272301 0.20379624 11
2.4624894 2.8118885 0.32700834 23
2.8017163 3.1958702 0.52184457 3
3.1323509 3.569248 0.75213701 15
7.9834118 9.0841312 2.3507669 2
3.8860366 4.4171605 1.3582546 15
2.8574724 3.2445908 1.1584741 15
1.5136552 1.7096741 -0.61184824 20
1.675141 1.8900775 -0.58307314 27
1.8140544 2.0439365 -0.53121227 39
1.9929584 2.2431452 -0.47524795 18
2.2229359 2.4993563 -0.41069973 12
2.4497006 2.7514167 -0.32230192 12
2.8404102 3.1857672 -0.22368389 22
2.5938797 2.9061971 -0.067994572 17
2.4956884 2.8168993 0.06569086 24
2.4424372 2.753885 0.19291034 11
2.510674 2.8278396 0.33084321 14
2.6709552 3.0041449 0.49357089 22
2.9838347 3.3525183 0.71083826 6
3.736511 4.1937718 1.0918092 3
8.6297531 9.6756277 2.9931989 5
nan nan nan nan
1.5397514 1.7148771 -0.61754227 17
1.677874 1.8667423 -0.57947397 31
1.8371162 2.0417583 -0.53388357 31
1.9896713 2.2089801 -0.47086781 31
2.2243745 2.4660888 -0.40777487 16
2.4728539 2.7386851 -0.32282487 16
2.8312244 3.1322818 -0.22127645 17
2.5818992 2.8524365 -0.067156859 20
