# .PCD v0.7 - Point Cloud Data file format
VERSION 0.7
FIELDS x y z intensity
SIZE 4 4 4 4
TYPE F F F F
COUNT 1 1 1 1
WIDTH 1379
HEIGHT 1
VIEWPOINT 0 0 0 1 0 0 0
POINTS 1379
DATA ascii
1.7205828 -3.100184 0.68920213 24
2.601891 -4.6939359 1.2390305 33
1.959664 -3.5411556 1.0844518 42
1.2242284 -2.2259426 -0.6806941 22
1.3275768 -2.4168506 -0.63661152 6
1.4627256 -2.6661971 -0.59112626 11
1.6507059 -3.012579 -0.54407912 15
1.9701427 -3.6015232 -0.50405163 13
2.0977662 -3.8395984 -0.382788 38
2.1439283 -3.9289789 -0.23456979 28
2.4480035 -4.4936872 -0.089321412 22
nan nan nan nan
1.9321531 -3.5189371 0.21039055 13
nan nan nan nan
1.8512855 -3.3814418 0.47334057 2
1.9721953 -3.6067698 0.65108031 37
1.6471591 -3.0173435 0.66821313 11
2.2490919 -4.1251259 1.0847141 29
1.8357368 -3.3711779 1.0285469 10
1.2044517 -2.2257288 -0.67810595 15
1.3166543 -2.4361176 -0.63931096 7
1.4487382 -2.6849828 -0.59303439 10
1.6493134 -3.0605478 -0.5506494 15
1.9502863 -3.6235898 -0.50527036 10
2.0866759 -3.8818672 -0.38557699 38
2.1202247 -3.9508896 -0.23498847 35
2.1538026 -4.018508 -0.079582974 24
2.2303379 -4.1249237 0.08185178 37
2.5775514 -4.7730532 0.28428894 5
2.0466957 -3.7947769 0.37721002 10
1.8191637 -3.3785529 0.47114691 2
1.7186825 -3.1959476 0.57474029 12
1.6507355 -3.0734544 0.67813522 20
nan nan nan nan
nan nan nan nan
1.1970516 -2.2494318 -0.68276465 16
1.2886403 -2.4246001 -0.63391209 6
1.4341108 -2.7017181 -0.59456086 10
1.6090126 -3.0350521 -0.54407912 17
1.9267989 -3.6406257 -0.50575781 12
2.0446272 -3.8681571 -0.382788 44
2.1510928 -4.0747375 -0.24147813 16
2.384881 -4.5252433 -0.089286514 22
2.2087829 -4.1523676 0.082096115 26
2.2470233 -4.229598 0.25100327 24
1.9090638 -3.5995152 0.35646698 37
1.7636029 -3.3294606 0.46261609 10
1.7467703 -3.301861 0.59163523 34
1.6356564 -3.0970557 0.68080652 20
1.6992337 -3.2215202 0.8408671 13
2.1870553 -4.1516314 1.2573429 1
1.1836103 -2.2630758 -0.68431759 21
1.2748662 -2.4406688 -0.63571173 10
1.4183732 -2.7188737 -0.59608734 13
1.6077077 -3.0870614 -0.55127513 15
1.9089417 -3.6701705 -0.5079515 25
2.0793495 -4.0029178 -0.39464122 51
2.1301579 -4.1059818 -0.24242018 24
2.3375924 -4.5115986 -0.088693127 24
2.4820597 -4.7497611 0.0935449 13
1.9830894 -3.7997584 0.22462595 11
1.8979921 -3.6413522 0.35925597 41
2.1219604 -4.0762482 0.56425512 3
1.7130748 -3.294997 0.58819366 34
1.7662969 -3.4031692 0.74529999 10
1.7622317 -3.399689 0.8840577 24
1.9219341 -3.7125432 1.1201688 2
1.1743644 -2.2831051 -0.68794107 28
1.2689093 -2.4700906 -0.64111054 7
1.3962488 -2.7214782 -0.59456086 16
1.5727854 -3.0695279 -0.54626918 12
1.8709941 -3.6562426 -0.50429535 12
2.0928414 -4.0968213 -0.40248519 20
2.0540533 -4.026094 -0.23687255 30
2.0135953 -3.9519033 -0.077418879 24
1.9613177 -3.8146734 0.074870825 7
3.4394569 -6.6982102 0.39461315 2
1.874071 -3.6559598 0.35943025 46
2.4116828 -4.7108135 0.64980739 12
1.7022976 -3.3294458 0.59226096 12
1.5945859 -3.1228104 0.68156981 4
1.5581555 -3.0554152 0.7918278 50
1.7695354 -3.4759071 1.0451113 22
1.157452 -2.2873962 -0.68690574 21
1.2507414 -2.4749737 -0.64021075 12
1.3821137 -2.7396834 -0.59646893 11
1.5900744 -3.1560197 -0.55972254 16
1.8588022 -3.695817 -0.5079515 16
1.9763728 -3.934711 -0.38522837 40
1.9934665 -3.9739282 -0.2329997 22
1.9859574 -3.9658642 -0.077418879 37
1.8613228 -3.6815991 0.072008632 26
1.9930607 -3.9473009 0.23174362 33
1.9009169 -3.7697124 0.36936605 33
nan nan nan nan
2.7629473 -5.4958987 0.97427392 1
nan nan nan nan
1.7480953 -3.4878235 0.90070409 34
1.5945116 -3.185555 0.9545247 8
1.1427742 -2.2990799 -0.68794107 27
1.2416638 -2.5013151 -0.64470977 16
1.3847538 -2.7932391 -0.60600942 16
1.5621928 -3.1566944 -0.55784535 12
1.8417513 -3.7265 -0.51038885 13
1.9629648 -3.9769988 -0.38801736 48
1.9226073 -3.9020951 -0.22797546 46
1.9582219 -3.9796321 -0.077418879 32
2.1523299 -4.3320427 0.084434748 24
1.8343117 -3.6984384 0.21635687 22
nan nan nan nan
nan nan nan nan
1.6451498 -3.3316345 0.58850652 5
1.671526 -3.3895195 0.73461467 10
2.1894989 -4.4457312 1.1441011 4
1.564005 -3.1812801 0.94986594 13
1.1300871 -2.3139455 -0.69001162 27
1.2310053 -2.5239348 -0.64830899 18
1.362152 -2.7977815 -0.60486454 28
1.5461632 -3.1799593 -0.56003547 24
1.8122221 -3.7321243 -0.5094139 4
1.9535749 -4.0303864 -0.39185223 55
2.0154083 -4.163507 -0.24242018 16
1.8929676 -3.9157906 -0.075917974 42
1.9678142 -4.0328307 0.078326404 25
1.814572 -3.723722 0.21708956 37
2.327821 -4.7833295 0.46541166 33
1.7417468 -3.5853922 0.48942733 11
1.8537904 -3.8211231 0.67266828 1
1.5938932 -3.2897975 0.71057272 11
3.1104496 -6.4314075 1.6493412 2
1.5829269 -3.2773607 0.97523022 26
1.1147407 -2.3235204 -0.69052929 24
1.215881 -2.5377395 -0.64965874 27
1.3366579 -2.7948248 -0.60219324 23
1.5426555 -3.2298908 -0.56691855 19
1.7912508 -3.755435 -0.51087636 16
1.9211074 -4.0349326 -0.39098063 42
1.9494138 -4.0999141 -0.23791927 24
1.9822365 -4.1745801 -0.080665022 19
1.8739213 -3.9094236 0.07567364 13
1.96359 -4.1020026 0.23833798 28
1.9747055 -4.130775 0.40056777 10
1.8166988 -3.8070776 0.51794475 5
1.7454879 -3.6627805 0.6426329 19
1.5717317 -3.3026171 0.71095431 2
1.8337656 -3.8601623 0.98663539 12
1.5840213 -3.3389482 0.99024171 40
1.1017865 -2.3382363 -0.69259977 19
1.1973054 -2.5444026 -0.64920878 34
1.3162791 -2.8023114 -0.60181159 22
1.5183916 -3.237005 -0.56629282 26
1.7649894 -3.7678487 -0.51087636 19
1.9815024 -4.2377534 -0.40928334 22
1.8759571 -4.0175099 -0.23237166 22
1.9268459 -4.1321349 -0.079582974 39
1.9300536 -4.0997152 0.079094306 22
1.8983656 -4.0378895 0.23383708 9
1.7586889 -3.7458851 0.36204496 7
1.8658912 -3.9814422 0.53988123 7
1.7039651 -3.6408837 0.63668835 16
2.0349238 -4.3539834 0.93420094 27
1.9031662 -4.0794945 1.039274 10
1.6781512 -3.6020892 1.0647817 8
1.083002 -2.3406112 -0.69104689 27
1.1786956 -2.5509303 -0.64875889 21
1.3172394 -2.8560019 -0.61135209 27
1.5031935 -3.2636745 -0.56910866 15
1.7568911 -3.8197546 -0.51623857 3
1.9626763 -4.275022 -0.41154939 18
2.0934145 -4.5660944 -0.26324987 13
1.9462323 -4.2509408 -0.081607454 5
1.9248804 -4.1639132 0.080071643 33
1.7152619 -3.7155728 0.21447276 6
1.7199827 -3.7309308 0.35943025 30
1.6588089 -3.6048527 0.48723367 20
1.6727318 -3.6401265 0.6344983 15
1.6777673 -3.6561286 0.78193527 2
1.9858197 -4.3354068 1.1009105 17
2.8181539 -6.1610622 1.8153569 21
1.0626401 -2.3393207 -0.68845868 20
1.160053 -2.5573225 -0.64830899 18
1.3013178 -2.8740704 -0.61326015 16
1.4640954 -3.2380905 -0.56285131 19
1.7260972 -3.8228815 -0.51501989 15
1.8262496 -4.0503473 -0.38871458 30
1.8746001 -4.165339 -0.2393847 24
1.8927368 -4.2115288 -0.08059521 19
1.9056804 -4.199101 0.080490492 28
1.7164875 -3.7874892 0.21792693 2
1.6889651 -3.7319567 0.3583844 15
1.6317807 -3.6106331 0.48650244 28
1.7252561 -3.8245771 0.66453367 10
1.6820368 -3.7339838 0.7960552 7
1.5829186 -3.5188684 0.89080626 8
2.2877326 -5.0928125 1.4959742 4
1.0616453 -2.3800211 -0.69829381 12
1.1449981 -2.5704997 -0.64965874 24
1.2777365 -2.8738921 -0.61135209 23
1.4396161 -3.2425649 -0.56191266 37
1.7072771 -3.8508744 -0.51721358 13
1.7954117 -4.055397 -0.38801736 22
1.8381314 -4.1597338 -0.23833798 20
1.8712915 -4.2407804 -0.080909356 17
1.7289087 -3.8795466 0.074137822 11
1.8400824 -4.1348348 0.23718657 1
1.6076956 -3.6177385 0.34635693 21
1.6039459 -3.6143987 0.48552752 39
1.6671834 -3.7639868 0.6520189 1
1.6684939 -3.7722781 0.80177945 51
1.5801884 -3.5776918 0.90295362 13
2.0401864 -4.6257215 1.354659 7
1.05007 -2.3978097 -0.70139962 12
1.1266938 -2.5764484 -0.64920878 6
1.2864182 -2.9472983 -0.6250903 22
1.4230365 -3.2649646 -0.56410277 45
1.6787676 -3.8590589 -0.51672608 13
1.8742224 -4.3145337 -0.41154939 24
1.8256708 -4.2087951 -0.24043141 12
1.7677523 -4.0830779 -0.077663213 35
1.626316 -3.7171826 0.070821866 31
1.752725 -4.0118289 0.22944085 2
1.591 -3.6468596 0.34810004 25
1.571541 -3.6091278 0.48333386 41
4.8757372 -11.213428 1.9366589 1
1.6538416 -3.810849 0.80750376 15
1.640409 -3.7853229 0.95244282 4
1.9234478 -4.4448256 1.2977188 12
1.0366962 -2.4141378 -0.70398778 12
1.1274284 -2.6292205 -0.66045636 19
1.2696748 -2.9652312 -0.62699842 15
1.406623 -3.2914119 -0.56691855 34
1.6486692 -3.8633816 -0.51575112 13
1.7339278 -4.0690722 -0.38697147 18
1.6813823 -3.9534121 -0.2251493 15
1.6094475 -3.7897809 -0.071869008 24
1.7762116 -4.138226 0.078605637 12
1.5808321 -3.6901362 0.21039055 4
1.5938568 -3.7259281 0.35454956 45
1.5634618 -3.6601727 0.48869613 32
nan nan nan nan
nan nan nan nan
1.67722 -3.9455371 0.98978466 19
1.9549721 -4.607862 1.3412004 13
1.0145687 -2.4088538 -0.70036435 22
1.1105571 -2.6406195 -0.66135615 9
1.2431049 -2.9615691 -0.62432706 16
1.3958277 -3.330301 -0.57192445 16
1.6377513 -3.9132519 -0.52086961 15
1.7608236 -4.2155838 -0.39969626 17
1.6483595 -3.9521506 -0.2244166 33
1.671362 -4.0132151 -0.075883061 21
1.6356491 -3.8872564 0.073614255 31
1.6672111 -3.9680765 0.22556801 16
1.566265 -3.73329 0.35420093 40
1.5280299 -3.6492944 0.48577127 38
nan nan nan nan
4.886889 -11.70543 2.4656341 35
1.6526909 -3.9664321 0.99203426 40
1.5049592 -3.6172113 1.0497701 20
0.99698961 -2.4140925 -0.69984674 24
1.0980384 -2.6627209 -0.66495538 10
1.218663 -2.9610977 -0.62241894 22
1.3920662 -3.3874695 -0.58005905 18
1.6179281 -3.9429553 -0.52330703 22
1.6837825 -4.1116152 -0.38871458 14
1.6456739 -4.0245681 -0.22787078 13
1.5964386 -3.9100034 -0.073718965 34
1.6046575 -3.8893375 0.073439725 27
1.7786895 -4.3175631 0.24472295 15
1.5386477 -3.7404485 0.35385233 32
1.5266404 -3.7186365 0.49357089 41
nan nan nan nan
4.8556223 -11.862813 2.4915841 12
1.6544379 -4.050034 1.0100303 18
nan nan nan nan
0.98591113 -2.4353192 -0.70398778 28
1.0757707 -2.6612883 -0.66270584 21
1.1986958 -2.971354 -0.62280059 23
1.3698593 -3.4007699 -0.58068478 18
1.5962877 -3.9688885 -0.52525693 13
1.5970997 -3.9769201 -0.37494397 18
1.6933253 -4.2250571 -0.23854731 24
1.5601885 -3.8987746 -0.073300108 30
nan nan nan nan
1.5233972 -3.7724366 0.21321672 23
1.8708767 -4.6399064 0.43769613 9
1.5577041 -3.8710055 0.51233876 10
1.5009291 -3.7355618 0.63762695 28
4.8253174 -12.027612 2.5190604 18
nan nan nan nan
1.5174146 -3.7957277 1.0953223 23
0.97387242 -2.4547131 -0.70761132 21
1.0571653 -2.6687338 -0.66270584 11
1.1827751 -2.9903984 -0.6250903 20
1.3466796 -3.4100153 -0.58068478 12
1.5721804 -3.9891696 -0.52647561 19
1.5992094 -4.0639877 -0.38209078 22
1.6550319 -4.2123194 -0.23718657 14
1.5475312 -3.9468055 -0.073998205 27
1.6356484 -4.1248641 0.077453777 11
1.5476804 -3.9089944 0.2203344 4
1.5697385 -3.9728074 0.3737238 35
1.519663 -3.8519738 0.50843894 15
1.4247887 -3.6170371 0.61572611 50
nan nan nan nan
1.4852321 -3.7840319 0.93849593 16
1.4774454 -3.7699952 1.0849695 8
0.96274287 -2.4756889 -0.71175241 12
1.0439129 -2.6885839 -0.66585517 20
1.1703813 -3.0205505 -0.62966973 16
1.3278296 -3.43223 -0.58287489 16
1.5471364 -4.0053344 -0.52720684 22
1.5700758 -4.0710611 -0.38174215 30
1.5696291 -4.0783811 -0.22902218 22
1.508437 -3.9255152 -0.073404826 31
1.6017427 -4.1231346 0.07720945 15
1.474851 -3.802392 0.21374007 15
1.5074033 -3.8923619 0.36518255 27
1.5406798 -3.9865475 0.52476943 11
1.3945243 -3.6139951 0.61353606 11
4.7719545 -12.386118 2.5801194 27
1.4545431 -3.7813218 0.93534648 16
1.7910157 -4.6657548 1.3391298 12
0.94131023 -2.4715178 -0.7086466 13
1.0230397 -2.6903419 -0.66450548 37
1.1484005 -3.024776 -0.62890649 20
1.3163399 -3.4725897 -0.58819366 18
1.5373967 -4.0643115 -0.53354406 11
1.605674 -4.2515368 -0.3976045 27
1.5164636 -4.0216937 -0.22525398 26
1.4831077 -3.9415653 -0.073509537 27
1.5352247 -4.0330224 0.07532458 27
1.4680934 -3.862751 0.21656621 4
1.4540514 -3.8338625 0.35873303 37
1.5057753 -3.9765215 0.52208835 15
nan nan nan nan
nan nan nan nan
1.4988626 -3.9792216 0.98168647 15
1.7700958 -4.7067699 1.347412 16
0.92514086 -2.4796777 -0.70916426 13
1.0149072 -2.7246356 -0.67125398 22
1.1375158 -3.0603232 -0.63463074 22
1.2913773 -3.4798429 -0.58788079 16
1.5241796 -4.1137719 -0.53866255 14
1.5117 -4.0888486 -0.38139355 38
1.5858678 -4.2963724 -0.24001274 12
1.5682626 -4.2555356 -0.079164118 16
1.5182048 -4.0736227 0.075883061 16
1.4222847 -3.8223653 0.21374007 11
1.4542879 -3.914643 0.36535689 10
1.4289882 -3.8547831 0.50478286 32
1.7484127 -4.7240391 0.79781592 16
nan nan nan nan
2.5659027 -6.9589243 1.7123276 36
1.3454409 -3.6548324 1.0435584 28
0.91840929 -2.5151103 -0.71744639 12
0.98651642 -2.7060223 -0.66495538 14
1.1214926 -3.0829496 -0.63768369 28
1.2710979 -3.4999142 -0.58975804 16
1.4866265 -4.1000519 -0.53549391 17
1.5007414 -4.1480136 -0.38592559 28
1.5592275 -4.3167315 -0.24053608 12
1.5181648 -4.2099466 -0.078116976 21
1.795349 -4.9219871 0.091450609 10
1.6477507 -4.5247002 0.25236401 6
1.4548349 -4.0014715 0.37250364 36
1.4149048 -3.9001212 0.5094139 11
1.7113545 -4.7249866 0.79593867 30
2.7745769 -7.673048 1.5860044 2
2.5199044 -6.9839997 1.7141272 6
1.329059 -3.6895816 1.0508054 31
0.90342796 -2.5287375 -0.71951699 9
0.9780758 -2.7422111 -0.67215377 15
1.1085 -3.114749 -0.64264476 24
1.2545699 -3.531039 -0.59351242 19
1.4772118 -4.1645861 -0.54256237 4
1.4664283 -4.1433644 -0.38453114 30
1.4744914 -4.1730924 -0.23195298 33
1.4488245 -4.1072946 -0.076022685 37
1.4853764 -4.1622238 0.077139638 11
1.4653025 -4.1127748 0.22881283 9
1.4028275 -3.9439518 0.36622843 36
1.5662433 -4.4131403 0.57497966 33
1.6717288 -4.7181988 0.79280996 31
1.6662163 -4.7104731 0.97121781 6
4.466763 -12.655852 3.0984762 9
1.3405045 -3.8044491 1.0808283 8
0.87874275 -2.5149219 -0.71382296 19
0.97046113 -2.7820928 -0.68025202 27
1.084792 -3.1168492 -0.64149988 28
1.2350745 -3.5546389 -0.59601539 36
1.4441987 -4.1635442 -0.54109991 16
1.4465896 -4.1798606 -0.38697147 30
1.4955435 -4.3286424 -0.24001274 14
1.6111587 -4.6711988 -0.086249799 16
1.5234953 -4.3650689 0.080699928 35
1.4299825 -4.104044 0.22776611 35
1.3634771 -3.9197772 0.36309084 41
1.4716107 -4.2401824 0.55109322 42
1.6393957 -4.7316217 0.79312283 33
1.6050528 -4.6403537 0.95442665 56
2.5200498 -7.3021903 1.7834121 36
1.2667172 -3.6767278 1.0420054 4
0.86865771 -2.542933 -0.7200346 22
0.95604664 -2.8035557 -0.68385124 12
1.0623733 -3.122488 -0.64111823 37
1.2343695 -3.6342514 -0.60790437 9
1.4259329 -4.2054849 -0.54524344 13
1.4582351 -4.3106465 -0.39812744 31
1.5253563 -4.5168505 -0.24985188 21
1.3632292 -4.0437465 -0.074486867 37
1.4839443 -4.3491025 0.080211259 9
nan nan nan nan
1.3360785 -3.9292006 0.36309084 33
1.4394221 -4.2428331 0.55011827 41
1.3794732 -4.0731378 0.68111575 40
1.4500028 -4.2887778 0.88001108 3
1.6318883 -4.837883 1.1787436 4
1.2656782 -3.7587156 1.0627111 1
0.85210693 -2.5526004 -0.72106987 10
0.94445997 -2.8341961 -0.68970001 20
1.0424069 -3.1354175 -0.64226311 37
1.2008791 -3.6184072 -0.60383707 13
1.3984112 -4.2209902 -0.54597467 19
1.3918402 -4.2110009 -0.38801736 30
1.4894049 -4.5141125 -0.24911918 8
1.35123 -4.1025472 -0.075394399 30
1.4725221 -4.4162669 0.081258401 23
1.3088346 -3.9322102 0.21719423 39
1.3199238 -3.9724658 0.36622843 26
1.4828473 -4.473237 0.57863569 21
1.4136834 -4.2720809 0.71271551 6
2.450254 -7.4175673 1.518458 2
2.5160511 -7.6346459 1.8558463 4
1.281062 -3.8940821 1.0984281 42
0.8384586 -2.5713437 -0.72469336 15
0.92404729 -2.8388674 -0.68925005 22
1.0265558 -3.1612911 -0.6460793 22
1.1792434 -3.6379778 -0.60571432 12
1.3744097 -4.2476482 -0.54816836 11
1.4119836 -4.3741956 -0.40213659 29
1.3972124 -4.3362007 -0.23875666 24
1.3397002 -4.1651831 -0.076371737 21
1.3462875 -4.133625 0.075883061 27
1.420293 -4.3686166 0.24074543 31
1.3056896 -4.0232759 0.37006328 12
1.3433557 -4.1492023 0.53549391 28
1.4202726 -4.3946252 0.73148763 28
1.4936572 -4.6299753 0.94564945 49
1.4728383 -4.5763745 1.1099086 19
1.1988938 -3.731878 1.0502877 30
0.82458913 -2.5900199 -0.72831684 13
0.90479672 -2.8471065 -0.68970001 28
1.0056477 -3.1721234 -0.64684254 33
1.1711006 -3.7007382 -0.61478752 18
1.3465157 -4.2628188 -0.54889959 14
1.4293147 -4.5359688 -0.41608149 30
1.3339467 -4.2410612 -0.2329997 46
1.5226313 -4.8498225 -0.088728033 15
1.4313207 -4.5011892 0.082445174 13
1.2538048 -3.9501011 0.21719423 9
1.4424564 -4.5527115 0.41782463 7
1.3741809 -4.3477592 0.5598678 8
1.3509259 -4.2819834 0.71115112 39
1.4901932 -4.7320476 0.96434873 17
2.3437967 -7.4608054 1.8054572 2
1.2248338 -3.9060588 1.0968752 38
0.81049967 -2.6086276 -0.73194027 10
0.88662982 -2.8589373 -0.69104964 28
0.98115677 -3.1715648 -0.64531606 39
1.1469845 -3.7144859 -0.61572611 19
1.3301713 -4.3157468 -0.55450553 11
1.3859036 -4.5077481 -0.41259527 31
1.2996196 -4.2349954 -0.23216233 31
1.3692631 -4.470284 -0.081607454 7
1.3749698 -4.4308581 0.080979168 12
1.2462895 -4.0236249 0.2207531 13
1.269397 -4.1058326 0.37598985 37
1.3566653 -4.3989792 0.56523001 7
1.2727625 -4.1346102 0.68518305 7
2.1294608 -6.9305286 1.4093152 3
1.2426211 -4.0543046 0.97898704 22
1.2144887 -3.9699345 1.1124043 39
0.79506981 -2.6234663 -0.73452848 9
0.86439216 -2.8575966 -0.68925005 22
0.95785731 -3.1745782 -0.64455283 50
1.1124805 -3.6940308 -0.61103308 16
1.3045812 -4.3401361 -0.55645543 19
1.3910209 -4.6394553 -0.42375124 30
1.270022 -4.2439651 -0.23216233 39
1.3231421 -4.4299164 -0.080699928 10
1.2681143 -4.1896224 0.076406635 7
1.2245234 -4.0532584 0.22190447 33
1.2326493 -4.0878892 0.37354952 41
1.2447311 -4.1384058 0.53061914 7
1.3319026 -4.4366488 0.73367769 7
1.2222433 -4.0791216 0.82772946 20
1.2254472 -4.1002235 0.98798507 9
1.1558189 -3.8746471 1.0834166 35
0.7778303 -2.6326585 -0.73556381 13
0.85213798 -2.88973 -0.69554871 36
0.94675082 -3.2188573 -0.6521852 17
1.0783181 -3.6732764 -0.60634005 12
1.2775984 -4.360568 -0.55791789 14
1.2744113 -4.3581452 -0.39725587 27
1.2565802 -4.3083324 -0.23519783 37
1.2899476 -4.431366 -0.080560312 1
1.4233295 -4.8236222 0.087785602 18
1.2283583 -4.1709142 0.22787078 8
1.2102618 -4.1174212 0.37546691 17
1.2046402 -4.1088967 0.52574438 7
1.3380655 -4.5728631 0.75463998 10
1.1882323 -4.0687094 0.82391334 17
1.2133238 -4.1627254 1.0010322 6
1.1287405 -3.882622 1.0834166 27
0.76050109 -2.6417375 -0.73659903 13
0.81795216 -2.8469112 -0.68385124 22
0.9302305 -3.2440989 -0.65600139 27
1.0712256 -3.7432027 -0.61666471 19
1.2525733 -4.3884702 -0.56035525 14
1.259238 -4.420589 -0.40213659 19
1.2561723 -4.4186058 -0.24074543 18
1.2344326 -4.3536897 -0.078989588 9
1.3241194 -4.6025887 0.083597034 4
1.1955298 -4.1638217 0.22703341 15
1.2182375 -4.2541022 0.38714582 8
1.3119285 -4.5903516 0.58619159 1
1.2711468 -4.4564905 0.73399061 24
1.1775262 -4.1392207 0.83650672 35
1.3667912 -4.8140993 1.1553487 24
1.0801672 -3.8121502 1.0616758 28
0.74719745 -2.6635933 -0.74125779 10
0.807486 -2.8843148 -0.69149959 16
0.9117834 -3.2656415 -0.65905434 23
1.0519599 -3.7753274 -0.62073201 18
1.2317144 -4.4294071 -0.5644989 15
1.2301848 -4.4328971 -0.40248519 13
1.2066481 -4.3598962 -0.2370819 38
1.1925249 -4.3176579 -0.07818678 14
1.2051055 -4.3017054 0.077977359 5
1.1610545 -4.1528316 0.22598669 16
1.2738554 -4.5655117 0.41468704 17
1.0941252 -3.9319596 0.50112677 10
1.1612486 -4.1816573 0.6873731 51
1.1682 -4.21525 0.85024494 25
nan nan nan nan
1.0468493 -3.7953882 1.0549464 9
0.72858447 -2.6687446 -0.74125779 24
0.80321014 -2.9481683 -0.70544654 12
0.89416987 -3.2888224 -0.66248888 17
1.0345137 -3.8129036 -0.62573791 21
1.2017981 -4.4417305 -0.56498629 15
1.3103509 -4.8530078 -0.43978783 12
1.1873362 -4.4065776 -0.23917533 14
1.1654664 -4.3374653 -0.078396209 14
1.2173761 -4.4622145 0.080734834 11
1.1164954 -4.1008978 0.22274184 38
1.2048856 -4.4377756 0.40231091 20
1.1618184 -4.2880301 0.54548723 35
1.148742 -4.248579 0.69707209 13
1.1688992 -4.3351402 0.87276042 28
1.9656203 -7.3051839 1.7465202 2
1.0635742 -3.9610157 1.0989457 19
0.70940977 -2.669908 -0.74022251 20
0.78162569 -2.9479163 -0.70409685 7
0.86968267 -3.2892907 -0.66134399 16
1.0038384 -3.8047528 -0.62323499 19
1.1821505 -4.4901209 -0.57010484 24
1.3963419 -5.3187571 -0.48109969 20
1.1519883 -4.3973708 -0.23823328 24
1.1703068 -4.4768567 -0.08076974 12
1.1651684 -4.3913589 0.079303734 9
1.0914173 -4.1221066 0.22347455 34
1.1975534 -4.532558 0.41015494 13
1.170796 -4.4438443 0.56425512 18
1.1064966 -4.2087336 0.68925035 48
1.1264113 -4.293623 0.86283833 17
1.0761456 -4.1137214 0.98168647 19
1.0183299 -3.9010525 1.0803107 24
0.68737215 -2.6617022 -0.73659903 10
0.76297212 -2.9608495 -0.7058965 8
0.85011786 -3.3085926 -0.66401535 15
0.98068637 -3.8250625 -0.62542504 19
1.1414268 -4.4617248 -0.56547379 24
1.2207966 -4.7858853 -0.43211815 10
1.1148564 -4.3801441 -0.23687255 38
1.1498531 -4.5275574 -0.081537649 12
1.1329845 -4.3935771 0.079199016 11
1.0651016 -4.1392975 0.22399792 37
1.1708363 -4.5601053 0.41189805 15
1.1446671 -4.4711409 0.56669247 10
1.0335734 -4.0460172 0.66140497 16
1.1080468 -4.3470397 0.87199712 8
1.0718817 -4.2174568 1.0046314 30
nan nan nan nan
0.67817265 -2.7039123 -0.74695182 13
0.74417526 -2.9736657 -0.70769608 8
0.83032584 -3.3277807 -0.66668665 16
0.95777631 -3.847151 -0.62792808 19
1.1270002 -4.5370135 -0.57400465 17
1.2016122 -4.8482327 -0.4369989 7
1.091917 -4.4188433 -0.23854731 24
1.0387543 -4.2131763 -0.075743444 11
1.1090856 -4.4285364 0.079687685 12
1.0473145 -4.1911993 0.22640537 33
1.1447563 -4.5913668 0.41398975 11
2.1128731 -8.499548 1.0753752 35
1.0918506 -4.4020796 0.71834713 13
1.1465296 -4.6329112 0.92771345 4
0.99222994 -4.0184364 0.95559216 18
1.038574 -4.2187777 1.1641681 16
0.66202056 -2.7198434 -0.75005764 6
0.72523648 -2.9863632 -0.70949566 11
0.82198709 -3.3925047 -0.67851686 22
0.94038677 -3.8900623 -0.63387251 16
1.0957637 -4.546701 -0.57424843 17
1.1164995 -4.6434135 -0.41782463 14
1.1983258 -4.9952254 -0.26921618 15
1.071643 -4.4809351 -0.080420688 17
1.0689914 -4.3951793 0.078954689 12
1.023472 -4.2176399 0.22745208 15
1.1192336 -4.626358 0.41643015 15
2.054039 -8.5098734 1.0748878 7
1.0054389 -4.1751113 0.68017709 33
0.95970696 -3.9974661 0.79910809 40
1.0254326 -4.2811084 1.0163289 15
1.0120786 -4.2351441 1.1667564 33
0.64882123 -2.7468476 -0.75626928 18
0.70891541 -3.0083015 -0.71354479 10
0.79828286 -3.3981607 -0.67851686 16
0.90960014 -3.8811467 -0.63136959 16
1.0630922 -4.5503731 -0.57376093 15
1.045614 -4.4861622 -0.40300813 51
1.0526001 -4.5268559 -0.24357156 12
1.0078236 -4.3480477 -0.07790754 19
1.0410358 -4.4142132 0.079164118 6
0.97890753 -4.1605248 0.22399792 26
1.0713267 -4.5640411 0.41015494 18
1.9905081 -8.5066099 1.0726941 7
0.97402149 -4.1724114 0.67861283 12
0.99674219 -4.2832441 0.8548243 23
0.98935068 -4.2615871 1.0100303 28
nan nan nan nan
0.6269958 -2.7420039 -0.75368112 22
0.68997073 -3.0246971 -0.71624422 11
0.773669 -3.3998222 -0.67775363 15
0.88005614 -3.8798504 -0.63011813 19
1.0418133 -4.6041517 -0.57961065 24
1.0243592 -4.538053 -0.40701729 22
1.015795 -4.5147867 -0.24252485 12
0.96299243 -4.2905893 -0.076755688 16
0.99504948 -4.3550916 0.077977359 6
0.96640742 -4.243372 0.22808012 26
1.0611521 -4.6706772 0.41904479 7
1.9065026 -8.4118824 1.0590447 2
0.9380458 -4.1522985 0.67423266 12
0.91243237 -4.0487804 0.80674046 7
0.9527362 -4.2379699 1.0028318 25
0.90479749 -4.0378962 1.1087809 15
0.60783768 -2.7463143 -0.75368112 24
0.67429948 -3.0541778 -0.72209293 10
0.75564939 -3.4340324 -0.68347788 20
0.85464281 -3.8936174 -0.63136959 17
1.0168626 -4.6442785 -0.58375424 17
0.99690396 -4.564559 -0.4087604 13
0.97193259 -4.4651728 -0.23948936 24
0.97162604 -4.4750371 -0.079932027 7
0.95566213 -4.3250012 0.077314161 11
0.96771252 -4.3904471 0.23561651 15
1.0670242 -4.8531041 0.43473285 16
4.0103564 -18.301054 2.300406 16
0.9065035 -4.1471672 0.67235541 9
0.96528149 -4.4271808 0.88077438 5
0.93265224 -4.2883153 1.0131797 31
1.0042675 -4.633173 1.2702839 13
0.59228867 -2.7674925 -0.75833982 27
0.65174043 -3.0530937 -0.72074324 18
0.73839027 -3.4678993 -0.68920213 17
0.83796912 -3.9457195 -0.63887841 16
0.99428052 -4.6978741 -0.58960396 14
1.04814 -4.9651923 -0.44397137 5
0.96209174 -4.5694056 -0.24472295 14
0.92804152 -4.4229984 -0.078884877 9
0.9245286 -4.3235841 0.077174544 11
0.92364067 -4.3305187 0.23205765 18
1.0252465 -4.8234067 0.43142092 18
3.8881624 -18.339579 2.3018682 5
0.87539339 -4.1397133 0.67016536 6
nan nan nan nan
nan nan nan nan
0.8815406 -4.2050285 1.1512272 11
0.57735169 -2.7903776 -0.76351619 30
0.6313377 -3.0593677 -0.72119313 12
0.71692985 -3.4864309 -0.69187343 20
0.81238675 -3.9611487 -0.64044279 14
0.96586025 -4.7220368 -0.59179759 40
0.95137954 -4.6678362 -0.41677874 4
0.91703981 -4.5114217 -0.24126878 12
0.91023022 -4.4899683 -0.079966925 21
0.91454607 -4.4278512 0.078919783 13
0.89902711 -4.3642483 0.23352307 25
0.9799614 -4.7697725 0.42601725 11
1.6901041 -8.2554903 1.0346708 1
1.4657153 -7.178566 1.160431 21
nan nan nan nan
0.85098618 -4.1939688 0.98798507 28
1.1257441 -5.5630193 1.5208209 19
0.5586136 -2.7981296 -0.76455152 34
0.61300802 -3.0789905 -0.72479236 20
0.69448292 -3.5009794 -0.69378155 9
0.79314697 -4.0093555 -0.64732587 13
0.92249686 -4.6760802 -0.58521664 21
0.94950968 -4.8307638 -0.4307237 15
0.90665144 -4.6255121 -0.24702574 14
0.86121684 -4.4059358 -0.078361303 39
0.88634765 -4.4478555 0.079164118 8
0.85140812 -4.2842245 0.22891749 16
0.94470149 -4.766726 0.42514572 1
1.6581945 -8.3975697 1.0510013 50
1.4575469 -7.4018211 1.1948466 26
1.4791763 -7.5324631 1.4921263 22
0.83889806 -4.2877817 1.0086806 12
0.84456962 -4.3287969 1.1817677 26
0.53797042 -2.7962699 -0.76299858 30
0.59700513 -3.1119025 -0.73154086 10
0.67297298 -3.5211694 -0.6968345 8
0.76587677 -4.0186763 -0.6479516 19
0.89168274 -4.6921573 -0.58643532 19
0.8690654 -4.5906148 -0.4087604 6
0.92509329 -4.9006052 -0.2613658 12
0.83672494 -4.4452486 -0.078954689 26
0.83755082 -4.3616357 0.077523597 13
0.84439111 -4.4097228 0.23530249 18
0.9838953 -5.1528697 0.45896214 16
1.3732507 -7.2193642 0.90232068 11
1.387432 -7.3147774 1.1792032 29
1.4783621 -7.8165317 1.5463161 31
0.81110811 -4.3050241 1.0113801 22
0.78365284 -4.1713047 1.1372509 4
0.51843631 -2.7999575 -0.76299858 29
0.57526577 -3.1159945 -0.73154086 10
0.65299022 -3.5508833 -0.70179552 7
0.73922753 -4.0316968 -0.64920312 13
0.86461538 -4.7295117 -0.59033519 21
0.85055894 -4.6710563 -0.41538426 13
0.8298502 -4.5709057 -0.2434669 20
0.81457531 -4.500175 -0.079827309 21
0.82743007 -4.4774952 0.079478264 17
0.81430864 -4.4194379 0.23551181 37
1.3104242 -7.1329246 0.63449377 2
1.3456854 -7.3537469 0.91791999 26
1.3356222 -7.3203983 1.1785774 21
nan nan nan nan
0.78068721 -4.3086643 1.0109302 28
0.77408904 -4.2850361 1.1667564 30
0.50361466 -2.8301363 -0.77024549 10
0.55690241 -3.1391225 -0.73603988 27
0.63262552 -3.5804882 -0.70675659 9
0.71551818 -4.0620499 -0.65327036 17
0.84015965 -4.7843122 -0.59642857 20
0.84279531 -4.814115 -0.42758605 14
0.80786777 -4.633647 -0.24650237 24
0.78485101 -4.5156026 -0.080001831 19
0.80034679 -4.5067892 0.079897113 22
0.78308713 -4.423049 0.23540714 19
1.2488203 -7.0751891 0.62856722 3
1.302563 -7.409884 0.92376971 38
1.3294935 -7.58638 1.2198761 35
0.74502134 -4.2643847 0.84146774 5
0.76638776 -4.4002709 1.0311757 4
0.73491079 -4.2370396 1.1522624 12
0.48709589 -2.8526258 -0.77542186 24
0.53857064 -3.1640661 -0.74098879 23
0.60955334 -3.592454 -0.70828301 13
0.69509959 -4.1096759 -0.66015351 17
0.81168479 -4.8194237 -0.60008472 18
0.80553728 -4.7982678 -0.42566866 4
1.1633093 -6.951664 -0.36938724 8
0.75133502 -4.5091367 -0.079792403 19
0.77032459 -4.5160751 0.079966925 9
0.75798476 -4.4578118 0.23697723 21
1.3427511 -7.9304047 0.70369548 1
1.2458183 -7.3813877 0.91913867 57
1.2827406 -7.624474 1.2245692 31
0.71523267 -4.2694821 0.84146774 6
3.1958406 -19.138615 4.4796758 21
0.7285732 -4.3772435 1.1890148 24
0.46954089 -2.8673141 -0.77852774 12
0.51859099 -3.1772752 -0.74323833 26
0.58382863 -3.5927463 -0.70751977 12
0.66544473 -4.1085782 -0.65921491 17
0.78582036 -4.8679514 -0.60544699 16
0.99977875 -6.214045 -0.55065 19
0.75906563 -4.7390075 -0.25152662 4
0.78304118 -4.9051356 -0.086703561 11
0.74941915 -4.5864692 0.081118785 15
0.72427648 -4.4472246 0.23613985 25
1.141255 -7.0307689 0.62316358 2
1.2173748 -7.5329614 0.93693155 22
1.2241403 -7.6000891 1.2192503 7
0.68988872 -4.2975121 0.8460471 6
0.75490522 -4.7183022 1.10316 11
0.68918478 -4.3268971 1.1740032 23
0.45070732 -2.8781567 -0.78059822 30
0.49789917 -3.1904454 -0.74548781 15
0.56358427 -3.6237957 -0.71286243 10
0.64079148 -4.1344857 -0.66265643 15
0.75938356 -4.9223652 -0.61154038 20
0.95576745 -6.2169352 -0.55030131 26
0.7249763 -4.7322187 -0.2508986 4
0.74244809 -4.868969 -0.085970551 3
0.715711 -4.5756588 0.080839552 15
0.73059553 -4.6868892 0.2485958 18
1.2323654 -7.9422584 0.70317256 11
1.2018672 -7.772563 0.96569276 43
1.1835117 -7.6804819 1.2308265 31
0.66284657 -4.3216295 0.84986329 10
0.72283012 -4.7292366 1.1045097 14
0.6579712 -4.3200293 1.1708974 8
0.42853329 -2.8639627 -0.77593952 25
0.48019451 -3.2207446 -0.75178647 15
0.53942436 -3.6354103 -0.71438891 10
0.61451191 -4.1564455 -0.66547227 22
0.73367226 -4.9804454 -0.61812133 16
0.93314976 -6.3653908 -0.56285179 18
1.0475535 -7.1719532 -0.37985441 2
0.71188062 -4.8917193 -0.086284697 13
0.67784524 -4.5409875 0.080141447 20
0.69580024 -4.6780467 0.2478631 25
1.1496518 -7.7573171 0.68608999 11
1.1669815 -7.9123416 0.9820233 30
1.1379048 -7.7432799 1.2395868 28
3.0604141 -20.901752 4.1062098 25
0.69120163 -4.7438092 1.1067592 14
0.67192507 -4.6284947 1.2532018 6
0.41425186 -2.9070477 -0.78680992 26
0.45386308 -3.1970069 -0.74548781 23
0.51650256 -3.6565831 -0.71782345 7
0.59043425 -4.1958447 -0.67110395 17
0.6999867 -4.9933095 -0.61909634 20
0.9007979 -6.4585748 -0.57052147 18
1.0243951 -7.3729601 -0.39011225 2
0.99025178 -7.1546974 -0.12607619 2
0.69256002 -4.8722758 0.085900746 13
0.68412763 -4.8311052 0.25571349 14
1.1146715 -7.9012814 0.69811749 13
1.0689474 -7.615593 0.94424373 6
1.1016008 -7.8781977 1.2599235 29
2.9742777 -21.352343 4.1905475 53
0.66528946 -4.8006372 1.1189066 1
0.67076969 -4.8588896 1.3142831 16
0.39420587 -2.9117832 -0.78732753 23
0.43622047 -3.2348602 -0.75358605 20
0.49331173 -3.6776121 -0.72125804 10
0.565575 -4.23315 -0.67642272 18
0.67558461 -5.0767851 -0.62884587 18
0.86143827 -6.5081596 -0.57435632 18
1.1310875 -8.5798883 -0.45354342 18
0.92622107 -7.0543709 -0.12419132 23
0.94832432 -7.0231848 0.12370266 6
0.94322997 -7.0131435 0.37085262 16
1.0602776 -7.9147949 0.69864047 20
1.0763222 -8.0774088 1.0005474 8
1.0777614 -8.1206808 1.2974676 14
2.8889441 -21.855272 4.2851887 40
0.59187722 -4.5018229 1.048272 6
0.63858771 -4.8768625 1.3179066 19
0.37534374 -2.9259613 -0.79043341 13
0.41165066 -3.2223625 -0.74998683 27
0.46911013 -3.6926522 -0.72354776 9
0.53650409 -4.2409143 -0.67704844 18
0.63020098 -5.0025964 -0.61909634 16
0.8258875 -6.5930934 -0.58132881 12
0.92382401 -7.406364 -0.39115897 2
0.89420289 -7.1995773 -0.12663467 19
0.89115036 -6.9661613 0.1225857 21
0.92049539 -7.2256069 0.38173848 10
1.010012 -7.9615355 0.70212668 10
0.98064935 -7.7735481 0.96203667 5
1.0102087 -8.0417681 1.2837014 7
2.7981927 -22.369719 4.3821197 49
0.55682671 -4.4768376 1.0415235 4
0.60381347 -4.8754511 1.3163538 27
0.35676688 -2.9438527 -0.7945745 16
0.39054576 -3.2367661 -0.75268626 27
0.44589105 -3.717279 -0.72774553 12
0.50805557 -4.254364 -0.67861283 15
0.61846209 -5.2020235 -0.64322644 6
0.7817111 -6.6145267 -0.58272326 18
0.87396222 -7.4285016 -0.39199635 17
0.85159475 -7.2711864 -0.12778652 13
0.84705359 -7.009933 0.1232489 19
0.89412332 -7.4321365 0.39231035 21
1.001794 -8.3640423 0.73698896 1
3.904917 -32.79631 4.0553246 13
0.95357692 -8.0447025 1.2830757 1
2.7063756 -22.934631 4.4889727 50
0.53078049 -4.5251317 1.0518712 16
0.57043439 -4.8853035 1.3179066 12
0.33642522 -2.9481909 -0.79509211 16
0.36815923 -3.2413499 -0.75313616 28
0.42014936 -3.7222521 -0.72812718 19
0.47834215 -4.2578073 -0.67861283 16
0.58566004 -5.2377796 -0.64712632 16
0.74079436 -6.6673474 -0.58690673 15
0.8295455 -7.5019169 -0.3955552 17
0.80168736 -7.284905 -0.12792614 19
0.80035543 -7.0355444 0.12359794 19
0.84154129 -7.4322443 0.39199635 10
5.1323485 -45.540657 4.0095129 24
3.6062708 -32.201355 3.9785466 38
3.5722811 -32.049557 5.1075859 30
2.6016121 -23.452496 4.5866671 30
0.51497561 -4.6720662 1.085164 29
0.52873129 -4.8200355 1.2992717 16
0.31686291 -2.9600725 -0.79768038 21
0.34820464 -3.2690322 -0.75898486 23
0.39663187 -3.748523 -0.73270655 10
0.45377651 -4.3101554 -0.68643451 20
0.5563181 -5.3108406 -0.65565711 4
0.70778662 -6.7911344 -0.59736544 18
0.77468419 -7.4836855 -0.39429915 8
0.75326878 -7.3141942 -0.128345 19
0.76458484 -7.1662302 0.12579694 21
0.80608201 -7.5928531 0.40016076 15
4.710896 -44.596581 3.9234028 22
3.381793 -32.229694 3.9790344 77
3.3576758 -32.162125 5.121665 46
3.3329098 -32.08757 6.2707472 41
0.50379491 -4.8751197 1.1315038 3
0.49033445 -4.7774863 1.2868483 19
0.29657477 -2.9660571 -0.79871565 28
0.3276889 -3.2946539 -0.76438373 11
0.37516621 -3.7921641 -0.74072057 15
0.42558834 -4.3249397 -0.6883117 18
0.52366734 -5.3600349 -0.66126311 4
0.66613919 -6.8554025 -0.60259479 15
0.75850153 -7.8486133 -0.41324475 8
0.71001738 -7.4008875 -0.12977609 19
0.71042556 -7.1175437 0.12485451 26
0.74826235 -7.5365529 0.39691594 7
4.313446 -43.755955 3.8467057 21
3.1685324 -32.315186 3.986834 77
3.1427073 -32.225525 5.1282353 30
3.1148696 -32.172585 6.282959 14
0.46750653 -4.8552403 1.126105 13
0.48413819 -5.0557108 1.3608706 22
0.27924439 -2.9987831 -0.80699778 13
0.31028596 -3.3511403 -0.776981 16
0.34652755 -3.7712307 -0.73614115 18
0.39646301 -4.3396087 -0.69018894 24
0.4913013 -5.4089456 -0.6668691 4
0.63543218 -7.0503831 -0.61932868 9
0.68426126 -7.6368837 -0.40183553 8
0.67097998 -7.5330243 -0.13201 19
0.67291039 -7.2537456 0.12715824 13
0.78405219 -8.5002012 0.44736779 8
3.9347177 -42.903381 3.7693114 19
2.950413 -32.419552 3.997071 77
2.9294024 -32.376522 5.1488848 31
nan nan nan nan
0.41211846 -4.6176991 1.0703173 16
0.50346226 -5.6747408 1.5265148 19
0.25780547 -2.9948857 -0.8054449 26
0.28704911 -3.3551662 -0.77743089 21
0.32201681 -3.7950761 -0.74033892 16
0.36914486 -4.3777018 -0.69582063 16
0.45932949 -5.4814796 -0.67539996 2
0.59279519 -7.1340694 -0.62630117 12
0.67135841 -8.131134 -0.4275848 9
0.61984468 -7.5554619 -0.13232414 19
0.62754834 -7.3200307 0.12824029 29
0.73944205 -8.6786022 0.45647424 8
3.5631559 -42.080105 3.6947062 17
2.7313187 -32.526398 4.0077953 78
2.6975551 -32.327286 5.1379342 31
nan nan nan nan
0.39280576 -4.777781 1.1067592 32
0.38849336 -4.7558322 1.2785661 12
0.23841374 -3.0158708 -0.81062132 17
0.26651806 -3.394001 -0.78597903 23
0.29627642 -3.8070188 -0.74224705 21
0.34131402 -4.4156232 -0.7014522 18
0.42484909 -5.5340347 -0.68149346 2
0.54937202 -7.2054839 -0.63222772 8
0.76096112 -10.073435 -0.52943057 13
0.57411313 -7.6533284 -0.13396467 11
0.58050889 -7.3760653 0.12914781 21
0.85130793 -10.889785 0.57245076 17
3.2066729 -41.29747 3.6239357 16
2.5111809 -32.635719 4.0190072 78
2.4883592 -32.561993 5.1723499 31
2.4649103 -32.478958 6.3314247 42
2.436105 -32.323673 7.4836721 62
0.35715297 -4.783473 1.2852954 4
0.21901871 -3.0405841 -0.81683296 8
0.24392888 -3.411329 -0.78957826 28
0.27258042 -3.8402803 -0.74835294 21
0.31097269 -4.4139028 -0.70082647 20
0.38924333 -5.5804315 -0.68685567 2
0.50923681 -7.3562288 -0.64512682 8
0.71824849 -10.454976 -0.54921359 10
0.53233665 -7.8287277 -0.1369665 11
0.53329861 -7.4217315 0.12988082 21
0.78014916 -10.937163 0.57464886 11
2.8652241 -40.567596 3.5580459 15
2.2945344 -32.731266 4.0287571 78
nan nan nan nan
2.2416153 -32.546295 6.3413463 43
2.2170281 -32.437103 7.5061669 100
0.33033639 -4.8705997 1.3080715 19
0.19907142 -3.053571 -0.81993878 8
0.22082916 -3.414855 -0.79002815 23
0.24639018 -3.851886 -0.75026101 10
0.28190175 -4.4435663 -0.70520669 20
0.35301039 -5.6265993 -0.69221795 4
0.46529299 -7.4789171 -0.65558547 8
0.66110516 -10.716894 -0.56271625 24
0.48460841 -7.9460244 -0.13895606 14
0.48755363 -7.519062 0.13152133 21
0.70800459 -11.008118 0.57810301 2
2.5438726 -39.878311 3.4959912 13
2.0700958 -32.811863 4.0368004 78
nan nan nan nan
2.0125265 -32.531761 6.3356223 14
1.9946998 -32.519867 7.5219135 63
0.29409772 -4.8361502 1.2982364 9
0.17766298 -3.0626316 -0.82200933 12
0.19739392 -3.4338577 -0.79407728 22
0.2196046 -3.8554723 -0.75064266 15
0.25187242 -4.477026 -0.71021259 18
0.31714508 -5.6903691 -0.69977379 2
0.41548517 -7.5257492 -0.65942037 11
0.58450985 -10.723345 -0.56282091 10
0.44378272 -8.2207766 -0.14370312 21
0.44151542 -7.6340785 0.133476 17
2.4802921 -43.411533 2.2788124 41
2.2180235 -39.181362 3.4334133 13
1.8466486 -32.926598 4.0492311 78
nan nan nan nan
0.27884868 -5.083076 0.98953551 11
1.7718488 -32.610836 7.5399098 42
0.26858759 -5.0078897 1.3437886 49
0.15529335 -3.0445039 -0.81683296 23
0.17449705 -3.4565609 -0.79902625 13
0.19366932 -3.8902791 -0.75713015 12
0.22197135 -4.5062971 -0.71459275 18
0.28166261 -5.779685 -0.71049833 2
0.36351106 -7.5404072 -0.66046619 11
0.51863796 -10.916689 -0.57276475 24
0.50275397 -10.700565 -0.18698509 14
0.39628479 -7.8227763 0.13672216 19
nan nan nan nan
1.9110657 -38.523296 3.374496 13
1.6158364 -33.038105 4.0614181 79
1.5943385 -32.952221 5.2252245 16
1.5633719 -32.666504 6.3569927 87
1.5491148 -32.727528 7.5642052 43
0.2310102 -4.95368 1.3287771 15
0.13624372 -3.0956936 -0.83029151 11
0.15061584 -3.4635355 -0.80037588 20
0.16878602 -3.9287746 -0.76438087 14
0.19079077 -4.495862 -0.71271551 20
0.24229929 -5.8053107 -0.71342319 4
0.31553668 -7.6562309 -0.67040199 2
0.4544681 -11.169417 -0.58584875 21
0.42572173 -10.645868 -0.18597284 24
0.34399179 -7.8472681 0.13710611 17
1.624491 -37.507317 1.9675181 30
1.6136602 -37.868851 3.3161016 12
1.395089 -33.147507 4.0736051 79
1.371237 -32.991917 5.229918 32
1.3391302 -32.770782 6.3753109 58
1.3245308 -32.8349 7.5867 43
nan nan nan nan
0.11552817 -3.1062016 -0.83287972 20
0.12732242 -3.4722703 -0.80217552 26
0.14050749 -3.9063132 -0.75980145 18
0.16240792 -4.5819721 -0.72616887 19
0.20527285 -5.8782458 -0.72219777 4
0.26711437 -7.7657266 -0.67981476 5
0.38112101 -11.310051 -0.5930711 18
0.36087215 -10.878359 -0.1899869 18
0.3002429 -8.149229 0.14234182 21
1.3662978 -37.619537 1.9728565 92
1.3431755 -37.52454 3.2850742 37
1.1661482 -33.227852 4.0823793 79
nan nan nan nan
1.1261225 -33.075413 6.4329348 100
1.1045214 -32.94833 7.6109948 43
0.16009067 -4.8772302 1.3075538 18
0.094189912 -3.1185184 -0.8359856 28
0.10313651 -3.4750223 -0.80262542 16
0.1159745 -3.9778266 -0.77353972 19
0.13291217 -4.6422086 -0.73555493 19
0.16572648 -5.9331121 -0.72877878 9
0.2150218 -7.8450766 -0.6866129 8
0.31089148 -11.563947 -0.60625976 18
0.28141221 -10.746679 -0.18764828 35
0.32231426 -10.733527 0.18743885 19
nan nan nan nan
1.0842127 -37.638554 3.2943125 50
0.942756 -33.33424 4.0945668 80
nan nan nan nan
0.9464311 -34.976318 6.8011961 17
0.87633663 -33.025372 7.6271911 66
0.12372396 -4.7565417 1.2749426 10
0.073457927 -3.1403317 -0.84167957 41
0.079658978 -3.4834368 -0.80442506 24
0.088593297 -3.9962041 -0.77697426 17
0.10075726 -4.6548724 -0.73743218 25
0.12349342 -5.8467779 -0.71805423 11
0.16301292 -7.9140849 -0.69253951 5
0.23257627 -11.687644 -0.61264473 21
0.21077317 -10.878302 -0.1899171 18
0.24695766 -10.717523 0.1871247 22
nan nan nan nan
0.82987797 -37.730721 3.3018081 12
0.71221399 -33.443211 4.1072412 80
nan nan nan nan
0.70150054 -34.644344 6.735558 17
0.65355998 -33.133827 7.6510358 100
0.090588093 -4.7611527 1.275978 40
0.051342331 -3.1291785 -0.83857375 50
0.055957053 -3.5228779 -0.8134231 23
0.061601434 -4.0104556 -0.77964556 35
0.070681877 -4.7640848 -0.75463998 15
0.085170478 -6.0241532 -0.73974699 7
0.1100094 -8.0803833 -0.70700741 2
0.1552913 -11.862702 -0.62175119 25
0.13591476 -10.967487 -0.19145289 25
0.17513721 -10.788937 0.18834637 26
nan nan nan nan
0.56997633 -37.970669 3.322377 12
0.48634309 -33.570347 4.1223526 81
nan nan nan nan
0.45659956 -34.420673 6.6912899 16
0.42326915 -33.219425 7.6699314 100
0.057493348 -4.7056398 1.2609664 43
0.030023286 -3.1275239 -0.83805609 31
0.032241952 -3.552407 -0.82017159 15
0.034078643 -4.0677204 -0.79071248 13
0.037979662 -4.8355732 -0.76590323 20
0.044789746 -6.1099501 -0.75022775 2
0.054177392 -8.1686182 -0.7146771 2
0.073983088 -12.111153 -0.63473052 15
0.061582025 -11.026149 -0.19246514 25
0.10008942 -10.819889 0.18886994 35
nan nan nan nan
0.30629537 -37.33812 3.2667716 12
0.25262153 -33.660267 4.1330771 81
nan nan nan nan
0.21642856 -33.514019 6.5146012 15
0.19206583 -33.346291 7.6987257 100
0.024630275 -4.7039948 1.2604488 15
0.0082186675 -3.1392484 -0.84116197 37
0.0074406881 -3.5525455 -0.82017159 12
0.0056907367 -4.0757127 -0.79223901 17
0.0042683426 -4.8910308 -0.77466357 21
0.0021442536 -6.1418753 -0.75412756 11
-0.0028882048 -8.2763853 -0.72408992 2
-0.010722718 -12.289131 -0.64404637 15
-0.01598574 -11.450246 -0.19986497 22
0.024755383 -10.910311 0.19044067 21
0.059436604 -34.05521 1.784761 23
0.044820298 -36.685841 3.2095971 12
0.017674396 -33.76046 4.1452641 81
-1.4728979e-06 -33.695976 5.3369188 51
-0.017586708 -33.587357 6.5287213 93
-0.040868405 -33.452045 7.7230201 100
-0.008793124 -5.0382614 1.3500001 9
-0.013647041 -3.1276381 -0.83805609 23
-0.017465694 -3.573947 -0.82512051 12
-0.022993013 -4.1168804 -0.80025297 16
-0.0300224 -4.9146461 -0.778418 26
-0.041181803 -6.2092328 -0.76241469 2
-0.061281599 -8.3598413 -0.73141098 3
-0.098022625 -12.480488 -0.65409482 23
-0.097615108 -11.651816 -0.20339034 26
-0.051715091 -10.974207 0.19155762 22
-0.17837374 -34.066784 1.7853891 70
-0.1961332 -34.053356 2.979332 33
-0.21870264 -33.866955 4.1584263 81
nan nan nan nan
-0.2528913 -33.69635 6.5500917 94
-0.27526996 -33.556179 7.7473149 92
-0.041623294 -4.7695603 1.2780485 16
-0.03585431 -3.160306 -0.84685594 31
-0.042485505 -3.5795836 -0.82647026 26
-0.051881716 -4.1283979 -0.80254269 16
-0.064590342 -4.9340687 -0.78154671 28
-0.085582577 -6.2862048 -0.77192044 2
-0.12169577 -8.5026474 -0.74396139 3
-0.18695784 -12.601318 -0.66047984 15
-0.18503869 -12.046744 -0.21030149 15
-0.13087569 -11.19153 0.19536224 17
-0.21016 -17.201111 0.90153933 4
-0.43439466 -34.092991 2.9829924 55
-0.45673388 -33.983696 4.1730504 82
nan nan nan nan
-0.48923507 -33.770321 6.5649748 63
-0.51094586 -33.646969 7.7689104 100
nan nan nan nan
-0.05792569 -3.1908934 -0.85513818 27
-0.066740423 -3.5733666 -0.82512051 17
-0.080247916 -4.1416898 -0.80521399 21
-0.10088583 -5.0697885 -0.80313462 7
-0.12946394 -6.3390636 -0.77850145 7
-0.18301776 -8.6649628 -0.758255 3
-0.27627075 -12.763491 -0.66906291 15
-0.27341491 -12.333092 -0.21532778 8
-0.21174932 -11.444299 0.19979516 21
-0.32761949 -17.219248 0.90258598 14
-0.66855174 -34.196819 2.9924054 67
-0.69004875 -34.079037 4.1852374 82
-0.70553434 -33.965202 5.3807201 34
-0.72172904 -33.88987 6.5890164 96
-0.74244338 -33.755707 7.7950044 100
-0.75814337 -33.667507 9.023468 49
-0.080103435 -3.1865487 -0.85410291 30
-0.093335338 -3.6371007 -0.83996731 20
-0.10993543 -4.1704669 -0.81093824 16
-0.13871861 -5.1597953 -0.81752664 5
-0.17610809 -6.4253163 -0.78922594 2
-0.24518548 -8.7232218 -0.7634843 3
-0.37245789 -13.008809 -0.68204224 20
-0.4919726 -16.87426 -0.29466644 45
-0.29836449 -11.706415 0.2044026 14
-0.44522581 -17.116713 0.89735234 13
-0.91012812 -34.298866 3.0018179 67
-0.93092078 -34.182529 4.1986432 41
-0.94762677 -34.139141 5.4091916 35
-0.96124077 -33.98801 6.609242 80
-0.98147172 -33.866581 7.8219991 100
nan nan nan nan
-0.10296769 -3.2052205 -0.85927927 27
-0.11891472 -3.6422036 -0.841317 16
-0.14002961 -4.1990304 -0.81666255 14
-0.1763417 -5.2060833 -0.82503545 5
-0.19864649 -5.7751884 -0.70952338 40
-0.30901301 -8.8049259 -0.77080542 3
-0.4639073 -13.023855 -0.68298429 24
-0.60976511 -16.870413 -0.29466644 39
-0.38391277 -11.821967 0.20646198 15
-0.56484389 -17.11718 0.89756179 13
-1.1542257 -34.431065 3.0140197 45
-1.174086 -34.308117 4.2149734 41
nan nan nan nan
-1.2025813 -34.096233 6.6317577 98
-1.2220801 -33.97575 7.8489928 95
nan nan nan nan
-0.12670098 -3.2391703 -0.86859673 21
-0.14441638 -3.6432316 -0.84176689 22
-0.17100272 -4.2391453 -0.82467651 24
-0.21429577 -5.2441998 -0.83129281 5
-0.23805641 -5.7518435 -0.70684224 47
-0.24262638 -5.7648563 -0.50480604 25
-0.56765598 -13.321612 -0.69878972 20
-0.72985488 -16.919689 -0.29560888 52
-0.49616367 -12.572297 0.21962108 17
-0.70021182 -17.509954 0.91839141 15
-1.3989272 -34.529671 3.0234327 56
-1.414554 -34.322887 4.2178984 28
nan nan nan nan
-1.4453967 -34.200775 6.6538916 99
-1.4642644 -34.08321 7.8759866 96
-1.4773217 -33.972347 9.1114664 50
-0.14931156 -3.2382069 -0.86859673 13
-0.17102754 -3.6674409 -0.8476156 16
-0.20263498 -4.2809911 -0.83307213 17
-0.25279057 -5.2820377 -0.83755022 5
-0.27839792 -5.7540073 -0.70732975 42
-0.2819877 -5.7451124 -0.50323725 65
-0.66460288 -13.397118 -0.70297664 16
-0.85075819 -16.970102 -0.29658622 46
-0.77936804 -16.775349 0.29313064 34
-0.81259298 -17.29516 0.90740091 14
-1.6454394 -34.634487 3.0335426 45
-1.6652184 -34.542179 4.246172 14
nan nan nan nan
-1.6904022 -34.31731 6.6786971 83
-1.7073275 -34.175304 7.8998313 73
-1.7212754 -34.096264 9.1477003 51
-0.17263202 -3.2505891 -0.87222022 31
-0.19808806 -3.6934009 -0.85391426 12
-0.23390165 -4.3049569 -0.83803314 22
-0.29247263 -5.3314271 -0.84568483 13
-0.31878051 -5.7558875 -0.7078172 42
-0.32186612 -5.7390256 -0.50288862 65
-0.34982163 -6.1796122 -0.32437828 2
-0.98210043 -17.189346 -0.30053046 27
-0.90884358 -17.001131 0.29717955 26
-0.94225007 -17.454599 0.9160887 10
-1.8943425 -34.753464 3.0450475 57
nan nan nan nan
-1.9240013 -34.521446 5.4761453 18
-1.9373293 -34.435997 6.7042651 100
-1.9547359 -34.318199 7.9358234 73
-1.9665877 -34.210709 9.1818647 25
-0.19566819 -3.25509 -0.87377316 17
-0.22516504 -3.7133245 -0.85886317 17
-0.26491126 -4.3188958 -0.84108603 19
-0.33432078 -5.4041767 -0.85757387 2
-0.35846198 -5.7455964 -0.70684224 45
-0.36079726 -5.7347126 -0.50271428 53
-0.40614218 -6.384315 -0.33526415 2
-1.1310087 -17.633074 -0.30841893 7
-1.0199087 -16.86862 0.29498056 30
-2.1318135 -34.954994 1.8353175 76
-2.1442609 -34.858711 3.055506 57
-2.1629982 -34.767181 4.2771268 42
-2.1592698 -34.416485 5.4617534 36
-2.1845043 -34.5294 6.7252545 85
-2.1967242 -34.436348 7.9664173 74
nan nan nan nan
-0.21994074 -3.2767749 -0.8799848 23
-0.25147757 -3.7174952 -0.86021286 20
-0.29710719 -4.3581257 -0.84910011 17
-0.37407607 -5.4451323 -0.86445701 8
-0.39911482 -5.7508755 -0.7078172 42
-0.40124124 -5.7380171 -0.50323725 62
-0.41533974 -5.895277 -0.30972421 81
-0.41854817 -5.8822298 -0.10293429 100
-1.1470572 -17.044846 0.29819182 39
-2.3780711 -35.063221 1.8418071 76
-2.3971028 -34.982029 3.0677078 46
nan nan nan nan
-2.4030793 -34.538933 5.4836545 36
-2.434871 -34.646481 6.751204 85
nan nan nan nan
-2.4533396 -34.394234 9.2393227 26
-0.24508949 -3.3137336 -0.89033753 17
-0.27692032 -3.7176409 -0.86066282 17
-0.32855526 -4.3696489 -0.85177141 21
-0.41327363 -5.4581456 -0.86695993 8
-0.43643904 -5.7242737 -0.70489234 47
-0.44113755 -5.7330894 -0.50306296 53
nan nan nan nan
nan nan nan nan
-1.2749163 -17.156075 0.30028611 27
-2.6327872 -35.179207 1.8488201 78
-2.6459394 -35.107952 3.0802584 46
nan nan nan nan
-2.6539536 -34.649338 5.5039911 36
-2.6804545 -34.75634 6.7760091 100
nan nan nan nan
-2.6867571 -34.291523 9.2165461 52
-0.26806182 -3.3100164 -0.88981992 18
-0.30160102 -3.7000782 -0.85706359 17
-0.36564866 -4.4474716 -0.86741769 14
-0.46146777 -5.5771837 -0.88635778 2
-0.47737905 -5.7329569 -0.7063548 45
-0.48215026 -5.7417827 -0.50410885 43
nan nan nan nan
-1.8070014 -21.252069 -0.37229472 11
-1.4338886 -17.629089 0.30873308 32
-2.889075 -35.291348 1.8557284 52
-2.9011178 -35.211739 3.0910656 46
-2.9177811 -35.114376 4.3263617 43
-2.9240994 -34.968548 5.5578041 18
-2.9343927 -34.871765 6.802341 87
-2.9516907 -34.786682 8.0599966 51
-2.9375913 -34.406673 9.2527809 26
-0.29167166 -3.3138375 -0.89137286 27
-0.33258137 -3.7561169 -0.87056065 15
-0.40105146 -4.4936976 -0.87695819 13
-0.50304204 -5.6033382 -0.89105082 6
-0.51631975 -5.7176218 -0.70489234 45
-0.51923972 -5.7165413 -0.50219136 56
nan nan nan nan
-3.1300514 -33.999027 -0.59596479 39
-1.6588432 -18.771978 0.32894298 15
-3.147053 -35.401623 1.8626368 53
-3.158406 -35.319614 3.1023958 35
-3.1670408 -35.208374 4.3404989 14
-3.1836672 -35.118443 5.5850244 37
-3.191674 -35.002934 6.8321075 88
nan nan nan nan
-3.1878695 -34.56094 9.2998867 26
