# .PCD v0.7 - Point Cloud Data file format
VERSION 0.7
FIELDS x y z intensity
SIZE 4 4 4 4
TYPE F F F F
COUNT 1 1 1 1
WIDTH 1426
HEIGHT 1
VIEWPOINT 0 0 0 1 0 0 0
POINTS 1426
DATA ascii
2.9107137 -1.3858455 -0.39583167 8
3.3559098 -1.5999678 -0.32526523 4
3.8784339 -1.8524114 -0.22525398 5
4.4576674 -2.1319313 -0.086249799 3
5.2732444 -2.4982836 0.10185225 1
6.3193364 -2.9979389 0.36656106 7
nan nan nan nan
7.4369173 -3.5392644 1.0112718 1
7.4682207 -3.558959 1.3102952 1
7.457746 -3.5587604 1.6062301 1
6.0855389 -2.9078698 1.5571113 100
7.4369812 -3.5600131 2.2092795 2
1.9056376 -0.91835064 -0.56681371 12
2.0692382 -0.99852729 -0.53043461 10
2.2856414 -1.1044301 -0.4934321 9
2.5605628 -1.2389272 -0.4505313 7
2.9009678 -1.4061323 -0.39583167 8
3.3589976 -1.6303171 -0.32665971 4
3.8872912 -1.8892443 -0.22651003 5
4.4570589 -2.1700022 -0.086529031 3
5.2813349 -2.5462775 0.10234091 1
6.3131733 -3.0478301 0.36739844 7
nan nan nan nan
7.2732987 -3.5223165 0.99226028 1
7.2820778 -3.5312762 1.2818241 1
7.2561293 -3.5249522 1.5680684 1
6.0808625 -2.9579558 1.5611604 100
7.2597404 -3.5361078 2.1637273 3
1.8924042 -0.92789853 -0.56474322 11
2.0711401 -1.0168831 -0.53268409 9
2.2743516 -1.1186267 -0.49266884 9
2.551851 -1.256773 -0.4505313 7
2.9020116 -1.4311138 -0.3972941 8
3.3368163 -1.6484326 -0.32561383 4
3.8990703 -1.9287342 -0.22797546 5
4.4511442 -2.2047276 -0.086703561 3
5.2742009 -2.5883718 0.10255034 1
6.3168368 -3.1041617 0.36886385 21
nan nan nan nan
7.1078696 -3.5036712 0.97300488 1
7.0641704 -3.4867289 1.2477214 1
7.1052451 -3.5116305 1.540592 1
6.0845132 -3.0124409 1.5674591 100
7.0860262 -3.5129104 2.1192105 3
1.8927946 -0.94453764 -0.56681371 11
2.0727067 -1.0356727 -0.53493363 9
2.2787762 -1.1406287 -0.4953402 9
2.543015 -1.2745575 -0.4505313 7
2.9025953 -1.4566809 -0.3987565 8
3.3359075 -1.6770571 -0.32665971 3
3.9122698 -1.969378 -0.22954552 5
4.4695721 -2.2528498 -0.087366745 3
5.2774696 -2.6358511 0.10296919 1
6.3325243 -3.1669457 0.37106195 45
6.9834938 -3.4970729 0.68330097 1
6.9483852 -3.4855611 0.95448077 1
6.9160914 -3.4738953 1.2258207 1
6.9507666 -3.4958713 1.5123522 1
6.0876989 -3.0671203 1.5737576 100
6.9267941 -3.4944241 2.0788348 3
1.8861543 -0.95772874 -0.56681371 11
2.0567403 -1.0457016 -0.53268409 9
2.276006 -1.1591827 -0.49648505 10
2.5410943 -1.2958695 -0.45178279 7
2.8994267 -1.4805202 -0.39973149 8
3.3279629 -1.7015389 -0.32700834 3
3.8877599 -1.9911799 -0.22891749 5
4.4644113 -2.2894731 -0.087576173 3
5.2838979 -2.6853142 0.10345787 1
6.3102608 -3.2110777 0.37106195 28
6.8346434 -3.482425 0.67109919 1
6.8708391 -3.5069115 0.94716859 1
6.791409 -3.4708536 1.2079871 1
6.7951136 -3.4772348 1.4837308 2
6.0874929 -3.1191506 1.5791565 100
6.7784843 -3.4791825 2.0415647 3
1.8811387 -0.9717598 -0.56733137 12
2.0441973 -1.057349 -0.53133446 9
2.2732928 -1.1773565 -0.49762988 9
2.5444899 -1.3195018 -0.45397288 5
2.8819737 -1.4970654 -0.3987565 8
3.3460522 -1.7403601 -0.32997164 4
3.8776591 -2.0194418 -0.22912684 7
4.462503 -2.3279839 -0.087855421 5
5.2903676 -2.7340713 0.10394654 1
6.3059959 -3.2631347 0.37210867 47
6.9516754 -3.6034062 0.68504417 1
6.9860005 -3.6258409 0.96642399 1
6.8710423 -3.5707433 1.2264463 1
6.7184291 -3.4973929 1.4722823 2
6.0638404 -3.1606719 1.5787065 100
6.6056461 -3.4474781 1.9965302 2
1.8830321 -0.98903316 -0.56991959 12
2.0473013 -1.0766811 -0.53403383 9
2.2719662 -1.1968584 -0.49915636 10
2.5369632 -1.3381549 -0.45428574 7
2.8682063 -1.5147935 -0.39826906 6
3.3552635 -1.774272 -0.33206338 3
3.8828807 -2.0567474 -0.23027822 5
4.4500866 -2.3601787 -0.087925225 5
5.2711515 -2.7709382 0.10394654 1
6.2972012 -3.3145213 0.37294605 49
6.8247566 -3.5967636 0.67493409 1
6.8306117 -3.6059449 0.94838732 1
6.8249903 -3.6075478 1.2226919 1
6.7014084 -3.5467157 1.4738088 1
6.0559616 -3.2091737 1.5823058 100
nan nan nan nan
1.8709694 -0.99942428 -0.56836665 12
2.0431716 -1.0927857 -0.53493363 10
2.2551129 -1.2076612 -0.49724829 10
2.53476 -1.3591262 -0.45553723 7
2.8750494 -1.5441731 -0.40070644 8
3.3392856 -1.7957654 -0.33171475 3
3.8793423 -2.0888104 -0.23090626 5
4.4511013 -2.400681 -0.08827427 5
5.2980237 -2.8312578 0.10485406 1
6.2921042 -3.3667305 0.37399277 47
nan nan nan nan
6.6624789 -3.5753844 0.92840075 1
6.7341523 -3.6183908 1.2108029 1
6.558929 -3.5301428 1.4478587 1
6.0574269 -3.2643163 1.5886045 64
nan nan nan nan
1.8692166 -1.0149019 -0.56991959 12
2.0442464 -1.1113214 -0.53718311 9
2.2569723 -1.2290087 -0.49953794 10
2.5252097 -1.3767889 -0.45553723 7
2.8784111 -1.5713164 -0.40265635 8
3.3371563 -1.8247693 -0.3327606 4
3.8961997 -2.1331067 -0.23279037 7
4.4486856 -2.4386125 -0.088553511 5
5.293942 -2.8767688 0.10516821 1
6.2965174 -3.4258478 0.37566754 52
6.2426333 -3.4007676 0.62194335 1
6.3515787 -3.4658697 0.88842762 1
nan nan nan nan
6.3969569 -3.4993303 1.4173293 1
nan nan nan nan
6.2362256 -3.4213107 1.9059435 2
1.870542 -1.0325946 -0.57250774 12
2.0313215 -1.1227379 -0.53583348 9
2.25349 -1.2475878 -0.50068283 9
2.5051701 -1.3886384 -0.45366001 7
2.8743138 -1.595226 -0.4036313 8
3.3278189 -1.8499585 -0.33310926 4
3.862016 -2.1495702 -0.23163895 7
4.4629946 -2.4871325 -0.089181796 3
5.2842312 -2.9194596 0.10537763 1
6.2829332 -3.4755225 0.37629557 47
nan nan nan nan
nan nan nan nan
6.1441927 -3.4127946 1.1131878 49
6.1802049 -3.4370325 1.3745881 1
nan nan nan nan
5.9709225 -3.3302011 1.8319213 2
1.8666571 -1.047519 -0.57354301 12
2.0319288 -1.1416645 -0.53808296 9
2.2567017 -1.2700297 -0.50335413 10
2.5109034 -1.4148213 -0.45647582 9
2.8596494 -1.6133028 -0.40314382 8
3.3391068 -1.8868685 -0.33554959 4
3.869513 -2.1892653 -0.2329997 5
4.4455223 -2.5182292 -0.089181796 3
5.2584906 -2.9533415 0.10527291 1
6.1958442 -3.4840586 0.37252739 35
6.1841259 -3.4817326 0.62089753 40
6.1555943 -3.4713311 0.86770982 63
6.1442995 -3.4692028 1.117568 92
nan nan nan nan
6.0233474 -3.4106219 1.5980525 100
nan nan nan nan
1.867689 -1.0653108 -0.57613122 12
2.0256009 -1.1567885 -0.53853285 9
2.2528927 -1.2886778 -0.50449902 10
2.5163925 -1.4411515 -0.45929164 7
2.858649 -1.6391522 -0.40460625 8
3.3396747 -1.9180719 -0.3369441 3
3.8714492 -2.2261822 -0.23404641 5
4.4243679 -2.5472076 -0.089111991 5
4.7167482 -2.6925683 0.094801471 6
4.6575723 -2.6620216 0.28114879 5
nan nan nan nan
6.0743761 -3.4816444 0.85966641 71
6.0462584 -3.4697354 1.1041147 64
6.0482025 -3.4750614 1.3558888 62
6.0078349 -3.4574492 1.6003019 100
5.9757338 -3.4431419 1.8479681 57
1.8485068 -1.0715417 -0.57250774 10
2.0191615 -1.1718799 -0.53898275 9
2.2421441 -1.3033879 -0.50411743 10
2.5062702 -1.458684 -0.45929164 9
2.8608572 -1.6670648 -0.40655616 8
3.3210404 -1.9383273 -0.33642116 3
3.8592622 -2.2551708 -0.23425576 5
4.4202852 -2.586112 -0.089391224 3
4.7047548 -2.7294455 0.094941087 1
4.654418 -2.703501 0.28209084 5
4.645102 -2.7013433 0.47011805 8
nan nan nan nan
nan nan nan nan
5.974628 -3.488493 1.3448219 15
5.9297204 -3.4678259 1.585905 100
5.8831997 -3.4447546 1.8267449 100
1.8393162 -1.0834402 -0.57199007 12
2.0210025 -1.1918871 -0.54168218 8
2.2329903 -1.3190092 -0.50411743 9
2.4994259 -1.4781563 -0.45991737 7
2.8559818 -1.6910419 -0.40753111 8
3.3228507 -1.9706122 -0.33798996 3
3.876054 -2.3014326 -0.23624454 8
4.433064 -2.6353011 -0.090019517 4
4.6976438 -2.7693326 0.095185429 4
4.6216702 -2.727807 0.28125346 3
4.5935397 -2.7144477 0.46680617 2
4.5884929 -2.7157891 0.65468216 2
4.5765157 -2.711937 0.84255612 7
4.5335116 -2.689662 1.0246444 6
nan nan nan nan
nan nan nan nan
1.839996 -1.101215 -0.57457829 12
2.0092888 -1.203964 -0.54078233 9
2.2321444 -1.3396175 -0.50602549 9
2.4822729 -1.4915 -0.45866591 9
2.8713231 -1.7273118 -0.41143093 8
3.3144808 -1.9962677 -0.3385129 3
3.8650231 -2.3315308 -0.23655853 8
4.4316754 -2.676523 -0.090368561 4
5.3026414 -3.1760798 0.10789078 3
6.1903563 -3.7121928 0.37828431 22
4.6257224 -2.7772174 0.4720355 4
4.5507083 -2.7365036 0.65200108 3
4.5151634 -2.7183492 0.83473444 4
4.4944463 -2.709084 1.0200649 3
4.4748268 -2.7004535 1.2066375 10
4.4292164 -2.6771486 1.3867525 9
1.8405169 -1.1190517 -0.5771665 11
1.995841 -1.2149221 -0.53943264 9
2.2263269 -1.3568232 -0.50678873 9
2.4838669 -1.5155637 -0.46085599 9
2.8625817 -1.7493855 -0.4119184 8
3.3276558 -2.0359957 -0.34130189 3
3.859282 -2.3640444 -0.23718657 8
4.4401531 -2.7241278 -0.090927035 6
5.3150692 -3.2328835 0.10858887 3
6.1495929 -3.7448938 0.37734228 17
nan nan nan nan
nan nan nan nan
4.5589137 -2.7871432 0.84631056 3
4.5156074 -2.7649999 1.0292237 6
4.4276214 -2.7143128 1.1989893 4
4.3894873 -2.6940982 1.3800232 3
1.8377886 -1.1345981 -0.57871938 12
1.9924982 -1.2315528 -0.54078233 9
2.2184699 -1.3733664 -0.50717038 10
2.4849789 -1.5401518 -0.46304604 6
2.8404875 -1.7625499 -0.410456 8
3.3218219 -2.0644357 -0.34217343 3
3.8732088 -2.4099224 -0.23907068 8
4.4350867 -2.7627468 -0.091206275 6
5.3229914 -3.28883 0.10921716 3
6.1674614 -3.815052 0.38006377 30
6.1131654 -3.7858932 0.62909013 47
6.0409069 -3.7469809 0.8728283 81
nan nan nan nan
nan nan nan nan
5.8824973 -3.6629562 1.5998521 34
4.4230318 -2.7573812 1.3965876 6
1.8281862 -1.1463745 -0.57820177 12
1.9954052 -1.252686 -0.54393172 7
2.2154758 -1.3930006 -0.50869679 10
2.4758382 -1.558515 -0.46335894 7
2.8499455 -1.7960961 -0.41362458 9
3.3073285 -2.0875759 -0.34217343 4
3.8613553 -2.4401042 -0.2393847 8
4.4224501 -2.7979183 -0.091345899 6
5.33039 -3.3450437 0.10984544 3
6.162662 -3.8718283 0.38142449 40
6.1068244 -3.8412085 0.6311819 71
6.0414739 -3.8059919 0.87672812 81
5.9731641 -3.7673283 1.1185066 22
5.9345469 -3.7473171 1.3642844 68
5.8765459 -3.7164333 1.6052508 86
nan nan nan nan
1.8201386 -1.1591095 -0.57820177 12
1.9882542 -1.2676336 -0.54438156 9
2.2073519 -1.4094899 -0.50907844 9
2.4748836 -1.5821455 -0.46523616 6
2.8456969 -1.821299 -0.41484326 6
3.306093 -2.119216 -0.34356794 4
3.8576734 -2.4756315 -0.24022207 6
4.426363 -2.8438566 -0.09183456 6
5.2765532 -3.3628299 0.10921716 4
6.1489515 -3.9233518 0.38226187 35
nan nan nan nan
nan nan nan nan
5.9949565 -3.8398345 1.1275797 92
5.9396415 -3.8087914 1.3715351 78
5.8717732 -3.7710586 1.6110995 100
5.8189278 -3.7414248 1.853662 100
1.8168687 -1.1749353 -0.57975465 12
1.980992 -1.2825422 -0.54483151 9
2.2139306 -1.4355469 -0.51289463 7
2.4654346 -1.6004602 -0.46554902 4
2.8628731 -1.8605926 -0.41923055 5
3.3079157 -2.1531138 -0.34531105 4
3.8453164 -2.5057738 -0.24053608 8
4.4231496 -2.8856153 -0.092183605 4
5.2529478 -3.3995848 0.10921716 3
6.1448784 -3.9813876 0.38372725 35
6.0910425 -3.951036 0.63519108 2
6.0376849 -3.9224164 0.8840403 7
nan nan nan nan
nan nan nan nan
5.8861113 -3.838572 1.6223471 100
5.8169308 -3.7977989 1.8614267 54
1.8150812 -1.1918321 -0.58182526 12
1.9768752 -1.2995522 -0.5461812 9
2.2054944 -1.4520475 -0.51327622 9
2.4525521 -1.6165459 -0.46523616 6
2.8465002 -1.878347 -0.4187431 8
3.3210611 -2.1948297 -0.34827435 3
3.8310606 -2.5347621 -0.24074543 8
4.4362388 -2.9385099 -0.092881702 6
5.869144 -3.8567734 0.1225857 11
6.1352878 -4.0362654 0.38487867 30
6.0949249 -4.0142851 0.63850296 2
6.0300393 -3.9775884 0.88696516 8
6.1303234 -4.0483465 1.1635597 8
nan nan nan nan
nan nan nan nan
nan nan nan nan
1.8099313 -1.2066178 -0.58286053 12
1.9677545 -1.3133216 -0.5461812 9
2.192039 -1.4652271 -0.51251298 9
2.4494152 -1.6391218 -0.46680051 5
2.8399146 -1.9025929 -0.41971806 8
3.310621 -2.2212915 -0.34879729 5
3.8381405 -2.5781507 -0.2423155 8
4.4122982 -2.9671774 -0.092811897 8
5.906951 -3.9409363 0.12394699 13
6.1152639 -4.0845447 0.38540202 30
6.1065016 -4.0833173 0.64268643 1
6.0169683 -4.0295296 0.88915884 7
6.1429305 -4.118547 1.1713815 12
nan nan nan nan
nan nan nan nan
nan nan nan nan
1.7918643 -1.2127273 -0.57975465 12
1.9666044 -1.3324926 -0.54843074 9
2.1931286 -1.4882113 -0.51518428 9
2.4591544 -1.6706121 -0.47086781 7
2.8331287 -1.9268382 -0.42069301 5
3.3082063 -2.2533224 -0.35019177 7
3.8150973 -2.6015077 -0.24200147 6
4.4179006 -3.0159478 -0.093370378 6
5.9223413 -4.0112348 0.12485451 13
6.1196609 -4.1495557 0.38749546 30
6.0811424 -4.128087 0.64303505 2
6.0133147 -4.0881791 0.89281487 8
6.1548538 -4.1891184 1.1792032 17
24.582911 -16.750469 5.7822762 10
7.8052387 -5.3263683 2.1815755 6
8.6456537 -5.9065132 2.8055985 2
1.7913157 -1.2306768 -0.58234286 12
1.9668875 -1.3528155 -0.55113012 9
2.1810687 -1.5023721 -0.51480269 9
2.4506838 -1.6899824 -0.47149354 7
2.8294094 -1.9533367 -0.42215544 6
3.2891173 -2.2740972 -0.34984317 5
3.8198345 -2.6439927 -0.2434669 8
4.4296112 -3.0694959 -0.094068475 4
5.9337416 -4.0796719 0.12569223 14
6.1152215 -4.2091637 0.38906553 34
6.0685811 -4.1817455 0.64477819 3
6.0173039 -4.1526098 0.89768964 8
6.1612124 -4.2566872 1.1860863 26
24.52673 -16.964119 5.7967777 10
7.7486396 -5.367414 2.1761768 12
7.8422112 -5.4383082 2.5571322 2
1.7810956 -1.2420474 -0.58182526 12
1.9526017 -1.3631672 -0.54978037 9
2.1721361 -1.5186872 -0.51518428 7
2.4258792 -1.6979878 -0.46899059 6
2.835212 -1.9867122 -0.4250803 6
3.2927315 -2.3107374 -0.35193488 7
3.8176253 -2.6820769 -0.24451362 8
4.4407868 -3.1233535 -0.094766572 6
5.875598 -4.1003985 0.12506394 14
6.1102452 -4.2689114 0.39063561 31
6.0637298 -4.2411389 0.64739287 1
6.0011735 -4.2036281 0.89963961 8
6.1798654 -4.3336215 1.1954722 89
24.465546 -17.175543 5.8105159 10
7.725327 -5.4314651 2.1802258 2
7.3396034 -5.1660175 2.4049468 2
1.7849962 -1.2633801 -0.58596635 12
1.9493976 -1.3812723 -0.55158001 9
2.1806939 -1.5474484 -0.51976377 6
2.4236283 -1.7217463 -0.47086781 8
2.8115668 -1.9995539 -0.42361787 8
3.2765191 -2.3336689 -0.35193488 5
3.8053131 -2.7133009 -0.24493231 10
4.4351492 -3.1658976 -0.095115617 6
6.0018525 -4.251121 0.12837991 11
6.0933285 -4.3207068 0.391473 34
6.0518441 -4.2960544 0.64931029 1
5.9894781 -4.2580738 0.90232068 10
6.1719928 -4.392695 1.1998525 100
nan nan nan nan
nan nan nan nan
7.2106128 -5.1508789 2.3744061 2
1.7745636 -1.2746837 -0.58544868 12
1.9397073 -1.3948479 -0.55158001 9
2.163465 -1.5580454 -0.51823723 6
2.427573 -1.7501768 -0.47399649 8
2.8039777 -2.0237806 -0.42459282 6
3.2730653 -2.3658235 -0.35332939 5
3.799222 -2.7491679 -0.24576966 8
4.4194169 -3.2014759 -0.095255233 10
6.0386 -4.3407722 0.129811 11
6.0808482 -4.3759723 0.39262438 34
6.0394869 -4.3510103 0.65122765 1
5.9869723 -4.3195291 0.90646422 10
6.1475811 -4.4403033 1.2011039 100
nan nan nan nan
nan nan nan nan
7.1197338 -5.1614065 2.3562887 2
1.7703048 -1.2904551 -0.58700162 12
1.9425154 -1.4175456 -0.55517924 9
2.1430249 -1.5661606 -0.51594758 7
2.4248607 -1.7740799 -0.47587368 8
2.8089983 -2.0573821 -0.42751768 8
3.2628953 -2.3933296 -0.35402662 5
3.8024752 -2.7921743 -0.24723509 8
4.4179044 -3.2476485 -0.095708996 8
6.0243039 -4.394609 0.13016005 13
6.0791836 -4.4395208 0.39450848 31
6.0266571 -4.4060016 0.65314513 2
5.9806962 -4.3788104 0.91012037 10
6.1243987 -4.4889507 1.2026683 100
nan nan nan nan
nan nan nan nan
7.1675582 -5.2728033 2.3842413 2
1.7643588 -1.3050803 -0.58803689 12
1.9404024 -1.4368707 -0.55742878 9
2.1415007 -1.5881001 -0.51823723 7
2.4155886 -1.7933202 -0.47649944 7
2.7993467 -2.0804946 -0.42824891 9
3.2465289 -2.4154837 -0.35402662 5
3.7989051 -2.8305852 -0.24828181 8
4.3935213 -3.2772162 -0.095674098 6
6.0384812 -4.4698715 0.13113739 17
6.0705066 -4.4985008 0.39597389 31
6.0101519 -4.458652 0.65471393 1
5.9722886 -4.4370308 0.91353267 10
6.1087613 -4.5433865 1.205797 96
nan nan nan nan
nan nan nan nan
nan nan nan nan
1.7582948 -1.3196853 -0.58907217 12
1.9287659 -1.4492114 -0.55697882 9
2.1510375 -1.6179819 -0.52319831 9
2.406482 -1.8120977 -0.4771252 8
2.8053582 -2.1155248 -0.43141752 8
3.2391274 -2.4452922 -0.3550725 5
3.7763636 -2.8539696 -0.24807246 8
4.426343 -3.3500462 -0.096895754 12
6.0127134 -4.5144725 0.1312421 14
6.0668879 -4.5601172 0.3977533 31
6.0123067 -4.5256639 0.65837449 8
5.9514613 -4.4847474 0.91499513 7
6.1092334 -4.608655 1.2120544 94
nan nan nan nan
nan nan nan nan
7.285162 -5.5157237 2.4484282 2
1.7584944 -1.3386439 -0.59217799 12
1.9111069 -1.4564005 -0.55472934 10
2.1396894 -1.6329592 -0.52319831 9
2.4094696 -1.8408462 -0.48025388 8
2.7908933 -2.1345711 -0.43141752 8
3.2441216 -2.4848073 -0.35751286 5
3.7721965 -2.8924165 -0.24911918 8
4.5335097 -3.4799416 -0.099757954 15
6.0271807 -4.5914812 0.13225435 9
6.0619025 -4.6229506 0.39953274 36
6.0114512 -4.5894556 0.66168642 1
5.9215841 -4.5273924 0.91523886 7
6.1098518 -4.6764059 1.2186246 89
nan nan nan nan
7.3838849 -5.665854 2.1487324 2
7.5375628 -5.7900481 2.5467794 2
1.7475772 -1.3497069 -0.59166032 12
1.914768 -1.4804349 -0.55877846 9
2.1266851 -1.6466556 -0.52281672 7
2.3965592 -1.8576224 -0.48025388 8
2.7869017 -2.1625216 -0.43312368 9
3.2298419 -2.5098395 -0.35786149 7
3.773982 -2.9358494 -0.25058457 8
4.5816798 -3.5680249 -0.10136358 13
5.9839034 -4.624886 0.13201 14
6.0373788 -4.6712685 0.40005609 34
6.0091929 -4.6544914 0.66499835 1
5.9415946 -4.6087728 0.92328221 10
6.0832973 -4.7237921 1.2198761 85
nan nan nan nan
7.3779802 -5.7436004 2.1586306 2
8.7921638 -6.8519096 2.9867721 2
1.7365912 -1.3606828 -0.59114271 11
1.9074527 -1.4961716 -0.55967826 9
2.1197691 -1.6651003 -0.52396154 9
2.3959548 -1.8840766 -0.48275682 8
2.7701769 -2.1806972 -0.43287995 8
3.228332 -2.5440981 -0.3596046 5
3.7659371 -2.972024 -0.25142196 8
4.6147156 -3.6457906 -0.10265506 9
6.0852289 -4.7714286 0.13497691 34
6.0281868 -4.7318006 0.40162617 31
5.9828181 -4.7012539 0.66569555 1
5.9389143 -4.6734653 0.92791325 8
6.07655 -4.7869272 1.2251948 91
nan nan nan nan
7.341773 -5.7961025 2.1595302 2
7.2377629 -5.7221961 2.4722395 2
1.7194881 -1.3667629 -0.58855456 10
1.9045855 -1.5155185 -0.5619278 9
2.1129928 -1.6831603 -0.52510637 9
2.3861637 -1.9028046 -0.48338255 8
2.7641923 -2.2074158 -0.43434238 6
3.204267 -2.5615973 -0.35890734 7
3.7612138 -3.0100679 -0.25246868 8
4.7998056 -3.846745 -0.10736721 9
6.0854797 -4.8388748 0.13570991 42
6.0333424 -4.8025765 0.4041383 33
5.9638729 -4.7540841 0.66726434 1
5.9442048 -4.7434974 0.93376297 7
6.063889 -4.8442059 1.2292621 85
6.1260276 -4.9008565 1.5249456 1
7.2661457 -5.8191991 2.1491826 4
7.2498927 -5.8124146 2.4898393 2
1.7221779 -1.3881341 -0.59269565 11
1.889676 -1.5247761 -0.56057805 9
2.1042447 -1.7003382 -0.52586961 7
2.3789649 -1.9243859 -0.48463401 8
2.7676153 -2.2411709 -0.43726721 8
3.1991391 -2.5933862 -0.36030185 7
3.7401078 -3.036253 -0.25246868 6
4.8200665 -3.9171617 -0.10841435 9
6.0406542 -4.8724532 0.13546558 34
6.0291915 -4.8684201 0.40612707 33
5.9732108 -4.8283863 0.67197078 1
5.9140301 -4.7873778 0.93425047 7
6.0621524 -4.912539 1.2358325 80
nan nan nan nan
5.9556642 -4.836586 1.7712648 89
7.078743 -5.7568421 2.4448047 5
1.7214183 -1.4074601 -0.59580147 12
1.891049 -1.5478058 -0.56417727 10
2.1093271 -1.7283093 -0.53006744 9
2.3795567 -1.9518095 -0.48744985 10
2.7549701 -2.2629576 -0.43775472 8
3.1901896 -2.6232495 -0.36134771 7
3.7316899 -3.0717947 -0.25330606 6
4.906785 -4.0448418 -0.1109973 14
6.0444984 -4.9438419 0.13630329 39
6.0082769 -4.9194684 0.40696445 33
5.9563055 -4.8838654 0.67388821 8
5.9012537 -4.8438954 0.93741906 7
nan nan nan nan
6.0032988 -4.9399457 1.5112073 82
5.9413075 -4.8941536 1.7771134 100
nan nan nan nan
1.7189856 -1.4256095 -0.59838963 12
1.8891937 -1.5684388 -0.56687671 11
2.0893571 -1.7370831 -0.52815932 7
2.3731205 -1.9751053 -0.48901421 7
2.7356563 -2.2800715 -0.43726721 8
3.1988733 -2.6689863 -0.36448529 5
3.7295415 -3.1150639 -0.25466678 6
4.9559431 -4.1452813 -0.11277745 10
6.0443583 -5.0163407 0.13710611 34
6.0051813 -4.9891396 0.40916255 38
5.97721 -4.9711928 0.68016338 1
5.8923712 -4.9075966 0.94156259 8
3.799089 -3.1675289 0.7834239 28
5.8773746 -4.9072804 1.4883102 49
5.9031434 -4.9340434 1.7762136 70
5.8494229 -4.8943462 2.0436354 51
1.7028277 -1.4328983 -0.59631914 12
1.8883545 -1.5907056 -0.57002604 10
2.0861845 -1.7592212 -0.53044903 7
2.3679819 -1.9996835 -0.49089143 7
2.7408955 -2.3170562 -0.44067958 8
3.1923296 -2.70155 -0.36587983 5
3.7284868 -3.1597497 -0.25613219 4
4.9665303 -4.2134137 -0.11368498 22
6.0428472 -5.0867472 0.13787402 35
5.9922328 -5.0512929 0.41073263 33
5.9445295 -5.0164075 0.68051207 1
5.8958774 -4.980639 0.9476561 10
6.033977 -5.1045237 1.2517889 45
nan nan nan nan
5.7882848 -4.9070864 1.751919 63
5.7553415 -4.8860679 2.0229297 71
1.694252 -1.4460053 -0.59683669 12
1.886093 -1.611445 -0.57272542 10
2.0780175 -1.7779332 -0.53159386 9
2.3599648 -2.021306 -0.49214289 7
2.7216387 -2.3335507 -0.4401921 6
3.1764152 -2.7263658 -0.36622843 7
3.7411737 -3.2156456 -0.25853965 8
4.9703417 -4.2766781 -0.11445288 12
6.0367041 -5.1558323 0.13857211 43
5.9932551 -5.1241527 0.41324475 30
5.9245009 -5.0707412 0.68225515 1
5.8872156 -5.0459538 0.95204335 10
6.0296769 -5.1735368 1.2583591 100
3.7292173 -3.2031062 0.95557153 4
nan nan nan nan
5.6991315 -4.9072204 2.0151651 25
1.6928797 -1.4653842 -0.59994256 12
1.8615427 -1.6130875 -0.56867629 9
2.0747659 -1.7997556 -0.53388357 10
2.3446603 -2.0360274 -0.49182999 7
2.7112732 -2.3577046 -0.44116706 8
3.1633148 -2.7537074 -0.36692566 7
3.7493141 -3.2672794 -0.26063308 8
4.9840574 -4.3494024 -0.11546512 10
6.0271688 -5.2190566 0.13916549 45
5.9808755 -5.1844521 0.41481483 27
5.9401121 -5.156384 0.68818176 1
5.8767076 -5.1067429 0.95594323 10
6.0077353 -5.2261271 1.2611748 84
3.7763407 -3.2896719 0.97350752 9
8.940115 -7.7962127 2.7385542 2
nan nan nan nan
1.6901261 -1.4832448 -0.60253078 12
1.8563757 -1.6308657 -0.57047588 9
2.0665727 -1.8180863 -0.53502846 10
2.3466959 -2.0667081 -0.49527156 8
2.6981401 -2.3787301 -0.44165453 8
3.1529753 -2.7836359 -0.36797154 9
3.705461 -3.2748578 -0.25916767 21
5.0172391 -4.4388785 -0.11693113 10
6.017632 -5.2847581 0.13979377 45
5.958035 -5.2379479 0.41575688 24
5.9258156 -5.2151251 0.69062209 3
5.8602729 -5.1647081 0.95911181 7
6.0081367 -5.3006134 1.2689966 98
3.7126579 -3.2789109 0.9628222 11
9.3890829 -8.3038378 2.8937705 2
8.539691 -7.5605955 3.0561354 1
1.6883885 -1.5027139 -0.6056366 12
1.85804 -1.6554533 -0.57452506 10
2.0582249 -1.8363904 -0.53617334 10
2.3469431 -2.0961993 -0.49840027 8
2.678508 -2.3948624 -0.44116706 8
3.1512775 -2.8215284 -0.37006328 9
3.7092798 -3.3246419 -0.26105177 8
3.3965206 -3.0475233 -0.079652779 1
6.0134439 -5.3559008 0.14056168 45
5.9362302 -5.292706 0.4168036 16
5.9041276 -5.2696347 0.69236517 1
5.8447948 -5.2240143 0.96252412 8
5.9974837 -5.3661375 1.2746283 82
3.5858455 -3.211751 0.93572736 13
3.5222926 -3.1592629 1.0923624 1
7.3137412 -6.566854 2.6337428 2
1.6735543 -1.5105814 -0.60408366 11
1.8449916 -1.6670778 -0.5740751 9
2.052633 -1.8573009 -0.53808141 9
2.3337162 -2.1138589 -0.49871314 10
2.6676061 -2.4188373 -0.44214204 6
3.1285529 -2.8407807 -0.36971465 7
3.6357286 -3.3047805 -0.25749293 2
3.388474 -3.0832739 -0.079966925 14
6.0055852 -5.4245586 0.14125979 45
5.9124689 -5.3460755 0.41774565 5
5.8982153 -5.3388028 0.69602579 1
3.5666857 -3.232939 0.59106636 13
5.9818187 -5.4277878 1.2793212 22
3.5168324 -3.1944656 0.92351556 37
3.410773 -3.1024771 1.0644685 30
3.5452981 -3.2282357 1.2847778 1
1.6629678 -1.522228 -0.60408366 11
1.8448024 -1.69045 -0.57767433 9
2.0613146 -1.8914959 -0.54380566 11
2.3028994 -2.1154003 -0.49527156 8
2.6564994 -2.4427762 -0.44311696 5
3.1145067 -2.8679512 -0.37041187 5
3.5905411 -3.3097768 -0.25592285 4
3.3683355 -3.1082106 -0.080001831 36
5.9882126 -5.4852633 0.14174846 45
5.9059157 -5.4155684 0.41994375 2
5.8710732 -5.3892808 0.6972459 1
5.8341293 -5.3628778 0.97300488 10
3.5671401 -3.2824521 0.76778048 37
3.6013005 -3.3173697 0.95175534 5
3.4033549 -3.1394258 1.0689675 11
3.35236 -3.0956359 1.2226613 12
1.6607953 -1.5416864 -0.60718954 12
1.8343837 -1.7046144 -0.57812428 11
2.0466223 -1.9045031 -0.54342401 11
2.2996383 -2.1421971 -0.49777454 8
2.6422844 -2.4639702 -0.44360444 6
3.0920007 -2.8863652 -0.37006328 7
3.6578074 -3.4193249 -0.26241252 2
3.3626156 -3.1466801 -0.080385789 10
5.9732141 -5.5487103 0.14230692 48
5.8972173 -5.4838691 0.42203718 2
5.8624725 -5.4572873 0.70073211 1
3.2816124 -3.0590823 0.55084944 5
5.9704423 -5.571425 1.2934003 75
3.5106235 -3.2794418 0.93381923 19
3.492929 -3.2663386 1.1040599 21
3.4956489 -3.2734599 1.2832248 27
1.6556183 -1.5585399 -0.60926002 11
1.8295298 -1.7240615 -0.58037376 11
2.0521767 -1.9359031 -0.54838508 11
2.2936211 -2.1659384 -0.49965176 8
2.6279032 -2.4850843 -0.44409195 6
3.0920312 -2.9270568 -0.37250364 3
3.2763672 -3.1048119 -0.23655853 8
3.3043027 -3.1356659 -0.079513162 34
5.9673347 -5.6194 0.14307483 45
5.8888192 -5.5512824 0.42413062 2
3.4293423 -3.2373033 0.41259527 6
3.2765851 -3.0963461 0.55353063 11
nan nan nan nan
3.5802863 -3.3916318 0.95862442 4
3.3187387 -3.1471646 1.0559204 14
3.4508688 -3.275897 1.2749426 21
1.6547544 -1.579109 -0.61288351 11
1.829025 -1.7472436 -0.58397299 12
2.0343554 -1.9461113 -0.5472402 10
2.2841511 -2.1873627 -0.50090319 8
2.6051948 -2.4974194 -0.44311696 8
3.0864115 -2.9618311 -0.37424675 5
3.2142892 -3.0888605 -0.23362774 5
3.2425308 -3.1192672 -0.078535825 32
5.9670067 -5.6982112 0.14401726 42
5.8932323 -5.6336632 0.4272708 2
3.3985906 -3.252306 0.41154939 17
nan nan nan nan
3.2601411 -3.127455 0.71553135 16
3.448082 -3.3112154 0.92923987 30
3.3379817 -3.2088466 1.0689675 8
3.2609031 -3.1391337 1.2128261 39
1.6450785 -1.5919664 -0.61340117 11
1.8195817 -1.7626818 -0.58487278 12
2.0154245 -1.9544467 -0.54571378 10
2.2833829 -2.216619 -0.5040319 8
2.6047769 -2.5321503 -0.44604182 8
3.065659 -2.9833057 -0.37424675 5
3.5966308 -3.5036824 -0.26314521 2
3.219244 -3.1404316 -0.078500926 34
5.9568176 -5.7665124 0.14471537 40
3.34762 -3.2440691 0.24430427 1
3.4787495 -3.3758552 0.42409983 6
nan nan nan nan
3.218951 -3.1302931 0.71115112 22
3.2603183 -3.1749523 0.88459057 25
3.33922 -3.2551968 1.0766158 1
3.2035127 -3.1261768 1.1993675 27
1.6286879 -1.5977157 -0.61133063 12
1.8242265 -1.791411 -0.59027159 12
2.0171285 -1.9836112 -0.54991156 10
2.2594061 -2.2241912 -0.50215465 8
2.5813811 -2.544699 -0.44506687 6
3.0447569 -3.0046353 -0.37424675 7
3.2140217 -3.1749928 -0.23676789 14
3.198663 -3.1642358 -0.078535825 40
5.9406734 -5.8317719 0.14530873 14
3.3405602 -3.2827592 0.24545565 7
3.5409107 -3.4832895 0.43455851 62
nan nan nan nan
3.1899867 -3.1457541 0.7095868 9
3.2995384 -3.2583332 0.90138179 12
3.2886958 -3.2510293 1.0676178 3
nan nan nan nan
1.6240602 -1.6161427 -0.61391884 11
1.8182639 -1.8112957 -0.59252113 11
1.999061 -1.9934862 -0.54876673 10
2.2490232 -2.2458854 -0.50340617 8
2.5888236 -2.5879197 -0.44945419 8
3.0349734 -3.0370932 -0.37564126 8
3.124913 -3.1314642 -0.23184831 15
3.2174361 -3.2275596 -0.079548068 43
5.9338288 -5.9069624 0.14614646 4
3.4428737 -3.4320748 0.25477144 1
3.5553834 -3.5479445 0.43943924 6
3.2231145 -3.2197404 0.55938035 8
3.1380675 -3.1391628 0.70301658 18
3.0145185 -3.0187299 0.82925594 2
3.2136202 -3.2214823 1.0505215 29
3.2830682 -3.2956986 1.2464726 1
1.6263357 -1.6411635 -0.61909521 11
1.7987198 -1.8170205 -0.59027159 9
2.0068283 -2.0300794 -0.55487263 10
2.2443933 -2.2727761 -0.50590914 8
2.5651171 -2.6002769 -0.44847921 6
3.0299416 -3.0757651 -0.37773296 6
3.1085787 -3.1588981 -0.23226699 50
3.3686554 -3.4267719 -0.083876267 14
3.3685286 -3.401614 0.083562121 30
3.4370897 -3.4744849 0.25613219 6
3.4689078 -3.510324 0.43176955 16
3.5374205 -3.5846565 0.61836511 13
3.1729329 -3.2186713 0.71584421 30
5.84761 -5.9381194 1.6199685 15
5.779767 -5.8774281 1.9030859 23
3.2234268 -3.2813282 1.2324963 28
1.6202396 -1.6580039 -0.62116575 9
1.7941585 -1.8379005 -0.59297103 10
1.9843843 -2.0356052 -0.55258286 10
2.2367411 -2.2968805 -0.50778633 7
2.5469012 -2.6181214 -0.44847921 6
3.0014534 -3.0896976 -0.37686142 4
3.2533603 -3.3525207 -0.24482764 20
3.3126371 -3.4171827 -0.083073452 29
3.1183658 -3.1932776 0.07790754 26
3.3039656 -3.3868816 0.24796779 22
3.3052649 -3.3917646 0.41433838 22
3.1509717 -3.2379527 0.55474925 15
3.3348923 -3.4305425 0.75776863 37
5.7745538 -5.9464049 1.6111913 43
3.0985701 -3.1952431 1.0275766 9
3.0996284 -3.1996858 1.1936734 49
1.6113061 -1.6720569 -0.62220097 9
1.7907443 -1.8602087 -0.5961203 11
1.9755669 -2.0550704 -0.55410933 10
2.223388 -2.3152895 -0.50841206 7
2.5395551 -2.6472986 -0.45042911 8
2.9072921 -3.0338149 -0.36762294 11
3.0669322 -3.2048786 -0.23247635 45
3.2472463 -3.3968613 -0.08202631 35
3.1334486 -3.2538607 0.078849971 33
3.3342419 -3.4660006 0.25205001 43
3.1434531 -3.2710986 0.39690727 16
3.2121322 -3.3472409 0.56961739 37
nan nan nan nan
3.1122234 -3.2499352 0.87466848 31
3.0363364 -3.1740155 1.0140795 28
nan nan nan nan
1.5969324 -1.6804644 -0.62116575 11
1.7857642 -1.881145 -0.59881973 12
1.9682873 -2.0755928 -0.5560174 10
2.2007842 -2.3231995 -0.50684774 7
2.5210118 -2.6649632 -0.45042911 9
2.9654109 -3.1380274 -0.37773296 4
3.2150533 -3.405772 -0.24545565 22
3.0341604 -3.218647 -0.07720945 47
3.2200313 -3.3896487 0.081607454 22
3.2184594 -3.3915482 0.24503697 33
3.0835376 -3.2539167 0.39220083 37
3.1169457 -3.2926226 0.55669922 27
3.0782583 -3.2551668 0.7095868 39
nan nan nan nan
nan nan nan nan
2.9028547 -3.0804348 1.1341451 12
1.5973479 -1.7039801 -0.62582451 12
1.7755824 -1.8961014 -0.59971952 11
1.960454 -2.0964532 -0.55792552 9
2.1804662 -2.3341765 -0.50590914 8
2.5163572 -2.6965747 -0.45286649 8
2.9317551 -3.1450229 -0.37616417 12
3.1775899 -3.4135156 -0.24440894 48
2.9863083 -3.2114017 -0.076546252 24
3.0185657 -3.2223258 0.077069834 27
3.0937181 -3.3060191 0.23729126 37
3.0994141 -3.3155842 0.39708155 35
3.0857553 -3.3055956 0.55523676 11
nan nan nan nan
2.9961948 -3.2164001 0.85444272 3
2.894047 -3.1100085 0.98078662 36
nan nan nan nan
1.5919697 -1.722183 -0.62841266 12
1.7596577 -1.9055878 -0.59881973 11
1.9567877 -2.1212933 -0.56097847 10
2.1672049 -2.3518698 -0.50653487 8
2.494782 -2.7111549 -0.45237905 8
2.9191663 -3.1756818 -0.37738436 4
3.1434746 -3.4232962 -0.24357156 38
2.9813852 -3.2513318 -0.077000014 24
3.095633 -3.3500094 0.07961788 33
3.1090753 -3.3680923 0.24022207 21
3.1639674 -3.4323626 0.4084118 11
2.7982814 -3.0388474 0.50722027 13
3.0651808 -3.3321915 0.71709567 1
2.9497609 -3.2112141 0.84757364 22
2.8432784 -3.0985482 0.97088879 15
nan nan nan nan
1.5906236 -1.7443992 -0.63255376 12
1.7610813 -1.9333682 -0.60376865 11
1.9392887 -2.1319978 -0.56021523 9
2.1587038 -2.3757141 -0.50841206 7
2.4749358 -2.7266037 -0.45213532 11
2.8929105 -3.1915548 -0.37686142 12
2.9841015 -3.2956264 -0.2329997 26
2.9417467 -3.2522707 -0.076546252 16
3.2243643 -3.5385644 0.083562121 46
nan nan nan nan
3.5681148 -3.9240575 0.46401718 11
3.0078592 -3.312556 0.54938704 8
5.6709409 -6.2519827 1.3368891 1
2.8777413 -3.1759334 0.83307213 32
2.8503423 -3.1501124 0.98078662 33
2.816232 -3.1156921 1.1253452 11
1.5796986 -1.7568978 -0.63307142 11
1.754052 -1.9528649 -0.60601819 11
1.9151813 -2.1352541 -0.55754393 9
2.1526113 -2.4024966 -0.51091504 7
2.4743752 -2.7645233 -0.45554763 9
2.8519704 -3.190876 -0.37442106 15
2.9716632 -3.3282974 -0.23383708 39
2.8417695 -3.186172 -0.074521773 19
3.061923 -3.4077795 0.079966925 41
2.9923732 -3.3338835 0.23477912 9
2.9753549 -3.3184166 0.38993478 11
2.9965768 -3.3467836 0.55158067 27
nan nan nan nan
2.7233846 -3.0480804 0.79452866 10
3.0449429 -3.4127691 1.0559204 26
2.8921008 -3.2448821 1.1646857 50
1.5673945 -1.7678833 -0.63307142 10
1.7416679 -1.9665215 -0.60646808 9
1.9028293 -2.1515136 -0.55830717 9
2.1410182 -2.4233873 -0.5121665 7
2.4576421 -2.7847071 -0.45603511 9
2.7479503 -3.1180348 -0.36361378 31
2.97475 -3.3789442 -0.23593052 18
2.7679543 -3.1473711 -0.073160492 36
2.8510799 -3.2180295 0.075045347 42
2.9690256 -3.3546927 0.23477912 31
2.9032879 -3.283879 0.38348526 58
2.8259933 -3.2009523 0.52428192 36
2.7948148 -3.1689801 0.66922677 46
2.7682273 -3.1421478 0.81399125 8
2.8755906 -3.2686112 1.0050814 10
2.5122991 -2.8586833 1.0197471 16
1.5690006 -1.7947816 -0.63876545 11
1.7355876 -1.9874396 -0.60916752 11
1.8967948 -2.1751029 -0.56097847 9
2.1162622 -2.4293382 -0.51028925 7
2.4459603 -2.8107812 -0.45749757 11
2.7339568 -3.1461661 -0.36465961 37
2.8489656 -3.2819846 -0.22776611 22
2.743294 -3.1635962 -0.07309068 36
2.8298597 -3.2393613 0.075080253 23
2.7761288 -3.181215 0.22127645 37
nan nan nan nan
2.7318919 -3.1382542 0.51087636 46
2.6131878 -3.0050688 0.6307438 10
2.5736992 -2.9627907 0.7628544 49
2.6228507 -3.0236335 0.92409903 31
2.5858991 -2.9841912 1.0580523 34
1.5551711 -1.8042278 -0.63824779 6
1.7178557 -1.9950775 -0.60781777 12
1.8866836 -2.1942463 -0.56250495 10
2.1095476 -2.4560413 -0.51279223 7
2.4236927 -2.8247757 -0.45701009 4
2.7560015 -3.2166178 -0.37058622 22
2.807802 -3.280551 -0.2263007 39
2.7341361 -3.19787 -0.073439725 34
2.8189218 -3.2726743 0.075394399 26
2.7629712 -3.2111163 0.22200914 31
2.7376735 -3.1850874 0.3674486 51
2.6569071 -3.0954907 0.50088304 27
2.8094425 -3.2766752 0.68361872 13
2.5963748 -3.031383 0.77582937 32
2.6422105 -3.0892611 0.93849593 40
2.7858639 -3.260675 1.1491566 16
1.5437887 -1.8165132 -0.63876545 7
1.711453 -2.0159354 -0.6105172 12
1.8662406 -2.2013743 -0.56097847 9
2.0936265 -2.4722164 -0.51310509 6
2.4116054 -2.8507204 -0.45847249 9
2.6113331 -3.0911891 -0.35402662 21
2.7255793 -3.2298589 -0.22148579 36
2.5944588 -3.0777464 -0.070263386 39
2.718339 -3.2008226 0.073300108 31
2.8671093 -3.3795831 0.23226699 10
2.721812 -3.2117221 0.36832017 7
3.4392667 -4.0640635 0.65370721 11
2.6143355 -3.0925531 0.64138144 51
2.4966147 -2.9564373 0.75216907 24
2.5803785 -3.0599597 0.92409903 16
3.3305743 -3.9537833 1.3851995 9
1.5285879 -1.8242849 -0.63773018 10
1.7048422 -2.0368004 -0.61321658 13
1.8533452 -2.2173624 -0.56174171 9
2.0737841 -2.4837394 -0.51247936 6
2.4005456 -2.8781581 -0.4601787 8
2.594789 -3.1154678 -0.35472387 35
2.6531463 -3.1889293 -0.21740359 33
2.5268958 -3.0404201 -0.069006816 41
2.5354552 -3.0280716 0.068937011 11
3.2560592 -3.8928223 0.26597136 14
2.5971246 -3.1083302 0.35437521 1
2.6159718 -3.1353333 0.50137055 3
nan nan nan nan
2.4269235 -2.9149523 0.73728597 6
2.4879405 -2.9924853 0.89845455 12
2.5080247 -3.0198574 1.0518407 4
1.5158149 -1.8349119 -0.63773018 10
1.6980236 -2.0576708 -0.61591601 12
1.8415655 -2.234792 -0.56288654 10
2.0601604 -2.502732 -0.51341796 7
2.3917408 -2.9086463 -0.46237233 9
2.6007919 -3.1673832 -0.35855874 26
2.7080839 -3.3015716 -0.22378856 41
2.5601056 -3.1244981 -0.07050772 34
2.6631989 -3.2261271 0.073020868 21
2.6392066 -3.2004752 0.21740359 39
3.8332732 -4.653441 0.5274666 1
4.2674584 -5.1879001 0.82481176 10
2.3689919 -2.8830316 0.5910095 16
2.4164791 -2.9439645 0.74033892 2
3.3984404 -4.146174 1.2376808 14
nan nan nan nan
1.5115074 -1.8559351 -0.64135361 9
1.6774677 -2.0619168 -0.61366653 12
1.8370602 -2.2613082 -0.56632113 10
2.0426378 -2.5170536 -0.51341796 7
2.3876274 -2.9453194 -0.46554092 8
2.586138 -3.1947541 -0.3596046 31
2.6925039 -3.3297155 -0.2244166 28
2.6827331 -3.3211877 -0.074521773 27
2.5547791 -3.1391747 0.070647344 10
2.6256182 -3.2296705 0.2181363 9
2.794627 -3.4412413 0.38784304 1
2.3693864 -2.9217756 0.46188486 10
2.3687015 -2.9240589 0.59601539 11
2.3946328 -2.9592366 0.73995733 10
2.6431084 -3.2709649 0.97088879 1
4.0830708 -5.0583982 1.7418523 24
1.4888382 -1.8543907 -0.63721251 3
1.6618129 -2.072057 -0.61321658 11
1.827365 -2.28174 -0.5682292 12
2.0311856 -2.5389647 -0.51498228 7
2.3570931 -2.9495106 -0.46359101 8
2.5935969 -3.2501063 -0.36378807 28
2.6169043 -3.2828369 -0.22002037 40
2.6457798 -3.322628 -0.074137822 34
2.4614727 -3.0680282 0.068657771 28
2.5605397 -3.1949327 0.21457745 46
2.4642193 -3.0780497 0.34496242 36
2.3464518 -2.9351444 0.46139738 12
2.3605568 -2.95596 0.59914404 23
3.9373448 -4.9357586 1.2272835 13
3.388787 -4.254189 1.2556769 24
4.0175853 -5.0489879 1.7289113 23
1.4818505 -1.8723137 -0.63980073 4
1.6533496 -2.0912516 -0.61546612 10
1.8016589 -2.2821145 -0.56517625 11
2.0195274 -2.5608385 -0.51654667 8
2.3290739 -2.9565382 -0.46212861 8
2.5634532 -3.2587378 -0.36274219 31
2.6321771 -3.3497097 -0.22326522 28
2.6262231 -3.3457372 -0.07424254 31
2.5007765 -3.1619914 0.070368104 8
2.4106448 -3.0513103 0.20379624 27
2.4192188 -3.0654616 0.34165049 22
2.8247504 -3.5844653 0.56035525 22
2.3239789 -2.9521897 0.5950768 31
nan nan nan nan
3.3939066 -4.3221922 1.2687241 35
nan nan nan nan
1.4806265 -1.8978448 -0.64497709 12
1.6470951 -2.1135027 -0.61861545 10
1.7700083 -2.2744946 -0.56021523 18
2.0052371 -2.5795538 -0.51748526 6
2.3229868 -2.9915407 -0.46505347 6
2.5418611 -3.2781291 -0.3629165 22
2.5916052 -3.3458979 -0.22179982 42
2.6725521 -3.4541392 -0.076232105 32
2.4257734 -3.1115589 0.068867192 36
2.5917656 -3.3280709 0.22106709 23
2.3745158 -3.0523973 0.33833858 47
2.374655 -3.0569775 0.47529048 4
2.3105783 -2.977706 0.59695399 6
nan nan nan nan
3.1835394 -4.1130805 1.2007889 40
3.9549701 -5.1152878 1.7325348 6
1.4614527 -1.9004782 -0.64238888 23
1.6334871 -2.1264956 -0.61906534 10
1.7421376 -2.2712185 -0.55639905 4
1.98718 -2.5934899 -0.51748526 5
2.3189366 -3.0297539 -0.46846578 4
2.5182791 -3.293772 -0.36274219 26
2.5524278 -3.3432715 -0.22043908 33
2.5683398 -3.367768 -0.073928393 28
2.5173068 -3.2758801 0.072113343 28
2.5611718 -3.3365777 0.22043908 44
2.3689084 -3.0894542 0.34060463 20
nan nan nan nan
2.2441308 -2.93414 0.58506501 46
nan nan nan nan
2.6849267 -3.5180969 1.0217278 43
2.1615701 -2.8364391 0.95555997 2
1.4633193 -1.9306494 -0.64911819 28
1.6209543 -2.1409547 -0.61996514 10
1.7337434 -2.2924192 -0.55868876 6
1.7098997 -2.263355 -0.44927984 4
2.3072925 -3.0585473 -0.47041571 1
2.495223 -3.3112729 -0.36274219 31
2.5248072 -3.3541846 -0.22002037 29
2.5423629 -3.3824196 -0.073858589 34
2.6012213 -3.4331996 0.075184964 31
nan nan nan nan
2.5382848 -3.3586497 0.36832017 60
2.3478296 -3.1100242 0.47845906 39
2.2585988 -2.9950857 0.59413815 61
2.2131352 -2.9390635 0.71515214 1
nan nan nan nan
nan nan nan nan
1.4455183 -1.9343748 -0.64704764 25
1.6063439 -2.1519384 -0.61996514 10
1.7270833 -2.31706 -0.56174171 12
1.7070338 -2.2926655 -0.45272139 6
1.7011915 -2.2873185 -0.35000879 3
nan nan nan nan
2.5465481 -3.4326839 -0.22399792 22
2.691916 -3.6326091 -0.078919783 14
2.5939405 -3.4737077 0.07567364 22
2.4205852 -3.2450991 0.21216999 34
2.8605874 -3.8391702 0.41887048 45
2.4895837 -3.3461227 0.51209503 30
2.5133617 -3.3817773 0.66734952 40
2.1837163 -2.9414489 0.71209919 36
2.1126468 -2.848834 0.81882185 12
nan nan nan nan
1.4480171 -1.9661969 -0.65429455 27
1.5935911 -2.1662402 -0.62086499 9
1.6984836 -2.3113596 -0.55754393 9
1.6960642 -2.3106017 -0.45397288 6
1.6875287 -2.3023412 -0.35049626 6
1.674867 -2.2875774 -0.24804525 6
1.6801176 -2.2972715 -0.14915749 2
2.5332243 -3.4688282 -0.074975535 9
2.2453997 -3.0500417 0.066109717 15
2.4883673 -3.3837862 0.22012506 13
2.436311 -3.3178492 0.36012751 22
2.4702723 -3.3677928 0.51282626 43
2.2322659 -3.0466566 0.59820545 15
2.1654468 -2.9597912 0.71286243 31
2.1754951 -2.9767954 0.85121483 23
2.1220634 -2.9068768 0.96435976 10
1.4277902 -1.9666278 -0.65118873 56
1.5673685 -2.1612613 -0.61636597 9
1.6719427 -2.3088496 -0.55410933 6
1.6741034 -2.3143833 -0.45240852 4
1.6830376 -2.3301585 -0.35293365 8
1.6658504 -2.3089089 -0.2490911 4
1.6418515 -2.2781591 -0.14716873 5
1.6294132 -2.2642312 -0.048692215 5
2.2451887 -3.0947778 0.066738002 7
2.4928107 -3.4398899 0.22263718 42
3.2828729 -4.535111 0.48981526 4
2.7944016 -3.8659937 0.58570409 8
2.4283364 -3.3632581 0.65702486 46
nan nan nan nan
2.1375782 -2.9681904 0.84446633 13
3.3088241 -4.5996318 1.5182326 6
1.4181758 -1.9830799 -0.65325934 43
1.5450665 -2.1629076 -0.61366653 9
1.6763095 -2.3492317 -0.56097847 10
1.6460365 -2.3102157 -0.44927984 5
1.6552186 -2.3256786 -0.35049626 3
1.6496906 -2.3204825 -0.2490911 6
1.6463178 -2.3191648 -0.14905281 6
1.6089396 -2.2690263 -0.048552595 5
nan nan nan nan
2.4739342 -3.4657681 0.22316055 27
2.2567284 -3.1649847 0.34008169 31
5.6521544 -7.93574 1.1962696 13
2.416801 -3.3982561 0.66046637 19
2.7447104 -3.8636112 0.92122585 1
2.0773327 -2.927417 0.82871974 15
2.1142642 -2.9838736 0.97988898 13
1.4098607 -2.0008283 -0.65584749 46
1.525442 -2.1672668 -0.61186689 11
1.6786472 -2.388473 -0.56746602 19
1.8931894 -2.6967366 -0.52186543 6
1.6343831 -2.3306761 -0.34952128 5
1.6261868 -2.3224356 -0.24804525 3
1.6209291 -2.3175082 -0.14821544 5
1.6102387 -2.3047922 -0.049076166 7
1.5910451 -2.2596338 0.048238453 7
nan nan nan nan
2.2906997 -3.2605455 0.34862295 13
nan nan nan nan
2.6140683 -3.7305045 0.72147578 9
2.3506615 -3.3583398 0.79681838 40
2.0853567 -2.9837363 0.84041715 6
2.2493072 -3.2219088 1.052876 11
1.4002647 -2.0169697 -0.65791804 45
1.5102748 -2.1778636 -0.61186689 10
1.6675198 -2.4082043 -0.56937408 25
1.8900485 -2.7326324 -0.52624559 11
2.1845105 -3.1619034 -0.47187814 12
1.607671 -2.3304517 -0.24769662 5
1.6001774 -2.3221896 -0.14779675 5
1.5997779 -2.3242135 -0.049250688 6
1.5957478 -2.300261 0.048866738 7
1.5687115 -2.2638183 0.14434259 5
1.5818474 -2.2853296 0.24316452 6
2.0405953 -2.9524953 0.44067958 9
2.6081626 -3.7779243 0.72710747 1
nan nan nan nan
2.3020897 -3.3433065 0.93714619 18
3.1321325 -4.553875 1.4809626 4
1.3872403 -2.0282907 -0.6584357 33
1.499431 -2.1947906 -0.61366653 11
1.6573049 -2.4295177 -0.57166374 10
1.8698128 -2.7441285 -0.52593273 8
2.1802542 -3.2033334 -0.47577798 15
2.3064437 -3.3925548 -0.35890734 38
1.5816833 -2.3299994 -0.14758742 5
1.5633123 -2.3055339 -0.048622403 5
1.5807787 -2.3129961 0.048901644 8
1.5641298 -2.2912099 0.1453893 6
1.5602421 -2.2880867 0.24229297 6
1.5350599 -2.2545376 0.33489698 6
1.5685861 -2.3063722 0.44177097 1
2.1921167 -3.2268128 0.75827497 13
2.2486405 -3.3137481 0.92454886 63
3.0341635 -4.4780726 1.4493867 1
1.3752053 -2.0411303 -0.65947098 28
1.4906002 -2.2149053 -0.61636597 11
1.6451104 -2.4472599 -0.57319027 8
1.8687098 -2.7830315 -0.53093863 9
2.1799464 -3.2514527 -0.48065275 15
2.3503308 -3.509557 -0.36954033 20
2.3864369 -3.5675099 -0.22493997 45
1.5482894 -2.3180547 -0.048657309 5
1.563881 -2.3220439 0.048866738 4
1.5484979 -2.3018036 0.1453893 6
1.5542287 -2.3138084 0.24386176 7
1.5329506 -2.2847152 0.33782184 6
1.5198585 -2.2677677 0.43238491 9
1.5417136 -2.3038538 0.53884465 3
nan nan nan nan
nan nan nan nan
1.3644856 -2.0552721 -0.66102386 28
1.4808745 -2.2331204 -0.61861545 11
1.6355726 -2.4701438 -0.57586157 10
1.8492352 -2.7960098 -0.53093863 8
2.1632354 -3.274497 -0.48187143 11
2.285181 -3.4643431 -0.36309084 33
2.3988345 -3.6407883 -0.2284988 24
2.583441 -3.9254436 -0.08202631 1
1.5343667 -2.3129091 0.048447877 7
1.5323908 -2.3125579 0.1453893 5
1.5329448 -2.3160269 0.24299021 6
1.5300971 -2.3152349 0.34074673 8
1.5203135 -2.3030515 0.43707794 6
1.5043814 -2.2815142 0.53121227 6
1.4927498 -2.2673166 0.62671363 7
nan nan nan nan
1.3564476 -2.0744491 -0.66412973 21
1.4631171 -2.2401412 -0.6177156 7
1.6225779 -2.4880798 -0.57738805 10
1.8296704 -2.8088515 -0.53093863 8
2.172801 -3.3394363 -0.4891836 12
2.3369195 -3.5971656 -0.37529263 58
2.4331548 -3.7495944 -0.23425576 22
2.6081805 -4.0239291 -0.083701737 1
2.3363383 -3.5757451 0.074556686 30
1.5140256 -2.3198547 0.14517996 6
1.5102104 -2.3166578 0.24194433 6
1.5041504 -2.3108869 0.33855307 6
1.510659 -2.3235459 0.43895519 8
1.4959016 -2.3034868 0.53388357 7
1.482186 -2.2858582 0.62896323 5
1.4597524 -2.2538452 0.71951699 6
1.3429781 -2.0854924 -0.66464734 9
1.4516592 -2.2568569 -0.61951524 6
1.6136557 -2.512562 -0.580441 10
1.824949 -2.8448339 -0.53531879 8
2.1483634 -3.3528521 -0.48893982 19
2.3145287 -3.6163454 -0.37564126 42
2.5467305 -3.9852757 -0.2478631 22
2.533761 -3.9695592 -0.082200833 38
2.3167286 -3.6003759 0.074731201 15
2.5895517 -4.0289993 0.25100327 73
1.4993821 -2.3355277 0.24281588 6
1.4729832 -2.2979343 0.33514073 7
1.4880098 -2.3240538 0.43707794 5
1.4871885 -2.3254514 0.53655493 6
1.4728867 -2.3057477 0.63166261 7
1.4429435 -2.2623525 0.71899933 4
1.3408006 -2.1143949 -0.67085898 24
1.4442102 -2.2801068 -0.62311447 6
1.5923173 -2.5168512 -0.57891452 10
1.8160952 -2.8738887 -0.5384475 8
2.1365559 -3.3862362 -0.49162099 12
2.2913499 -3.6357868 -0.37598985 38
2.2907858 -3.6391139 -0.22535865 15
2.5017302 -3.9803791 -0.082061216 21
2.2589796 -3.5637045 0.073649161 30
2.5631359 -4.0482202 0.25110796 19
2.0664628 -3.2688203 0.33833858 32
1.4551878 -2.3045504 0.33465323 3
1.4637256 -2.3207624 0.43457499 7
1.4625483 -2.3224869 0.53350198 4
1.4577916 -2.3176236 0.6321125 6
1.4439542 -2.2982948 0.72728157 9
1.3100026 -2.0972567 -0.66257679 24
1.4379405 -2.3047643 -0.62716359 12
1.5788597 -2.5345719 -0.580441 10
1.8022491 -2.8965609 -0.54032475 8
2.1008835 -3.3804684 -0.48869613 21
2.2749557 -3.6648417 -0.37738436 26
2.2537501 -3.636344 -0.22420727 33
2.1545994 -3.4804358 -0.071450152 13
2.1948702 -3.5166221 0.072357684 35
2.4238679 -3.8880529 0.2401174 18
2.0367925 -3.2709715 0.33711842 47
nan nan nan nan
2.1644585 -3.4854782 0.64982885 6
1.4477403 -2.3340566 0.53388357 7
1.4296662 -2.3076136 0.62671363 6
1.4177115 -2.2918899 0.72210521 4
1.3003889 -2.1145792 -0.66516501 12
1.4238548 -2.3180678 -0.62806338 12
1.5636246 -2.5486069 -0.58120424 11
1.7742339 -2.8952873 -0.53782177 11
2.0772326 -3.3950527 -0.48869613 10
2.2451587 -3.6738334 -0.37668711 34
2.3215594 -3.8033245 -0.23352307 24
2.5381908 -4.1647601 -0.085132837 3
2.1645989 -3.5212593 0.072148249 46
2.1946065 -3.5742674 0.21981104 1
2.0003705 -3.2630291 0.33485237 28
2.0462821 -3.3418469 0.4811402 22
nan nan nan nan
2.9047711 -4.7569118 1.0834136 1
1.4206247 -2.3291843 0.62986302 7
1.3940377 -2.2882884 0.71796405 4
1.2989752 -2.1448631 -0.67189431 25
1.4110696 -2.3327081 -0.62941307 10
1.5569584 -2.5779467 -0.58540201 10
1.7549984 -2.9092944 -0.53813463 5
2.0407569 -3.3870091 -0.48552752 19
2.2543764 -3.7474656 -0.38261372 28
2.1745965 -3.6191366 -0.22127645 40
2.5056679 -4.1750817 -0.084993221 35
2.1358223 -3.5294414 0.072008632 46
2.269815 -3.7553017 0.22996421 13
2.4260468 -4.0185308 0.41067785 11
2.0259762 -3.3611512 0.48187143 37
nan nan nan nan
2.0973332 -3.4877903 0.79109418 5
5.1378388 -8.5575638 2.3043988 2
1.3849834 -2.3095622 0.72158754 9
1.2879267 -2.1605167 -0.6739648 27
1.3937529 -2.3408282 -0.62896323 11
1.5489554 -2.6056292 -0.5892182 11
1.7406965 -2.9316666 -0.54001182 8
2.0221243 -3.4097111 -0.48674619 12
2.2322195 -3.7699704 -0.38331094 26
2.2722971 -3.8422439 -0.23394175 28
2.426625 -4.1081071 -0.083282888 31
2.174577 -3.6507828 0.074172728 30
2.1792083 -3.6629198 0.22336988 1
2.3938618 -4.0285182 0.4099806 15
1.8859806 -3.1788809 0.45384148 31
1.9244384 -3.247576 0.59789258 19
1.8359407 -3.1019342 0.70065069 22
2.5627794 -4.3368769 1.162997 1
1.9079119 -3.2325368 1.0057708 6
1.272812 -2.1694555 -0.6739648 12
1.3832886 -2.360589 -0.63166261 9
1.5247786 -2.6062124 -0.58692849 10
1.7132107 -2.9318089 -0.53782177 16
2.0212855 -3.4631767 -0.49235216 22
2.1767554 -3.7355404 -0.3782559 40
2.2635014 -3.8890851 -0.23582584 38
2.3787916 -4.0921001 -0.082619689 36
2.681998 -4.5750122 0.092567563 12
2.0960608 -3.5798023 0.21740359 15
2.3536093 -4.0244942 0.40788889 13
1.8667451 -3.1971123 0.45457271 37
2.2062328 -3.7830901 0.69363046 13
2.0237279 -3.4743226 0.78155369 43
1.7193161 -2.956454 0.78957826 4
3.203939 -5.5159845 1.709241 23
1.2605331 -2.1833076 -0.67551774 22
1.3716422 -2.3786294 -0.63391209 13
1.5055673 -2.615092 -0.5865469 12
1.717319 -2.9865086 -0.54564345 23
2.0010135 -3.4840894 -0.49332717 28
2.1575613 -3.7627444 -0.3794761 38
2.2799697 -3.981051 -0.24043141 14
2.2588198 -3.948915 -0.079408452 11
2.3582139 -4.0878415 0.082375363 9
2.0770004 -3.6047313 0.21803163 42
2.3165121 -4.0252852 0.40632007 12
1.8611915 -3.2393274 0.45871624 41
1.8120494 -3.1576238 0.57661748 2
1.9808741 -3.456003 0.7743029 11
1.7015382 -2.973459 0.79092801 23
nan nan nan nan
1.2433519 -2.1886952 -0.67448246 12
1.3598113 -2.3966219 -0.63616163 9
1.4911445 -2.6323721 -0.58807337 13
1.6896183 -2.9863901 -0.5434534 38
1.9903139 -3.5221694 -0.49673948 16
2.1508195 -3.8124208 -0.38296232 40
2.2609453 -4.0125318 -0.24137343 50
2.514632 -4.4682212 -0.089495942 24
2.3157985 -4.0798578 0.081886694 5
2.0409496 -3.6000314 0.21688022 28
2.2765734 -4.0205545 0.4042283 10
1.9528295 -3.454427 0.48723367 40
1.7792778 -3.1512759 0.57317597 27
1.7667184 -3.1328628 0.69912422 39
5.2095232 -9.252964 2.4515169 16
1.8492649 -3.2886231 1.0109472 20
1.2384088 -2.2158718 -0.68017644 14
1.3487457 -2.4162662 -0.63886106 5
1.4813323 -2.6581523 -0.59150791 11
1.6600822 -2.9825785 -0.54063755 20
1.9753213 -3.553329 -0.49917686 13
2.1976318 -3.9597414 -0.39620999 19
