# .PCD v0.7 - Point Cloud Data file format
VERSION 0.7
FIELDS x y z intensity
SIZE 4 4 4 4
TYPE F F F F
COUNT 1 1 1 1
WIDTH 1500
HEIGHT 1
VIEWPOINT 0 0 0 1 0 0 0
POINTS 1500
DATA ascii
1.1227945 -4.460145 0.080281071 13
1.0689775 -4.2557769 0.22996421 26
1.1392246 -4.5455146 0.4099806 11
2.1444309 -8.5816984 1.0860997 8
1.0953168 -4.3930755 0.71709567 9
1.8697596 -7.5159578 1.505483 4
0.99268419 -4.002264 0.95199299 9
1.0427989 -4.2137547 1.1631329 26
0.66763896 -2.728415 -0.75264585 10
0.73119563 -2.9949405 -0.71174514 12
0.82136023 -3.374474 -0.67508227 19
0.94632435 -3.896754 -0.63512403 16
1.1027203 -4.5511465 -0.57497966 14
1.1452206 -4.7410131 -0.42671451 4
1.2030878 -4.9920259 -0.26911151 13
1.0560789 -4.3921299 -0.078849971 13
1.0925785 -4.4717598 0.080350876 12
1.0458634 -4.2903028 0.23142964 12
1.1046382 -4.5417418 0.40893474 20
1.70322 -7.0241728 0.88745266 2
nan nan nan nan
0.97794843 -4.0516357 0.81017506 27
1.0413134 -4.3273988 1.0275766 15
1.0147094 -4.2265677 1.1646857 23
0.64946687 -2.7367685 -0.75368112 15
0.71026915 -2.9999721 -0.71174514 10
0.80229175 -3.3992336 -0.67889845 16
0.91275823 -3.8763463 -0.6307438 17
1.0722822 -4.5645313 -0.57571083 19
1.0430425 -4.4540267 -0.40021914 53
1.0655185 -4.5607586 -0.24545565 12
1.0076882 -4.3234429 -0.077488683 22
1.0322872 -4.3566918 0.078151874 10
0.99015576 -4.188653 0.22556801 24
1.0797644 -4.5784302 0.41154939 12
1.6927576 -7.2001457 0.9081704 1
0.98019522 -4.1790814 0.67986429 12
1.0001848 -4.2743769 0.85329783 26
0.9889437 -4.2396736 1.0050814 30
1.52812 -6.5667043 1.8065571 14
0.63077801 -2.7431185 -0.75419873 18
0.68712956 -2.9953606 -0.70949566 15
0.77854192 -3.4047515 -0.67889845 20
0.8812812 -3.8633647 -0.62761515 17
1.0474377 -4.6028757 -0.57961065 19
1.0290204 -4.5329127 -0.40666869 27
1.0252776 -4.531075 -0.2434669 14
0.97131604 -4.3030643 -0.077000014 14
1.0085589 -4.3930273 0.078675449 5
0.97069877 -4.2382936 0.22787078 17
1.0779519 -4.7179356 0.42340261 8
1.5635453 -6.8653283 0.86454117 1
0.94136775 -4.1434441 0.67298114 16
0.98203737 -4.3329515 0.86360151 3
0.94631064 -4.185482 0.99068451 15
0.90166014 -4.0009804 1.0989457 6
0.6132915 -2.7549982 -0.75626928 19
0.67465091 -3.0381327 -0.71849376 7
0.7612927 -3.4368072 -0.68424112 13
0.8600781 -3.8924203 -0.63136959 16
1.0238169 -4.6488485 -0.58448541 15
1.0029076 -4.5652843 -0.40893474 20
0.98201406 -4.48137 -0.24043141 12
0.95405167 -4.36835 -0.078047164 16
0.973423 -4.3763661 0.078256592 5
0.96259362 -4.3383956 0.23289503 18
1.0570349 -4.7798166 0.4282833 15
1.8404897 -8.3432465 1.0490514 3
0.91823655 -4.1729064 0.67673558 12
1.5927218 -7.2622414 1.4451874 4
0.93872386 -4.2909799 1.0140795 36
1.061808 -4.865808 1.334471 22
0.59818697 -2.7761056 -0.76092798 31
0.65518379 -3.0483701 -0.71984339 17
0.73974836 -3.4535568 -0.68653083 19
0.84526569 -3.9562831 -0.64075565 17
0.9971143 -4.6790075 -0.58741027 12
1.067037 -5.0243244 -0.449375 5
0.97470987 -4.6014428 -0.24650237 18
0.93959028 -4.4471331 -0.07933864 4
0.93149191 -4.3302712 0.077314161 11
0.92096943 -4.292284 0.23006889 16
1.0323974 -4.8239183 0.43159524 22
3.9089105 -18.327049 2.3008933 5
0.88003939 -4.1367078 0.66985244 10
nan nan nan nan
1.0692058 -5.0562472 1.1931405 30
0.89823937 -4.2587662 1.1662387 5
0.57839811 -2.7783225 -0.76041043 34
0.63705564 -3.0681343 -0.72344261 10
0.71959782 -3.4778621 -0.69034702 19
0.81802422 -3.9640224 -0.64106852 16
0.97002804 -4.7130756 -0.59082258 36
0.9590829 -4.6764302 -0.41765031 16
0.92014915 -4.4985576 -0.24064074 18
0.91011941 -4.461422 -0.079478264 19
0.90815622 -4.3699517 0.07790754 13
0.89908886 -4.3377223 0.23216233 24
0.9902252 -4.7900343 0.42793471 13
1.7057962 -8.2806387 1.0380832 22
1.4876037 -7.2406235 1.1707556 21
nan nan nan nan
0.85026133 -4.1642857 0.98123652 25
0.85268104 -4.1873202 1.1450155 1
0.55974871 -2.7860808 -0.76144564 31
0.61791795 -3.0839715 -0.72614205 25
0.69722199 -3.4924273 -0.69225508 12
0.7922588 -3.9793236 -0.6426329 14
0.9320752 -4.6944203 -0.58765399 22
0.95425105 -4.8237362 -0.43020076 17
0.91114187 -4.6185222 -0.24671172 14
0.87045884 -4.4245009 -0.078710355 29
0.89846569 -4.4801002 0.079757497 8
0.85860038 -4.2929735 0.22944085 19
0.99027604 -4.9648662 0.44292548 8
1.6599408 -8.3527031 1.0456392 11
1.4719646 -7.4271626 1.1992267 38
1.4834287 -7.5056119 1.4871653 46
0.84526563 -4.2924895 1.0100303 18
0.84352952 -4.295536 1.1729679 20
0.54212105 -2.7994039 -0.76403385 29
0.59895921 -3.101604 -0.72929138 11
0.67504871 -3.5087771 -0.69454479 8
0.76669168 -3.9963975 -0.64451009 21
0.89890623 -4.6988635 -0.58741027 19
0.87803042 -4.6071639 -0.41032922 2
0.91318178 -4.8052883 -0.25634155 12
0.84513396 -4.4599414 -0.07923393 16
0.83870399 -4.3390121 0.077139638 12
0.84599745 -4.3890758 0.23425576 22
0.97627509 -5.0792708 0.45251262 17
1.3951366 -7.2859192 0.91085154 17
1.4078531 -7.3732266 1.1889021 33
1.4930509 -7.8417201 1.5516587 33
0.8363412 -4.4093332 1.0361247 13
0.80957139 -4.2804399 1.167274 4
0.52398074 -2.8107166 -0.7661044 30
0.57729137 -3.1057098 -0.72929138 8
0.65947312 -3.5616653 -0.70408523 7
0.74487001 -4.0346756 -0.64982885 15
0.86895561 -4.720643 -0.58936024 19
0.85806185 -4.6798115 -0.4162558 23
0.84692764 -4.6327586 -0.24681638 10
0.82365876 -4.5188494 -0.080176361 21
0.82448679 -4.4312639 0.078675449 23
0.81897849 -4.4145131 0.23530249 27
1.312614 -7.0960536 0.63135618 7
1.3499928 -7.3267174 0.91475141 12
1.3427805 -7.3090467 1.177013 26
1.373538 -7.4985566 1.4818227 7
0.78560054 -4.3057899 1.0104802 33
0.78450954 -4.3125968 1.1745209 26
0.50673127 -2.8276172 -0.76972789 12
0.55970907 -3.1326847 -0.73469019 26
0.63218433 -3.5526524 -0.70141387 10
0.71979058 -4.0572829 -0.65264469 17
0.842547 -4.7637343 -0.59399122 18
0.85820532 -4.8720951 -0.4328154 10
0.81214613 -4.6247883 -0.24608369 18
0.78795308 -4.5008521 -0.079757497 22
0.80690873 -4.511713 0.080001831 12
0.78007627 -4.3748994 0.23289503 18
1.2588586 -7.0815048 0.62926447 1
1.3064232 -7.3789663 0.92011362 33
1.3277738 -7.5225005 1.2098643 31
1.3347645 -7.5853047 1.4970875 5
0.80463362 -4.5914149 1.0761659 13
nan nan nan nan
0.49025333 -2.8501251 -0.77490425 22
0.54276538 -3.1653266 -0.74143875 23
0.6123234 -3.5860078 -0.70713818 16
0.69741428 -4.0972614 -0.65827632 17
0.81790382 -4.8203855 -0.60032845 18
0.81155831 -4.8033156 -0.4261916 7
1.1758969 -6.9819536 -0.37106195 5
0.75386345 -4.4904671 -0.079478264 32
0.76794922 -4.4738774 0.07923393 16
0.75726247 -4.4255171 0.23530249 25
1.3172631 -7.7225356 0.68539274 3
1.2485605 -7.3507233 0.91548258 60
1.2814901 -7.5685921 1.2158087 33
0.72142822 -4.2744126 0.84261262 8
0.71410161 -4.2490764 0.99473369 3
0.73028433 -4.3593307 1.184356 42
0.47065791 -2.8553839 -0.77542186 13
0.52476114 -3.1940372 -0.74728745 30
0.58505541 -3.5766327 -0.70446682 13
0.67419666 -4.1351743 -0.66359508 15
0.79410195 -4.8867192 -0.60788435 20
0.99756479 -6.165967 -0.54646653 19
0.76689023 -4.7559562 -0.25246868 6
0.76628441 -4.7680821 -0.084295124 12
0.76525617 -4.65277 0.082305551 12
0.73345703 -4.4740572 0.23760527 18
1.1460462 -7.0138397 0.62176907 5
1.2259015 -7.5356007 0.93741906 25
1.2320988 -7.598803 1.2192503 15
0.693762 -4.2929115 0.84528393 6
0.75592661 -4.6984019 1.0986611 1
0.69126815 -4.3109126 1.169862 15
0.45432267 -2.8814998 -0.78163356 26
0.49912226 -3.1764464 -0.74233854 13
0.56856662 -3.6349406 -0.71515214 9
0.64348632 -4.1280694 -0.66171783 14
0.76636654 -4.9333372 -0.61300284 18
0.96197277 -6.2139616 -0.55012703 22
0.72910601 -4.7315841 -0.2508986 4
0.76363283 -4.9729447 -0.087820508 1
0.72436523 -4.6046629 0.081363119 15
0.73066425 -4.6605992 0.24723509 18
1.2652866 -8.098443 0.71711749 1
1.1802796 -7.5890908 0.94302505 51
1.2059467 -7.7809539 1.2470957 28
0.66527379 -4.3073516 0.84719193 11
0.72837532 -4.7323284 1.1054095 13
0.66261828 -4.325182 1.1724503 13
0.43275788 -2.8750494 -0.7790454 23
0.48155954 -3.2106886 -0.74953699 21
0.54584247 -3.6523185 -0.71782345 13
0.61944592 -4.1597075 -0.66609806 28
0.73656291 -4.969985 -0.61690265 15
0.93690413 -6.3446994 -0.56110865 15
1.1771709 -8.0007658 -0.42381662 3
0.71730828 -4.8990102 -0.086424313 7
0.68408644 -4.5501628 0.080315977 19
0.7018826 -4.6852169 0.24828181 39
1.159947 -7.7799582 0.68818176 16
1.1767267 -7.9209332 0.98324198 35
1.1517974 -7.7811651 1.2458442 19
0.63661778 -4.3216028 0.84910011 5
0.69730067 -4.7507954 1.1085589 16
0.670901 -4.587647 1.2423315 4
0.4175702 -2.9085245 -0.78732753 28
0.45721051 -3.1965299 -0.74548781 23
0.51784205 -3.6385472 -0.71438891 6
0.59455073 -4.1932678 -0.67079103 15
0.7046597 -4.9886427 -0.61860883 20
0.91035324 -6.4693074 -0.57156736 18
1.0274073 -7.3382587 -0.38833284 2
0.9745397 -6.9872918 -0.12314418 2
0.68462175 -4.7804904 0.084295124 16
0.68664712 -4.8125911 0.25477144 14
1.1481804 -8.0776405 0.71380556 3
1.0749755 -7.6007109 0.94253755 8
1.1159139 -7.920073 1.2668065 43
2.987088 -21.281166 4.1771908 58
0.7121737 -5.0931749 1.1872917 4
0.67159826 -4.82757 1.3060009 24
0.39568833 -2.8998842 -0.78422177 23
0.4390834 -3.2305396 -0.75268626 16
0.49675056 -3.6692247 -0.71973157 10
0.57206601 -4.2422438 -0.67798704 15
0.67746937 -5.0504971 -0.62567729 15
0.86938912 -6.5071025 -0.57435632 18
1.1336658 -8.5191069 -0.45040327 21
0.9338699 -7.0553803 -0.12422623 10
0.6785267 -4.9792151 0.08771579 9
0.94991642 -6.9981327 0.37011993 14
1.0709652 -7.9314499 0.7002092 36
1.1002141 -8.1803589 1.0134655 21
nan nan nan nan
2.9017174 -21.776339 4.2703056 40
0.60045362 -4.5242782 1.0536708 6
0.64277345 -4.8626728 1.3142831 18
0.37718096 -2.9120896 -0.78680992 15
0.4175818 -3.237319 -0.75358605 23
0.47162294 -3.6764979 -0.72049481 9
0.53993237 -4.2265396 -0.67485833 16
0.63756454 -5.0116687 -0.62031502 15
0.83444226 -6.5960321 -0.58167744 12
0.93636698 -7.432972 -0.39262438 2
0.88706899 -7.0714931 -0.12440075 23
0.89837915 -6.9551516 0.12241118 21
0.93212491 -7.2462678 0.3828899 7
1.008092 -7.8693876 0.69410831 10
1.0568751 -8.2961454 1.0268712 12
1.0252539 -8.0816803 1.2902716 5
2.8151872 -22.284479 4.3660917 49
0.56423861 -4.4916224 1.0451227 9
0.60569334 -4.8421216 1.3075538 25
0.3589544 -2.9319096 -0.79146868 15
0.39379224 -3.2304833 -0.75133657 28
0.44948766 -3.7089357 -0.72621906 12
0.5130164 -4.2517791 -0.67829996 16
0.624107 -5.1953516 -0.64249521 6
0.78601116 -6.5819135 -0.5799343 12
0.88468808 -7.4413109 -0.39272904 8
0.85953766 -7.2621965 -0.12764689 13
0.84955966 -6.959269 0.12237628 21
0.89886534 -7.3953509 0.39042628 18
1.0129697 -8.3707247 0.73768622 8
nan nan nan nan
0.9648146 -8.0552988 1.2849529 14
2.7204473 -22.814342 4.4660759 50
0.53676701 -4.5283508 1.052771 14
0.57753408 -4.8941956 1.3204948 16
0.34135523 -2.9592924 -0.79819798 15
0.3714523 -3.2350898 -0.75178647 30
0.42425117 -3.7178349 -0.72736394 16
0.48309794 -4.2532935 -0.67798704 16
0.59161294 -5.2331147 -0.64663881 16
0.74671471 -6.6466384 -0.58516365 15
0.83981937 -7.5108228 -0.39607856 14
0.81124991 -7.2898827 -0.12803085 16
0.80872226 -7.0325747 0.12356304 21
0.8519839 -7.4431157 0.39262438 10
5.2073822 -45.704594 4.0245037 24
3.6478405 -32.216652 3.9809842 12
3.6114321 -32.04517 5.1075859 30
2.6221638 -23.377111 4.572547 45
0.50967389 -4.5726585 1.0622189 26
0.53185093 -4.7944245 1.2925425 10
0.32151908 -2.9692862 -0.80026853 23
0.35136333 -3.2608545 -0.75718528 23
0.40100202 -3.7460837 -0.73232496 12
0.45987859 -4.3174553 -0.68768603 22
0.56134111 -5.2963386 -0.65395093 6
0.71614915 -6.8022785 -0.59841132 18
0.77987355 -7.4449925 -0.39231035 11
0.76531386 -7.343102 -0.12886856 16
0.77033484 -7.1374564 0.12530828 26
0.81322455 -7.5720048 0.39911404 15
4.7835879 -44.761169 3.9383938 23
3.4190724 -32.205799 3.9765971 76
3.3955119 -32.144245 5.1194749 30
3.3725176 -32.087376 6.2715101 13
2.4315886 -23.291428 5.4064736 20
0.49816698 -4.7960992 1.2920247 16
0.30110574 -2.9694839 -0.79975086 20
0.3330712 -3.3019485 -0.76618332 13
0.37862509 -3.7799821 -0.73843086 13
0.43243897 -4.3401423 -0.69081473 20
0.53134686 -5.3612747 -0.66150689 4
0.67080641 -6.8169103 -0.59928286 21
0.76166904 -7.782084 -0.40979058 2
0.71511936 -7.3461514 -0.12883367 22
0.71932214 -7.11866 0.12488942 32
0.75527328 -7.513773 0.39576453 7
4.3907876 -43.912457 3.8609993 21
3.2072239 -32.303394 3.9858592 77
3.1809084 -32.209862 5.126358 30
3.1571021 -32.14085 6.2776165 13
0.47003356 -4.8197541 1.1180068 9
0.48229456 -4.9724336 1.3386122 12
0.28181925 -2.9869001 -0.80389202 13
0.31365189 -3.3429976 -0.77518135 13
0.35113445 -3.7708044 -0.73614115 18
0.40139997 -4.335187 -0.68956316 22
0.49681687 -5.396481 -0.66540664 4
0.64114541 -7.0178556 -0.61653972 9
0.6957593 -7.6599112 -0.40309155 5
0.68162102 -7.5481319 -0.13228925 16
0.68514007 -7.2887549 0.12778652 14
0.77622008 -8.3043556 0.43710995 5
3.9993021 -43.029472 3.7808161 19
2.99002 -32.41592 3.997071 77
2.9678743 -32.361115 5.147007 31
nan nan nan nan
0.42285246 -4.6734762 1.0833644 21
0.50814515 -5.6491084 1.5197855 13
0.26230454 -3.0041912 -0.80803311 18
0.28996873 -3.341223 -0.77428156 16
0.32665327 -3.7946799 -0.74033892 16
0.37129331 -4.3398523 -0.68987608 16
0.46484837 -5.4670687 -0.67369378 2
0.60084134 -7.1253986 -0.62560391 12
0.67712295 -8.0805521 -0.42496803 9
0.62957317 -7.560678 -0.13242885 16
0.63181281 -7.2654691 0.12729785 21
0.74540013 -8.6239672 0.45364809 8
3.6259859 -42.208717 3.7063849 18
2.7683606 -32.49139 4.0038958 78
2.7417164 -32.379078 5.1466947 31
nan nan nan nan
0.40301761 -4.8297315 1.1189066 32
0.3944639 -4.7572799 1.2790838 12
0.24209791 -3.0155773 -0.81062132 22
0.268805 -3.370362 -0.78058022 23
0.30077282 -3.8046968 -0.7418654 19
0.34593594 -4.4053559 -0.69988787 16
0.43145573 -5.5315318 -0.68124968 2
0.5596807 -7.2406611 -0.63536537 17
0.77051616 -10.036654 -0.52754653 13
0.58346337 -7.6526208 -0.13396467 20
0.59127295 -7.3972774 0.12953176 24
0.86334747 -10.872809 0.57161337 17
3.2698116 -41.454403 3.6380548 16
2.5476487 -32.589085 4.0136452 78
2.5275288 -32.551044 5.1710982 31
2.5038354 -32.466129 6.3295164 57
nan nan nan nan
0.36168078 -4.7656965 1.2806368 4
0.22259231 -3.0383875 -0.81631529 7
0.24852067 -3.4168594 -0.79092801 27
0.27589628 -3.8302019 -0.74644482 16
0.31559497 -4.4135747 -0.70082647 20
0.39437455 -5.556191 -0.68393081 4
0.51682395 -7.3357263 -0.64338368 8
0.73364425 -10.517975 -0.55256307 10
0.53913826 -7.7881727 -0.13626839 17
0.53903419 -7.3932476 0.12939215 19
0.78482443 -10.842714 0.56972927 11
2.9256389 -40.715099 3.5712936 15
2.3276799 -32.712997 4.0268068 78
nan nan nan nan
2.282747 -32.563118 6.3451629 57
2.2550344 -32.411045 7.5007687 100
0.33742809 -4.8991609 1.3158361 16
0.20175803 -3.0456505 -0.81786817 8
0.22389367 -3.4068439 -0.78822857 23
0.25135159 -3.8555002 -0.75102425 9
0.28886029 -4.4668736 -0.70896107 22
0.35887006 -5.6103153 -0.69026798 4
0.47266328 -7.4505057 -0.65314513 8
0.67344576 -10.704118 -0.56208825 24
0.48922542 -7.8635964 -0.13752496 17
0.49713537 -7.524447 0.13162605 22
0.72524047 -11.065041 0.58113849 5
2.5931063 -39.990936 3.5061011 14
2.1100557 -32.807327 4.0365567 78
nan nan nan nan
2.0557289 -32.584137 6.3463078 28
2.0346701 -32.521297 7.5228138 63
0.30000561 -4.8357873 1.2982364 4
0.18079345 -3.0430961 -0.81683296 12
0.20253208 -3.439415 -0.79542702 30
0.22408688 -3.8512812 -0.74987942 18
0.25744119 -4.4648376 -0.70833534 20
0.32475054 -5.6839752 -0.69904256 4
0.42441645 -7.497313 -0.65697998 11
0.60338438 -10.792312 -0.56648445 14
0.45570228 -8.2281361 -0.14384274 24
0.44930956 -7.6075826 0.13302223 19
2.5438175 -43.457874 2.2814293 41
2.2795334 -39.295586 3.4436975 13
1.8868722 -32.924316 4.0492311 78
nan nan nan nan
0.28594592 -5.0826817 0.98953551 12
1.8171645 -32.604439 7.5390096 63
nan nan nan nan
0.16045418 -3.0616472 -0.82149172 15
0.17861648 -3.4426911 -0.79587686 13
0.20018324 -3.8978126 -0.75865656 16
0.22774649 -4.4802961 -0.71052545 20
0.29022947 -5.7891989 -0.71171701 2
0.37463164 -7.5518312 -0.66151208 8
0.53715628 -10.943789 -0.57423013 24
0.517308 -10.691862 -0.18684547 10
0.41013801 -7.8520985 0.13724573 21
nan nan nan nan
1.9712434 -38.645947 3.3854775 13
1.6663262 -33.007767 4.0580058 79
1.6447188 -32.922054 5.2208443 16
1.6073366 -32.630955 6.3505054 86
1.594431 -32.717545 7.5624046 42
0.23739591 -4.9243665 1.3210124 28
0.14101835 -3.0935457 -0.8297739 12
0.15526636 -3.4457738 -0.79632682 15
0.1740976 -3.9246128 -0.76361769 16
0.19793323 -4.515326 -0.71584421 22
0.2516765 -5.8108726 -0.71415442 2
0.32453027 -7.6159711 -0.66691571 2
0.46124503 -10.959245 -0.57485819 14
0.44319135 -10.663169 -0.18628699 35
0.35287023 -7.8008347 0.13630329 19
1.679983 -37.574848 1.9711816 30
1.6785084 -37.987686 3.3267345 12
1.4402503 -33.119743 4.0704365 79
1.4161961 -32.964314 5.2258506 32
1.3891866 -32.735291 6.3688231 72
1.3687437 -32.794079 7.5777016 21
nan nan nan nan
0.12008837 -3.1118288 -0.83443266 17
0.13224474 -3.4740365 -0.80262542 30
0.14676769 -3.9276941 -0.76399928 17
0.16858737 -4.5758185 -0.72523028 19
0.21275993 -5.8581152 -0.71976036 6
0.27631843 -7.7574301 -0.6791175 5
0.39284986 -11.193737 -0.58700013 14
0.3770285 -10.905823 -0.19047557 14
0.3112393 -8.1388111 0.14216731 17
1.4176202 -37.585659 1.9711816 61
1.3956437 -37.52462 3.2852483 37
1.2121087 -33.214291 4.0809169 79
nan nan nan nan
1.1717442 -33.058113 6.429882 75
1.1435618 -32.9119 7.6028957 43
0.16848575 -4.9233398 1.3199772 12
0.09848319 -3.1164529 -0.83546793 26
0.10780658 -3.4690316 -0.80127573 17
0.12023877 -3.9580586 -0.76972359 19
0.13870116 -4.6459918 -0.73618072 19
0.17360331 -5.9189849 -0.72707254 6
0.22460654 -7.8448081 -0.6866129 8
0.32569319 -11.587517 -0.60751587 14
0.29652774 -10.750273 -0.18771808 31
0.33586395 -10.747116 0.18768318 14
1.1592367 -37.726395 1.9780899 31
1.1360444 -37.61311 3.2922211 63
0.983248 -33.325123 4.0935912 80
nan nan nan nan
0.99683118 -35.029911 6.8118815 17
0.91603661 -33.000896 7.6217918 66
0.1295879 -4.7583184 1.2754604 4
0.076771379 -3.1189959 -0.8359856 43
0.084196068 -3.4950259 -0.80712444 27
0.093475692 -3.9960928 -0.77697426 17
0.10644438 -4.6547461 -0.73743218 25
0.13205507 -5.9101305 -0.72585386 4
0.16996428 -7.8521605 -0.68713588 5
0.24677141 -11.683357 -0.6124354 21
0.22414623 -10.882035 -0.1899869 10
0.25980935 -10.707217 0.18695019 24
1.1525652 -48.54768 2.5449932 50
0.87458384 -37.669918 3.2965786 12
0.75289464 -33.434372 4.106266 80
nan nan nan nan
0.74467039 -34.682709 6.7431898 17
0.68805295 -33.12339 7.6487865 88
nan nan nan nan
0.055233553 -3.1329768 -0.83960903 47
0.059794553 -3.4955285 -0.80712444 19
0.065929718 -4.0182414 -0.7811721 37
0.075357318 -4.744257 -0.75151128 15
0.092378147 -6.0141206 -0.73852831 11
0.11964528 -8.0643053 -0.7056129 2
0.16726272 -11.830581 -0.62007648 29
0.14895928 -10.941319 -0.19099914 25
0.18602124 -10.764753 0.18792751 29
nan nan nan nan
0.6188252 -38.121342 3.3356247 12
0.52112544 -33.545998 4.1194282 81
nan nan nan nan
0.49910864 -34.4515 6.6973963 16
0.4638828 -33.220837 7.670382 100
0.06178014 -4.6572847 1.2480254 37
0.033442173 -3.1410127 -0.84167957 38
0.035725057 -3.5289876 -0.81477278 12
0.039123848 -4.0755286 -0.79223901 17
0.043421496 -4.7841659 -0.75776863 20
0.050938211 -6.0801244 -0.74657166 2
0.064126268 -8.1645603 -0.71432841 2
0.086614758 -11.815468 -0.61923909 10
0.073208742 -11.038076 -0.19267458 25
0.11339131 -10.827758 0.18900958 29
nan nan nan nan
0.34618568 -37.423443 3.2742667 12
0.29346943 -33.628166 4.1291771 81
nan nan nan nan
0.2515074 -33.511814 6.5142198 15
0.23269455 -33.330441 7.6951261 90
0.030514712 -4.7252107 1.2661428 34
0.012113086 -3.1546905 -0.84530306 31
0.011741899 -3.5408416 -0.81747216 16
0.010629218 -4.0599961 -0.78918606 19
0.010198572 -4.8692927 -0.771222 23
0.008534045 -6.1120939 -0.75047147 16
0.0071948781 -8.2445049 -0.7213009 5
0.0042715599 -12.235209 -0.64122021 15
-0.0039399615 -11.29028 -0.19707258 21
0.038169086 -10.934269 0.19085953 14
0.10121439 -34.111038 1.7876917 23
0.08993911 -36.807293 3.2202303 12
0.058880519 -33.736591 4.1423392 81
0.041148148 -33.680149 5.3344159 34
0.017581714 -33.583427 6.5279579 100
-1.4607033e-06 -33.416996 7.714922 100
-0.0026431505 -5.0479283 1.3525884 12
-0.010403636 -3.13731 -0.8406443 25
-0.013708317 -3.5700657 -0.82422072 13
-0.017912183 -4.1051259 -0.79796326 19
-0.024865502 -4.9126992 -0.77810514 23
-0.034778919 -6.2271376 -0.76460832 2
-0.051117383 -8.3678799 -0.73210824 3
-0.084586769 -12.426658 -0.65126866 19
-0.085062243 -11.603922 -0.20255263 26
-0.038439658 -11.012257 0.19222081 19
-0.1426971 -34.066952 1.7853891 70
-0.16085961 -34.135235 2.9864788 33
-0.17728713 -33.859257 4.1574512 81
nan nan nan nan
-0.21758984 -33.694633 6.5497098 100
-0.23412199 -33.535057 7.7423663 100
-0.036628336 -4.7696013 1.2780485 13
-0.032325454 -3.1390927 -0.84116197 33
-0.038841758 -3.5893695 -0.82871974 23
-0.047603432 -4.1323762 -0.80330586 16
-0.059542026 -4.9440093 -0.78311098 21
-0.079024978 -6.2882757 -0.77216423 2
-0.11099441 -8.4788828 -0.74186963 3
-0.17321171 -12.561566 -0.65838641 19
-0.17293914 -12.082922 -0.21092978 11
-0.11864565 -11.143672 0.19452453 21
-0.19083177 -17.083488 0.89536369 4
-0.39841494 -34.069523 2.9809008 66
-0.42109889 -33.980186 4.1725631 82
nan nan nan nan
-0.45371446 -33.759037 6.562685 79
-0.46961871 -33.631977 7.7653108 92
nan nan nan nan
-0.055174258 -3.1928744 -0.85565579 28
-0.063795261 -3.5831656 -0.82737005 28
-0.075838022 -4.1378455 -0.80445075 21
-0.094123743 -4.9928656 -0.79093277 16
-0.12412558 -6.3490973 -0.77972013 7
-0.17362437 -8.6492128 -0.75686044 3
-0.26224747 -12.731824 -0.6673882 15
-0.2610364 -12.257355 -0.21400142 19
-0.19913593 -11.408525 0.19916686 15
-0.30983979 -17.233561 0.90331864 14
-0.63841331 -34.181454 2.9910107 67
-0.65413439 -34.067833 4.1837749 82
-0.67055219 -33.995548 5.3854136 17
-0.69127005 -33.847301 6.5806212 96
-0.70701462 -33.752571 7.7941051 100
-0.72296745 -33.672142 9.0245028 24
-0.076766267 -3.1866307 -0.85410291 27
-0.088471375 -3.594337 -0.83006942 15
-0.10561801 -4.1725426 -0.81131989 17
-0.13331492 -5.1599379 -0.81752664 5
-0.1685421 -6.3937464 -0.78532612 2
-0.23452747 -8.7235146 -0.7634843 3
-0.35762262 -12.965269 -0.67973948 20
-0.474078 -16.866772 -0.29452682 39
-0.28424954 -11.630755 0.2030762 19
-0.42804974 -17.14712 0.89892244 13
-0.87390339 -34.287849 3.000772 56
-0.89476287 -34.169598 4.1969371 55
-0.91135061 -34.120369 5.4060631 35
-0.92484862 -33.959564 6.603518 96
-0.93966109 -33.852169 7.818399 100
nan nan nan nan
-0.099551342 -3.2033954 -0.85876161 25
-0.11491612 -3.6364827 -0.83996731 15
-0.13439494 -4.1835003 -0.81360966 17
-0.17017429 -5.2122178 -0.82597405 5
-0.19233364 -5.767457 -0.70854843 18
-0.29839003 -8.8092794 -0.77115399 3
-0.44799468 -13.024412 -0.68298429 24
-0.59223747 -16.87504 -0.29473624 26
-0.37121907 -11.878391 0.2074393 19
-0.54298073 -17.087914 0.89599168 18
-1.1172657 -34.404373 3.0115795 56
-1.1310552 -34.275799 4.2108297 41
-1.1433772 -34.107452 5.4051242 17
-1.1666087 -34.089622 6.6302314 97
-1.1793544 -33.942165 7.8408947 95
nan nan nan nan
-0.12237798 -3.2296703 -0.86600858 23
-0.14041434 -3.6550894 -0.84446633 20
-0.16490249 -4.2158098 -0.82009715 24
-0.20851433 -5.2602482 -0.83379585 5
-0.23158641 -5.7660141 -0.70854843 49
-0.23916282 -5.8527403 -0.51247573 3
-0.5502249 -13.294359 -0.69732434 16
-0.7080099 -16.892597 -0.29512021 45
-0.47942734 -12.536925 0.2189928 19
-0.6734798 -17.373093 0.91116911 14
-1.3557999 -34.507462 3.0213408 56
-1.3738873 -34.356323 4.2217984 28
nan nan nan nan
-1.403288 -34.194672 6.6523652 99
-1.4219751 -34.069393 7.8723879 100
-1.4360628 -33.979919 9.113019 25
-0.14492197 -3.2287371 -0.86600858 13
-0.16681182 -3.6734872 -0.84896535 15
-0.19713365 -4.275352 -0.83192724 17
-0.24670501 -5.290236 -0.83880174 5
-0.27202216 -5.7682233 -0.70903593 38
-0.27420697 -5.7295318 -0.50184274 65
-0.6486218 -13.405899 -0.70339531 16
-0.8302213 -16.975122 -0.29665601 46
-0.75923318 -16.784279 0.29327023 29
-0.79529613 -17.379938 0.91179711 14
-1.6022016 -34.616573 3.0317998 56
-1.623298 -34.55014 4.2469034 14
nan nan nan nan
-1.6472523 -34.293854 6.6737356 99
-1.664813 -34.161797 7.8962321 72
-1.6782855 -34.071327 9.1404543 51
-0.16876051 -3.252727 -0.87273788 35
-0.19337144 -3.6897478 -0.85301447 12
-0.22905877 -4.3130813 -0.83955961 21
-0.28447813 -5.3041649 -0.84130466 10
-0.31164122 -5.7542901 -0.70757347 49
-0.31496322 -5.7414036 -0.50306296 68
nan nan nan nan
-0.95183319 -17.024815 -0.29763335 33
-0.88557011 -16.954302 0.29634187 21
-0.9137705 -17.32011 0.90897095 9
-1.8510361 -34.739834 3.0436528 57
nan nan nan nan
-1.8808548 -34.50602 5.47333 18
-1.8931012 -34.399136 6.6966329 100
-1.9115044 -34.297218 7.9304252 73
-1.9167585 -34.070354 9.1435595 25
-0.19237281 -3.2668977 -0.87687898 21
-0.21935718 -3.6921985 -0.85391426 15
-0.26010558 -4.3270555 -0.84261262 22
-0.32759827 -5.4026093 -0.857261 2
-0.35120022 -5.7420678 -0.7063548 47
-0.35577622 -5.7509961 -0.50410885 50
-0.39610311 -6.3489261 -0.33338007 2
-1.1040651 -17.548626 -0.30691803 14
-0.9974063 -16.837917 0.29442209 35
-2.087441 -34.929661 1.8338521 50
-2.1004746 -34.841415 3.0537629 46
-2.1201565 -34.763855 4.2763953 28
-2.1181891 -34.434868 5.4642563 36
-2.1408565 -34.508526 6.7206745 84
-2.1606591 -34.438633 7.9664173 74
nan nan nan nan
-0.21657221 -3.2866795 -0.88257295 28
-0.24616098 -3.7061331 -0.85751349 16
-0.29109663 -4.3368864 -0.84490222 19
-0.36784011 -5.4376373 -0.86320543 8
-0.3907381 -5.731554 -0.70537978 45
-0.3942304 -5.738503 -0.50323725 62
-0.40971947 -5.9036784 -0.3101429 2
-0.41164008 -5.8867269 -0.10300411 100
-1.1307944 -17.069983 0.29861069 35
-2.3392246 -35.033806 1.8401324 51
-2.3535581 -34.973003 3.0666618 46
nan nan nan nan
-2.3642101 -34.50201 5.477397 36
-2.3914568 -34.633762 6.7481513 100
nan nan nan nan
-2.4182708 -34.410275 9.2429466 26
-0.23951226 -3.2850873 -0.88257295 25
-0.27388364 -3.7295899 -0.86336225 22
-0.32162338 -4.3485107 -0.84757364 21
-0.40616447 -5.4527369 -0.86602128 16
-0.43133709 -5.7366047 -0.7063548 45
-0.43383113 -5.729651 -0.50271428 50
nan nan nan nan
nan nan nan nan
-1.2555597 -17.179556 0.30067006 36
-2.5896616 -35.180405 1.8487154 78
-2.6068127 -35.078911 3.0774691 58
nan nan nan nan
-2.6093915 -34.623009 5.4992981 36
-2.6428671 -34.743465 6.7729564 100
nan nan nan nan
-2.6430762 -34.271671 9.2103348 26
-0.26217487 -3.2872326 -0.88360828 16
-0.29926386 -3.727639 -0.86336225 20
-0.3595807 -4.4400878 -0.86589122 14
-0.45369044 -5.5659299 -0.8844806 2
-0.47102353 -5.7414498 -0.70732975 42
-0.4731639 -5.7185402 -0.50201708 50
nan nan nan nan
-1.7756913 -21.190495 -0.37117779 23
-1.4053208 -17.543123 0.30719727 27
-2.8454735 -35.288883 1.8554146 52
-2.8558426 -35.18745 3.0886254 46
-2.8727715 -35.092194 4.3231936 43
-2.8760209 -34.907127 5.5474796 18
-2.8898385 -34.851845 6.7977619 100
-2.9088662 -34.786373 8.0590963 25
-2.8923163 -34.371738 9.2424288 26
-0.28695455 -3.3064926 -0.88930225 28
-0.32833099 -3.7604032 -0.87146044 17
-0.39693847 -4.50983 -0.88001108 13
-0.49602142 -5.6019807 -0.89073795 3
-0.51074266 -5.7340665 -0.70684224 45
-0.51360977 -5.7210507 -0.50253999 62
nan nan nan nan
-3.0885141 -34.002827 -0.59596479 39
-1.6300048 -18.706259 0.3277562 20
-3.1025767 -35.39151 1.8619041 53
-3.1136761 -35.305584 3.100827 47
-3.1275308 -35.182014 4.336843 14
-3.1388266 -35.100662 5.5815821 56
-3.1443365 -34.955967 6.822185 88
nan nan nan nan
-3.1460602 -34.502689 9.2833214 26
-0.31382093 -3.3448005 -0.90017265 30
-0.35933498 -3.8084626 -0.88315791 17
-0.43157166 -4.5401745 -0.88649869 16
-0.54376465 -5.6888366 -0.90512991 24
-0.54943216 -5.7165289 -0.70513606 49
-0.5523476 -5.7154393 -0.50236571 68
-0.75449717 -7.7506762 -0.40811583 2
-3.3433502 -34.159554 -0.59910625 39
-1.9021164 -20.197542 0.35410932 11
-3.3631384 -35.51215 1.8694406 53
-3.3731084 -35.419842 3.1128547 47
nan nan nan nan
-3.3961194 -35.205696 5.6019187 38
-3.4019449 -35.073856 6.8496618 88
nan nan nan nan
-3.4195287 -34.812496 9.3728733 27
-0.34259278 -3.396347 -0.91466653 16
-0.38788024 -3.8252492 -0.88765693 16
-0.46306244 -4.5429916 -0.88764352 22
-0.58388352 -5.6987591 -0.90732002 33
-0.58932763 -5.7125545 -0.70513606 49
-0.59223539 -5.7114439 -0.50236571 53
-0.83705026 -8.0314169 -0.4231886 3
-3.5838339 -34.155266 -0.5994553 39
-3.6126885 -35.752464 0.62723953 64
-3.6205237 -35.643429 1.8776051 54
-3.6355078 -35.544083 3.1259277 47
nan nan nan nan
nan nan nan nan
-3.6617503 -35.193752 6.8779016 90
-3.6691914 -35.086708 8.144578 79
-3.6697388 -34.915218 9.4070368 27
-0.36777267 -3.4131434 -0.9198429 20
-0.41621614 -3.843832 -0.89260584 16
-0.49476722 -4.5396481 -0.88764352 24
-0.62408423 -5.6984711 -0.90794575 39
-0.62798035 -5.7064371 -0.70489234 47
-0.63022166 -5.6993585 -0.50166845 46
-0.93639523 -8.4144392 -0.44370431 3
-3.8317935 -34.269192 -0.60189861 40
-3.8783188 -35.875481 0.6298573 78
-3.8826466 -35.740387 1.8840945 54
-3.8927119 -35.659142 3.138304 47
nan nan nan nan
-3.9132869 -35.446121 5.6482239 38
-3.9189718 -35.328022 6.9091945 91
-3.9159179 -35.132587 8.1612253 26
-3.9293351 -35.030815 9.445343 28
-0.38894713 -3.3874619 -0.91363126 18
-0.44773 -3.8814867 -0.90205377 28
-0.53469533 -4.6141829 -0.90290827 13
-0.67679065 -5.8137808 -0.92703074 6
-0.66895807 -5.711772 -0.70611101 40
-0.66929698 -5.6888843 -0.50114554 43
nan nan nan nan
-4.1082406 -34.555347 -0.60741353 40
-4.1395559 -35.997246 0.6324752 65
-4.1450844 -35.879795 1.8928871 55
-4.1599674 -35.789417 3.1522489 36
nan nan nan nan
-4.1710353 -35.559917 5.6707497 39
-4.1825337 -35.44408 6.9374337 91
nan nan nan nan
-4.1836796 -35.137535 9.4815779 28
-0.41222891 -3.3866534 -0.91414887 16
-0.47414014 -3.8783493 -0.90205377 22
-0.5810312 -4.7253036 -0.92542368 16
-0.72680414 -5.8853731 -0.93923265 6
-0.96216714 -7.7578549 -0.95984304 18
-0.71096873 -5.6998892 -0.50253999 40
nan nan nan nan
-4.3792973 -34.812286 -0.61243987 41
-4.4086943 -36.114357 0.63505816 65
-4.4149165 -36.008575 1.9012609 56
-4.4190621 -35.886833 3.1634047 36
-4.432477 -35.789745 4.4280014 44
-4.4333305 -35.643627 5.6888962 39
-4.440001 -35.545311 6.9630022 100
nan nan nan nan
-4.4482193 -35.260807 9.5229883 28
-0.44351318 -3.4430897 -0.93019569 18
-0.50295395 -3.888473 -0.9052031 27
-0.61704373 -4.7444944 -0.93000305 16
-0.7793839 -5.9682999 -0.95331174 6
-1.0330787 -7.8788848 -0.97568607 18
-0.75178504 -5.7026877 -0.50323725 25
-3.1265779 -23.621279 -1.248736 11
-4.7260156 -35.561878 -0.62619233 43
-4.6776199 -36.213593 0.63736188 52
-4.6841784 -36.11552 1.9085878 56
-4.6911049 -36.021061 3.1780469 48
nan nan nan nan
-4.7026567 -35.76849 5.7139258 39
-4.70783 -35.663315 6.9923863 100
nan nan nan nan
-4.711884 -35.361027 9.5587053 29
-0.4724831 -3.4762807 -0.94003081 23
-0.53483069 -3.9196227 -0.91330141 22
-0.65442002 -4.7711921 -0.93610895 16
-0.82857543 -6.0175066 -0.96207207 3
-1.1122477 -8.0464897 -0.99737877 2
-1.5830876 -11.408691 -1.0076946 11
-3.3314106 -23.885702 -1.2639135 12
-5.1172385 -36.549896 -0.64420325 93
-5.3785262 -39.469151 0.69530386 14
-4.9546061 -36.216496 1.9157054 57
-4.9636102 -36.141396 3.1916432 36
nan nan nan nan
-4.971777 -35.875668 5.7364526 40
-4.9788699 -35.789032 7.0236793 95
-5.5414934 -39.681034 9.2499886 37
-4.9798484 -35.478401 9.5995979 29
-0.49591959 -3.4671602 -0.93847787 18
-0.5685513 -3.9601591 -0.92364913 19
-0.70676255 -4.904593 -0.96320391 18
-0.88733077 -6.1348944 -0.98178285 3
-1.1826723 -8.1367521 -1.0095657 2
-1.6891544 -11.578742 -1.0237314 11
-3.591717 -24.530426 -1.2992927 12
-5.4010925 -36.709137 -0.64765877 94
-5.6703115 -39.593941 0.69816607 14
-5.2220345 -36.328228 1.9234513 57
-5.2385883 -36.263618 3.2055883 36
-5.2445841 -36.17128 4.4877172 45
-5.2374806 -35.989559 5.7602305 40
-5.2536025 -35.924351 7.0572615 77
-5.254374 -35.798706 8.3533335 84
-5.2443099 -35.600403 9.642045 29
-0.52351999 -3.4904511 -0.94572484 15
-0.60245514 -4.0024462 -0.93444675 15
-0.73775595 -4.8781862 -0.95900601 16
-0.93784463 -6.1793284 -0.9899174 3
-1.2601484 -8.2737341 -1.0276023 2
-1.830543 -11.976636 -1.0599881 17
-3.8805025 -25.27071 -1.3399053 13
-5.6812901 -36.869164 -0.65114927 95
-5.9792843 -39.770916 0.70200562 14
-5.5047231 -36.484428 1.9337091 58
-5.5037994 -36.349255 3.2163956 24
-5.5086231 -36.210327 4.4972229 30
-5.5142417 -36.120056 5.7871375 41
-5.5182233 -36.019718 7.0832119 58
nan nan nan nan
-5.5151315 -35.708027 9.681386 30
-0.55297309 -3.5191545 -0.9545247 17
-0.63918453 -4.053967 -0.94749397 16
-0.78321511 -4.9506173 -0.97427082 8
-0.99846631 -6.2898588 -1.0086895 3
-1.3463241 -8.4431257 -1.0497826 2
-1.9153689 -11.971435 -1.0606854 11
nan nan nan nan
-5.9621038 -36.974693 -0.65373224 96
-5.7834182 -36.764214 0.64961344 27
-5.7772279 -36.599995 1.9418734 59
-5.7923684 -36.530346 3.2359183 24
nan nan nan nan
-5.7861333 -36.245544 5.8134184 41
-5.8056116 -36.205181 7.1274791 78
-5.8075089 -36.096115 8.4406147 29
-5.7888436 -35.860374 9.7331495 30
-0.58098119 -3.5400915 -0.961254 18
-0.67246258 -4.0841331 -0.95559216 17
-0.82736653 -5.0031371 -0.98571932 4
-1.0517296 -6.3392482 -1.0177628 3
-1.426769 -8.5627556 -1.0658693 2
-2.1125581 -12.637703 -1.1209971 18
nan nan nan nan
-6.248652 -37.101753 -0.65673405 97
-6.0321512 -36.675591 0.64877582 40
-6.0644655 -36.751892 1.9521314 60
-6.0604177 -36.608006 3.246377 12
-6.0692124 -36.502998 4.5435333 15
-6.0702305 -36.391315 5.8434534 41
-6.0679574 -36.221859 7.1389279 39
-6.0558124 -36.033546 8.4356651 29
-6.0721354 -36.015297 9.7864656 31
-0.61086911 -3.5625005 -0.96850091 13
-0.7059648 -4.1041837 -0.96144086 21
-0.87295729 -5.0591478 -0.99793106 4
-1.1068445 -6.3880048 -1.0268359 3
-1.5069093 -8.6699324 -1.0804937 5
-2.2558298 -12.938654 -1.1490613 12
nan nan nan nan
-6.5376053 -37.228577 -0.65977079 49
-6.3506298 -36.997192 0.65523314 54
-6.3503709 -36.841396 1.959249 30
nan nan nan nan
-6.3130484 -36.397148 4.5357337 46
-6.3542075 -36.483173 5.8653545 42
nan nan nan nan
-6.3344698 -36.145874 8.4721069 58
nan nan nan nan
-0.63572514 -3.5581491 -0.96850091 15
-0.74456912 -4.1547828 -0.97448802 14
-0.91956663 -5.1107392 -1.0093796 4
-1.1700073 -6.4831529 -1.043418 3
-1.5992198 -8.8350019 -1.1024302 2
-2.4713809 -13.612631 -1.2104189 6
nan nan nan nan
-6.8279171 -37.349232 -0.66273773 99
-6.6462235 -37.12402 0.65830475 54
-6.6441293 -37.000607 1.9701349 30
-6.6437225 -36.88731 3.2791474 25
-6.6072483 -36.538567 4.5591326 46
-6.6433001 -36.628403 5.8960156 42
nan nan nan nan
-6.5985494 -36.165955 8.4874039 58
nan nan nan nan
-0.66796374 -3.5935099 -0.97937131 22
-0.78141379 -4.1916294 -0.98438591 17
-0.96299249 -5.1506767 -1.0185385 4
-1.2283077 -6.5507588 -1.0556198 3
-1.6924404 -8.991394 -1.1233917 5
-2.652833 -14.053175 -1.2512078 6
nan nan nan nan
-7.1228395 -37.481392 -0.66594893 100
-6.9338813 -37.266651 0.66165566 55
-6.9298987 -37.137119 1.9798694 31
-6.9318929 -37.004532 3.2937899 37
-6.8909874 -36.680035 4.5825315 31
-6.9268484 -36.764812 5.9254255 43
nan nan nan nan
-6.9227791 -36.4981 8.5764847 90
nan nan nan nan
-0.69606829 -3.6078486 -0.98454767 30
-0.80548471 -4.1632543 -0.97898704 17
-1.0041667 -5.1708097 -1.0238811 4
-1.2913792 -6.6312151 -1.0700119 3
-1.7806174 -9.1179943 -1.1406971 5
-2.7892017 -14.229831 -1.268639 6
nan nan nan nan
-7.4068055 -37.579189 -0.66856682 50
-7.2249928 -37.378334 0.66451782 55
-7.2216821 -37.256458 1.9888712 31
-7.2216315 -37.152065 3.3112209 38
-7.2183599 -36.997326 4.6283541 47
-7.2174783 -36.890034 5.9535837 43
nan nan nan nan
-7.2128067 -36.628609 8.6187754 61
nan nan nan nan
-0.72465163 -3.6199496 -0.98920643 23
-0.83951581 -4.1823673 -0.9848358 14
-1.0514849 -5.2194867 -1.034948 4
-1.3575897 -6.7207885 -1.0859681 3
-1.8678725 -9.2220764 -1.1553215 2
nan nan nan nan
-7.7313461 -37.933006 -2.028856 26
-8.4024773 -41.115818 -0.73251235 57
-7.5266604 -37.530891 0.66814792 69
-7.520577 -37.398983 1.9992337 31
-7.5182376 -37.286289 3.3277807 38
-7.5158424 -37.140598 4.6527281 48
-7.5101962 -37.012978 5.9817419 44
-7.5107651 -36.916595 7.3228679 63
-7.5034332 -36.749203 8.6592665 61
nan nan nan nan
-0.75618422 -3.6450677 -0.99748862 32
-0.88734502 -4.2660766 -1.0059812 29
-1.0943165 -5.2427683 -1.0410539 6
-1.4194479 -6.7826858 -1.0975443 2
-1.9574827 -9.3292637 -1.1704333 2
nan nan nan nan
-8.0343447 -38.059849 -2.0385904 26
-8.0276585 -37.929893 -0.67673451 100
-8.5005312 -40.903694 0.72923136 16
-7.813673 -37.500034 2.0075028 32
-7.8207269 -37.435726 3.3459091 38
-7.805913 -37.26733 4.6751523 48
-7.8041639 -37.129765 6.009274 22
-7.8091965 -37.057285 7.3614116 63
-7.7912664 -36.876503 8.7015572 62
nan nan nan nan
-0.78138322 -3.6417248 -0.99800628 31
-0.92251009 -4.2885151 -1.0127298 33
-1.1411607 -5.2870121 -1.0513576 4
-1.4856364 -6.8655405 -1.1125621 2
-2.0588155 -9.4903212 -1.1923697 2
nan nan nan nan
-8.3366528 -38.203316 -2.0492668 26
nan nan nan nan
nan nan nan nan
-8.1129169 -37.65099 2.0184934 32
-8.1123848 -37.552998 3.3612483 39
-8.100585 -37.403461 4.6990385 48
-8.0986605 -37.268814 6.0405612 22
-8.1026249 -37.193184 7.3991919 64
-8.0828409 -37.009193 8.7456474 63
nan nan nan nan
-0.80991638 -3.6532965 -1.002665 25
-0.95379317 -4.2916479 -1.0149792 35
-1.1865219 -5.3212786 -1.0597532 4
-1.5521563 -6.9439478 -1.1269541 2
-2.1524479 -9.6058702 -1.2087002 2
nan nan nan nan
-8.6421633 -38.348316 -2.0601528 81
-8.6472483 -38.277428 -0.68497205 53
-8.430172 -37.963333 0.67879391 28
-8.4102411 -37.780102 2.0284374 65
nan nan nan nan
-8.3957281 -37.529556 4.7219501 48
-8.3971395 -37.41328 6.0730996 22
-8.3943882 -37.309547 7.433537 65
-8.3774433 -37.143417 8.790638 64
nan nan nan nan
-0.84122878 -3.6759467 -1.0104296 18
-0.99082589 -4.3192458 -1.0230775 17
-1.2398865 -5.3876963 -1.0746363 2
-1.6118182 -6.9871168 -1.1357143 2
-2.2549014 -9.751524 -1.2289306 2
nan nan nan nan
-7.3401504 -31.567379 -1.6985114 18
nan nan nan nan
-8.7388668 -38.125328 0.68273818 57
-8.717742 -37.941936 2.0402651 33
nan nan nan nan
-8.6956396 -37.664963 4.7463241 49
-8.6935101 -37.536148 6.102509 22
-8.6960974 -37.458088 7.4747524 66
-8.6777744 -37.29052 8.8392277 64
nan nan nan nan
-0.8590672 -3.6341124 -1.0005945 16
-1.0347375 -4.3670363 -1.0361247 12
-1.2979287 -5.4608178 -1.091046 4
-1.6883266 -7.0868568 -1.1538608 2
-2.359664 -9.8818789 -1.2474546 2
nan nan nan nan
-7.5182962 -31.315954 -1.6878346 18
-9.2790928 -38.561245 -0.69230211 54
-9.0538464 -38.240841 0.68594939 57
-9.0346804 -38.070969 2.0506277 33
-9.0302305 -37.963734 3.4140646 13
-9.0189571 -37.799088 4.7714286 49
-9.0142651 -37.691998 6.1381764 46
-9.0087633 -37.582001 7.5121508 66
-8.989007 -37.413162 8.8833179 65
nan nan nan nan
-0.92376524 -3.7894385 -1.0451113 16
-1.0753754 -4.4013524 -1.0460224 10
-1.3500115 -5.5128775 -1.1032577 7
-1.7525364 -7.1404276 -1.1644983 2
-2.4641829 -10.009731 -1.2657351 2
nan nan nan nan
-7.712101 -31.186499 -1.6836479 18
-9.5885124 -38.658558 -0.69523406 100
-9.3603802 -38.368713 0.68937004 57
-9.3443708 -38.216179 2.0618277 34
nan nan nan nan
-9.3291054 -37.952728 4.798728 49
-9.3173943 -37.819649 6.1691504 46
nan nan nan nan
-9.3015137 -37.557571 8.932807 66
nan nan nan nan
-0.95377052 -3.7999265 -1.0497701 6
-1.1214734 -4.4581866 -1.0613192 16
-1.4110386 -5.5927877 -1.1211938 2
-1.8255851 -7.219944 -1.1795161 2
-2.5737085 -10.15629 -1.2864529 2
nan nan nan nan
-7.95823 -31.244158 -1.689719 18
nan nan nan nan
-9.6792002 -38.506069 0.69303507 43
-9.6680231 -38.37661 2.074074 69
nan nan nan nan
-9.6498766 -38.107975 4.8267579 50
-9.6234722 -37.920258 6.1963696 23
-9.6402826 -37.903252 7.6022124 45
-9.6092463 -37.671101 8.9755478 33
nan nan nan nan
-1.0049273 -3.888566 -1.0761696 8
-1.1950763 -4.6143737 -1.1004606 6
-1.4638685 -5.6360059 -1.131879 2
-1.8998299 -7.2987833 -1.1945337 2
-2.6896431 -10.310947 -1.3083893 2
nan nan nan nan
-8.2166758 -31.342396 -1.6980927 18
nan nan nan nan
-9.9978848 -38.631149 0.69652557 43
-9.9903631 -38.518913 2.0854836 35
nan nan nan nan
-9.9717655 -38.254818 4.8540564 50
-9.9643593 -38.144569 6.2442389 24
-9.8957119 -37.800838 7.5953436 45
nan nan nan nan
nan nan nan nan
-1.0449569 -3.929997 -1.0896282 4
-1.2317773 -4.6228657 -1.1045097 2
-1.5163566 -5.674964 -1.1418011 2
-1.9650449 -7.3387704 -1.203294 2
-2.820209 -10.510489 -1.3361756 2
-5.0919328 -18.924065 -1.7145277 11
nan nan nan nan
nan nan nan nan
nan nan nan nan
-10.316182 -38.66243 2.0971022 35
-10.303506 -38.533901 3.4897158 13
-10.289993 -38.376011 4.8784304 51
nan nan nan nan
-10.210414 -37.920406 7.6335049 46
nan nan nan nan
nan nan nan nan
-1.0733869 -3.926333 -1.0906636 4
-1.2624764 -4.6085153 -1.10316 2
-1.5725787 -5.7248192 -1.1540129 2
-2.0392971 -7.4086728 -1.2170602 2
-2.9484107 -10.689562 -1.3615245 2
-5.1952443 -18.784361 -1.705115 11
nan nan nan nan
nan nan nan nan
nan nan nan nan
nan nan nan nan
-10.636694 -38.695408 3.5109818 14
-10.617791 -38.521397 4.9062166 52
nan nan nan nan
-10.592197 -38.272038 7.7189875 48
nan nan nan nan
nan nan nan nan
-1.1086073 -3.9466422 -1.0984281 4
-1.3051789 -4.6371059 -1.1121581 6
-1.6199718 -5.7401538 -1.1593555 2
-2.1199961 -7.496901 -1.2339553 2
-3.0824933 -10.878806 -1.3883356 2
-5.4220877 -19.084942 -1.7357937 11
nan nan nan nan
nan nan nan nan
nan nan nan nan
nan nan nan nan
nan nan nan nan
-10.947037 -38.660255 4.9335151 17
-10.937323 -38.548946 6.3465471 25
-10.922474 -38.419994 7.7640185 49
nan nan nan nan
nan nan nan nan
-1.1355975 -3.9369502 -1.0979104 8
-1.3515868 -4.6765566 -1.1238556 4
-1.6753057 -5.7815037 -1.1700408 2
-2.1954145 -7.561594 -1.2470957 2
-3.2282324 -11.097188 -1.4190468 2
-5.6667619 -19.429167 -1.7706561 12
nan nan nan nan
nan nan nan nan
nan nan nan nan
nan nan nan nan
nan nan nan nan
nan nan nan nan
-11.26971 -38.689758 6.3825274 26
-11.264133 -38.595341 7.815155 50
nan nan nan nan
nan nan nan nan
-1.1597648 -3.9178114 -1.0948045 8
-1.3919601 -4.6931629 -1.1301541 2
-1.7290562 -5.8148308 -1.1791997 2
-2.2808635 -7.6558852 -1.2652421 2
-3.3567252 -11.245574 -1.4409832 2
-5.8559675 -19.581028 -1.7880871 12
nan nan nan nan
nan nan nan nan
nan nan nan nan
nan nan nan nan
nan nan nan nan
nan nan nan nan
nan nan nan nan
-11.591312 -38.70948 7.8544617 25
nan nan nan nan
nan nan nan nan
-1.1988747 -3.9484386 -1.105675 4
-1.4314965 -4.7057037 -1.135553 2
-1.7880569 -5.8667774 -1.1921747 2
-2.3617661 -7.7346458 -1.2808856 2
-3.5211463 -11.502793 -1.4770566 2
-6.0486073 -19.722532 -1.804821 12
nan nan nan nan
nan nan nan nan
nan nan nan nan
nan nan nan nan
nan nan nan nan
nan nan nan nan
nan nan nan nan
nan nan nan nan
nan nan nan nan
nan nan nan nan
-1.2360519 -3.9733906 -1.1149925 4
-1.4739305 -4.7293391 -1.1436512 2
-1.8430222 -5.8991261 -1.2013335 2
-2.4393089 -7.7933769 -1.2934003 2
-3.6943948 -11.781623 -1.5160547 2
-6.2829366 -19.98774 -1.8330595 12
nan nan nan nan
nan nan nan nan
nan nan nan nan
nan nan nan nan
nan nan nan nan
nan nan nan nan
nan nan nan nan
nan nan nan nan
nan nan nan nan
nan nan nan nan
-1.2713884 -3.9885924 -1.1217217 4
-1.5193605 -4.7579184 -1.1530992 4
-1.8919411 -5.9104228 -1.2062945 2
-2.5262296 -7.8777323 -1.3102952 2
-3.8652015 -12.031477 -1.5516406 2
-7.256567 -22.533981 -2.0711691 15
nan nan nan nan
nan nan nan nan
nan nan nan nan
nan nan nan nan
nan nan nan nan
nan nan nan nan
nan nan nan nan
nan nan nan nan
nan nan nan nan
nan nan nan nan
-1.3069962 -4.0034938 -1.1284511 4
-1.5646549 -4.7842388 -1.1620972 4
-1.9576194 -5.971694 -1.2215593 2
-2.6193771 -7.9762645 -1.3296931 2
-4.0297461 -12.249338 -1.5833267 2
-7.5606947 -22.941998 -2.1133523 31
nan nan nan nan
nan nan nan nan
nan nan nan nan
nan nan nan nan
nan nan nan nan
nan nan nan nan
nan nan nan nan
nan nan nan nan
nan nan nan nan
nan nan nan nan
-1.3398126 -4.0089293 -1.1325922 4
-1.6116265 -4.8138537 -1.171995 2
-2.0132041 -6.002903 -1.2307181 2
-2.7050636 -8.051877 -1.3453366 2
-4.1880164 -12.437257 -1.6113566 17
-7.8569531 -23.29266 -2.150655 16
nan nan nan nan
nan nan nan nan
nan nan nan nan
nan nan nan nan
nan nan nan nan
nan nan nan nan
nan nan nan nan
nan nan nan nan
nan nan nan nan
nan nan nan nan
-1.3758169 -4.0253091 -1.1398392 3
-1.6519309 -4.8248963 -1.1773939 2
-2.07864 -6.0574093 -1.2448379 2
-2.786895 -8.1075191 -1.3578513 2
-4.2157025 -12.243291 -1.5899075 19
-8.1491432 -23.626644 -2.1865633 16
-17.95232 -51.931129 -2.8796294 59
nan nan nan nan
nan nan nan nan
nan nan nan nan
nan nan nan nan
nan nan nan nan
nan nan nan nan
nan nan nan nan
nan nan nan nan
nan nan nan nan
-1.4115355 -4.0374894 -1.1460507 4
-1.6965238 -4.8445134 -1.1850423 2
-2.1289206 -6.069057 -1.2501806 2
-2.8944039 -8.2374554 -1.3828808 3
-4.2852478 -12.168624 -1.5840578 16
-8.465003 -23.997568 -2.2263062 16
nan nan nan nan
nan nan nan nan
nan nan nan nan
nan nan nan nan
nan nan nan nan
nan nan nan nan
nan nan nan nan
nan nan nan nan
nan nan nan nan
nan nan nan nan
-1.4500343 -4.0587149 -1.1548507 4
-1.7478447 -4.8842278 -1.1976395 2
-2.1944356 -6.1187263 -1.2635372 2
-2.99191 -8.3285923 -1.4016529 3
-4.4104424 -12.250476 -1.5986823 19
-8.7904844 -24.376461 -2.2670951 17
nan nan nan nan
nan nan nan nan
nan nan nan nan
nan nan nan nan
nan nan nan nan
nan nan nan nan
nan nan nan nan
nan nan nan nan
nan nan nan nan
nan nan nan nan
-1.4810295 -4.0536785 -1.1564035 4
-1.7988235 -4.9155164 -1.2084371 2
-2.2614226 -6.1696167 -1.2772754 2
-3.0882123 -8.4070988 -1.418548 3
-4.5260186 -12.301358 -1.6094066 20
-8.9549379 -24.299541 -2.2657006 17
nan nan nan nan
nan nan nan nan
nan nan nan nan
nan nan nan nan
nan nan nan nan
nan nan nan nan
nan nan nan nan
nan nan nan nan
nan nan nan nan
nan nan nan nan
-1.5241565 -4.0830569 -1.1677916 6
-1.8446982 -4.9338689 -1.2160854 4
-2.3275561 -6.2121072 -1.2894872 2
-3.1995773 -8.5258913 -1.4423259 3
-4.660677 -12.399532 -1.6264684 20
-9.6424236 -25.612532 -2.3943427 18
nan nan nan nan
-23.236723 -61.494213 -1.1474608 46
nan nan nan nan
nan nan nan nan
nan nan nan nan
nan nan nan nan
nan nan nan nan
nan nan nan nan
nan nan nan nan
nan nan nan nan
-1.5643233 -4.1030045 -1.1765914 3
-1.8881346 -4.9445376 -1.2219342 2
-2.3922286 -6.2547994 -1.301699 2
-3.3126543 -8.6477985 -1.4667298 3
-4.7698932 -12.425997 -1.634268 17
-9.9182348 -25.797504 -2.4180489 18
-20.896004 -54.266037 -3.047523 62
nan nan nan nan
nan nan nan nan
nan nan nan nan
nan nan nan nan
nan nan nan nan
nan nan nan nan
nan nan nan nan
nan nan nan nan
nan nan nan nan
-1.6027228 -4.119267 -1.184356 3
-1.9344841 -4.9642544 -1.2300324 2
-2.4743981 -6.3367 -1.3223064 2
-3.4204314 -8.7458811 -1.4873791 3
-4.8818746 -12.46348 -1.6435301 17
-10.507201 -26.769947 -2.516012 19
nan nan nan nan
nan nan nan nan
nan nan nan nan
nan nan nan nan
nan nan nan nan
nan nan nan nan
nan nan nan nan
nan nan nan nan
nan nan nan nan
nan nan nan nan
-1.6364323 -4.1205454 -1.1879795 4
-1.9849377 -4.9904652 -1.2399303 2
-2.5505581 -6.3995152 -1.3390976 2
-3.5326664 -8.8502121 -1.50928 3
-4.9871883 -12.475174 -1.6496235 10
-10.923502 -27.269291 -2.5700483 20
nan nan nan nan
-22.692692 -56.478321 -1.0624328 61
-23.484301 -59.073456 1.109624 54
nan nan nan nan
nan nan nan nan
nan nan nan nan
nan nan nan nan
nan nan nan nan
nan nan nan nan
nan nan nan nan
-1.670964 -4.1233444 -1.1921207 3
-2.035852 -5.0162115 -1.2498281 2
-2.6129231 -6.4252005 -1.3482565 2
-3.6599352 -8.9863272 -1.5368123 3
-5.119143 -12.55034 -1.664248 22
nan nan nan nan
-22.043011 -53.853497 -3.0496166 62
nan nan nan nan
-23.415051 -57.722126 1.0872849 53
-24.004572 -59.086544 3.3423839 52
nan nan nan nan
nan nan nan nan
nan nan nan nan
nan nan nan nan
nan nan nan nan
nan nan nan nan
-1.7048759 -4.1240754 -1.195744 3
-2.0857308 -5.0378866 -1.2588261 2
-2.6847961 -6.472085 -1.3619947 2
-3.7597165 -9.0499439 -1.552143 19
-5.2462878 -12.609599 -1.6769222 15
nan nan nan nan
nan nan nan nan
nan nan nan nan
-22.92592 -55.402782 1.0465859 51
nan nan nan nan
nan nan nan nan
nan nan nan nan
nan nan nan nan
nan nan nan nan
nan nan nan nan
nan nan nan nan
-1.7508869 -4.1530151 -1.2076497 3
-2.1284308 -5.0411558 -1.2633252 2
-2.7620399 -6.5291252 -1.3780226 2
-3.7758002 -8.9125233 -1.5330579 29
-5.4194751 -12.773684 -1.7037336 13
-20.866621 -49.111023 -4.6684103 10
nan nan nan nan
nan nan nan nan
-22.775681 -53.970146 1.0225016 48
-23.415258 -55.40472 3.1522996 63
nan nan nan nan
nan nan nan nan
nan nan nan nan
nan nan nan nan
nan nan nan nan
nan nan nan nan
-1.7897546 -4.163764 -1.2143791 3
-2.1836054 -5.0727129 -1.2750226 2
-2.8359504 -6.5786824 -1.3925241 2
-3.8246346 -8.8594122 -1.5283649 26
