# .PCD v0.7 - Point Cloud Data file format
VERSION 0.7
FIELDS x y z intensity
SIZE 4 4 4 4
TYPE F F F F
COUNT 1 1 1 1
WIDTH 1449
HEIGHT 1
VIEWPOINT 0 0 0 1 0 0 0
POINTS 1449
DATA ascii
1.387459 1.8860358 -0.62737739 26
1.5253888 2.0712574 -0.59387082 29
1.6617289 2.2530916 -0.54418731 27
1.8386164 2.4901979 -0.49026567 20
2.0802393 2.8143613 -0.42971134 13
2.3328626 3.1515343 -0.343045 17
2.6612847 3.5912762 -0.23425576 20
2.8784895 3.8801308 -0.08433003 15
2.4670939 3.3511815 0.072636917 26
2.3935595 3.2477326 0.21143727 12
2.4024315 3.2561996 0.35402662 40
2.5940802 3.510823 0.53598142 13
2.8498745 3.8527925 0.75902009 18
4.7492976 6.4136276 1.5512772 24
nan nan nan nan
3.5617363 4.7976303 1.6010547 16
1.3682352 1.8329566 -0.61288351 47
1.546811 2.0699239 -0.59657025 41
1.6774179 2.2414358 -0.54418731 33
1.8500346 2.4693968 -0.48870131 32
2.0926888 2.7902424 -0.42824891 19
2.3308783 3.1033084 -0.33955875 16
2.6322796 3.5007727 -0.22954552 18
2.5844104 3.4333658 -0.075010449 8
2.541888 3.4027655 0.074137822 13
2.3659358 3.1637664 0.20704105 27
nan nan nan nan
2.5780406 3.4386261 0.52769434 22
3.0059526 4.0050106 0.79312283 12
4.5970097 6.118196 1.487547 11
4.6457658 6.1741071 1.783862 12
3.5684073 4.7371593 1.589149 5
1.3705002 1.8095007 -0.60822481 52
1.5518039 2.0466528 -0.59297103 23
1.6847143 2.2187252 -0.54151595 42
1.8528842 2.4375498 -0.48494691 26
2.0964899 2.7550285 -0.4250803 15
2.3367858 3.0663605 -0.3372927 14
2.6457508 3.4680204 -0.22860347 22
2.5803995 3.3786891 -0.074207634 13
2.4001009 3.1666045 0.069355868 20
2.3843451 3.1423976 0.20672706 20
2.4175322 3.1826742 0.34966883 36
2.5382845 3.3368089 0.51477611 23
3.1571062 4.1458001 0.82534832 13
4.5634375 5.9860282 1.4631234 11
4.7183204 6.1802468 1.7951095 2
nan nan nan nan
1.3960478 1.8167387 -0.61391884 30
1.5541735 2.0203226 -0.58847201 49
1.6989639 2.2053554 -0.54113436 38
1.8529661 2.4026563 -0.48056671 25
2.1290154 2.7576103 -0.42776144 27
2.3532617 3.0436673 -0.33659548 13
2.693125 3.4794745 -0.23059224 16
2.5831027 3.33372 -0.073614255 15
2.5050414 3.2575641 0.071729392 22
2.4415572 3.1715715 0.20976254 17
2.4032066 3.1183753 0.34443948 23
2.5178576 3.2624319 0.50600159 21
2.9540915 3.8235273 0.7652775 27
4.9666529 6.4214649 1.5779905 52
4.7673178 6.1548581 1.797359 6
7.2648506 9.3691692 3.1767449 1
1.4372042 1.843513 -0.62634212 22
1.5610462 2.0002055 -0.58577257 41
1.7167366 2.1965344 -0.54189759 34
1.8843017 2.4083309 -0.48432118 23
2.1310799 2.7207997 -0.42434907 16
2.355484 3.0040603 -0.3339808 17
2.7050159 3.4448793 -0.22954552 16
2.5383441 3.2291386 -0.071694486 25
2.4932799 3.1958516 0.070752062 23
2.4513443 3.1387088 0.20871581 10
2.3991461 3.0685613 0.34077895 20
2.541796 3.2463374 0.50624532 23
2.9843686 3.8074751 0.7662161 18
4.9107704 6.2584386 1.5463161 11
7.3791723 9.3941154 2.7579 2
7.2524462 9.2195282 3.1430988 1
1.4464432 1.8288894 -0.62478918 42
1.5846485 2.001482 -0.5893718 31
1.7328688 2.1863358 -0.54227924 31
1.8675013 2.353667 -0.47587368 20
2.1426132 2.6965306 -0.42288667 34
2.3739183 2.9844241 -0.33363217 19
2.6624625 3.3435791 -0.22399792 13
2.8687732 3.5975122 -0.080315977 19
2.4926441 3.1505771 0.070123769 20
2.4714134 3.1203837 0.20861115 3
2.3920338 3.0158346 0.33676979 15
2.5798798 3.2491722 0.5094139 23
2.9770272 3.745322 0.75776863 10
4.9726839 6.2470436 1.5520406 14
7.3534927 9.2280664 2.7241576 2
7.253593 9.0929289 3.1166992 5
1.4467719 1.8039309 -0.61961281 50
1.5957955 1.9876103 -0.58847201 36
1.7394778 2.1634753 -0.53960788 39
1.9012265 2.3621168 -0.48025388 18
2.1497076 2.667973 -0.42069301 35
2.397198 2.9708796 -0.3339808 14
2.7108405 3.355984 -0.22609136 22
2.8315837 3.5017102 -0.078605637 13
2.4820352 3.0925503 0.069216244 10
2.5431752 3.1653328 0.21279801 8
2.4299901 3.0212171 0.33921015 21
2.5900497 3.215621 0.50697654 27
2.9745853 3.6890774 0.75057268 15
5.1495004 6.3795667 1.5936368 9
7.366281 9.1128569 2.7052617 2
7.3497038 9.0826178 3.1306753 1
1.4593313 1.7937858 -0.61961281 41
1.6096338 1.9764204 -0.58847201 41
1.7632252 2.1619287 -0.54227924 41
1.9126736 2.3426654 -0.47900239 25
2.1619999 2.645215 -0.4194743 15
2.4002116 2.9324875 -0.33154044 14
2.7379994 3.3416131 -0.22640537 22
2.6822176 3.2700398 -0.073823676 18
2.5250261 3.1015112 0.069809623 23
2.4503877 3.0066156 0.20327288 10
2.503921 3.0690184 0.34653121 12
2.5961082 3.1774766 0.5038079 17
2.8864598 3.5290761 0.72210157 46
5.3406754 6.5227056 1.6386677 7
7.4519658 9.0883284 2.7133598 6
7.4251947 9.0460148 3.1358516 15
1.4718179 1.7835548 -0.61961281 52
1.608498 1.9471066 -0.58307314 29
1.7820306 2.1541035 -0.54342401 39
1.9289831 2.3292544 -0.47900239 26
2.1740808 2.6224148 -0.41825563 12
2.4028084 2.8941984 -0.32910007 14
2.7319002 3.2870882 -0.22399792 13
2.6755657 3.2158785 -0.073020868 18
2.5173311 3.0483437 0.069006816 13
2.428051 2.9370973 0.19971403 23
2.5532315 3.0852311 0.35036606 8
2.6232932 3.1653898 0.50478286 13
2.8694034 3.4586704 0.71177691 13
7.5447764 9.084506 2.2954323 6
7.5438938 9.0705433 2.7237077 18
7.4201822 8.9123011 3.1073816 33
1.4829937 1.7717547 -0.61909521 27
1.6208006 1.9343363 -0.5826233 33
1.784405 2.1265714 -0.53960788 47
1.9350318 2.3036313 -0.47649944 20
2.1795588 2.5919807 -0.41581824 15
2.411406 2.8636355 -0.32753128 17
2.7328994 3.2419741 -0.2222185 10
2.7998354 3.3178523 -0.075778343 22
2.6194446 3.1272743 0.071205825 17
2.4728787 2.9491529 0.20170279 10
2.5362799 3.0215504 0.34513673 5
2.654269 3.1576355 0.50648904 12
3.0244806 3.5942335 0.7440024 15
7.638371 9.0676489 2.3045912 46
7.6371865 9.0534086 2.7345052 30
7.4049397 8.7687759 3.0752881 22
1.5140809 1.7834491 -0.62685978 26
1.6279554 1.9155492 -0.58037376 31
1.7712145 2.0811701 -0.53121227 21
1.947224 2.2855551 -0.47556084 28
2.2104826 2.591805 -0.41825563 6
2.4274561 2.8421869 -0.32700834 14
2.7489748 3.2152269 -0.22169513 19
2.6473897 3.0931318 -0.071066193 19
2.454776 2.889457 0.066179529 24
2.4351807 2.8633523 0.19699256 8
2.5340643 2.9764633 0.34199914 13
2.6595058 3.1193902 0.5033204 32
2.9943571 3.5084221 0.73054904 16
7.7525001 9.0738077 2.3198559 19
3.6904733 4.3133631 1.3105649 15
7.4043984 8.6449699 3.0499237 31
1.5101073 1.7538048 -0.62013048 13
1.6400156 1.9026619 -0.57992387 33
1.7921147 2.076185 -0.53312039 23
1.9670072 2.2763891 -0.47649944 52
2.2194321 2.5658002 -0.41654944 11
2.4198451 2.793546 -0.32334781 19
2.764812 3.1884124 -0.22117178 17
2.604687 3.0005791 -0.069355868 23
2.5036054 2.9055769 0.06694743 16
2.532078 2.9355114 0.2031682 15
2.5000927 2.8953636 0.33467805 13
2.6929045 3.1142619 0.50551409 13
3.2437315 3.7473092 0.78498822 15
2.9827814 3.4422038 0.8853538 2
3.6400328 4.1947675 1.2822211 14
7.3809562 8.49681 3.0157597 43
1.5108786 1.7301227 -0.61547172 12
1.6558248 1.8940996 -0.58082366 34
1.802685 2.0591922 -0.53197551 29
1.9854544 2.2655737 -0.4771252 18
2.2241983 2.5353222 -0.41411206 12
2.436173 2.7740169 -0.32299918 15
2.8015127 3.1855302 -0.22232316 17
2.6863544 3.0513637 -0.070961483 13
2.4975116 2.8579123 0.066249333 22
2.5643454 2.9312918 0.20411025 11
2.4585516 2.8073919 0.32648543 22
2.7970386 3.1894114 0.52086961 3
3.136884 3.5731552 0.7530756 16
7.9834118 9.0841312 2.3507669 2
3.8886113 4.4200869 1.3591543 15
2.8529305 3.2382934 1.1564035 16
1.5216396 1.7180865 -0.61495411 20
1.6728861 1.886868 -0.58217335 27
1.8153574 2.0454049 -0.53159386 38
1.9968946 2.2475755 -0.47618657 17
2.2273307 2.5034175 -0.41143093 12
2.452831 2.7539649 -0.32265055 12
2.8337648 3.1783135 -0.22316055 22
2.5970492 2.9087291 -0.068064384 17
2.4930363 2.8139057 0.065621048 25
2.4424372 2.753885 0.19291034 12
2.5124891 2.8288922 0.33101749 13
2.6604035 2.9922769 0.49162099 22
2.9890876 3.3584204 0.71208972 7
3.7372448 4.1931181 1.0918092 3
8.626256 9.6683006 2.9913993 5
2.9611282 3.3153343 1.1910853 1
1.541042 1.7163144 -0.61805987 19
1.6804793 1.8696408 -0.58037376 31
1.8374726 2.0414376 -0.53388357 30
1.9940238 2.2130353 -0.47180638 31
2.2203858 2.4616666 -0.40704364 17
2.4840171 2.7500806 -0.32421938 16
2.8277538 3.1273417 -0.22096242 17
2.5872669 2.8583667 -0.067296483 20
2.5794466 2.8708043 0.067366287 15
2.5003371 2.7798302 0.19594584 3
2.5396869 2.8206074 0.33206338 13
2.7197785 3.0163846 0.49868938 16
3.1342318 3.4723759 0.74087369 24
8.7778587 9.7146463 2.5450106 2
3.0281603 3.3466351 1.0419734 7
7.5389628 8.3230791 3.0090303 30
1.5555887 1.7083703 -0.61909521 22
1.6921788 1.8564222 -0.57992387 48
1.831826 2.0068097 -0.52815932 29
2.0107574 2.2005186 -0.47211927 27
2.2388573 2.4475703 -0.40728739 13
2.5085373 2.7385497 -0.3249166 13
2.8589654 3.1178298 -0.22169513 12
2.5828171 2.8137188 -0.06666819 22
2.5468972 2.7950819 0.066004999 21
2.4793022 2.7180402 0.19280569 8
2.5499113 2.7925105 0.33084321 10
2.722018 2.9768128 0.49527705 22
nan nan nan nan
3.0453122 3.3233745 0.87619489 1
nan nan nan nan
nan nan nan nan
1.563545 1.6932116 -0.61754227 27
1.7037745 1.8431333 -0.57947397 24
1.8511261 1.9997352 -0.5296858 39
1.9965336 2.1545501 -0.46523616 16
2.2437408 2.4187813 -0.40509373 12
2.502718 2.6951303 -0.32177898 16
2.8956234 3.1138835 -0.22284654 16
2.577872 2.7692728 -0.066039905 31
2.6274199 2.843323 0.067575715 10
2.5972235 2.8076949 0.20044672 6
2.4854143 2.6840043 0.32003587 31
2.7238359 2.9373603 0.49186471 17
3.147465 3.3906362 0.73273909 15
3.1980715 3.4415371 0.91321188 9
3.2558541 3.5000422 1.1036099 29
3.3143353 3.5579216 1.3028952 40
1.5647639 1.6709739 -0.61340117 35
1.7139347 1.8283502 -0.57857412 23
1.8579779 1.9799306 -0.52777767 36
1.9624623 2.0890799 -0.45397288 9
2.2687321 2.4117346 -0.40655616 12
2.5146415 2.670341 -0.32090744 33
2.8249609 2.9967294 -0.2158335 21
2.8195207 2.9867754 -0.071694486 19
2.5947628 2.7699161 0.066249333 11
2.5343029 2.7025375 0.19416642 6
2.5777414 2.7450166 0.3294487 14
2.6363544 2.8044894 0.47260937 11
4.9736605 5.2853107 1.1494806 14
nan nan nan nan
3.3216643 3.5211709 1.1175569 6
3.0082083 3.185545 1.1740032 9
1.5734407 1.6574826 -0.6123659 43
1.7075456 1.7968656 -0.57227552 24
1.867695 1.9626447 -0.52663285 45
1.9974366 2.0967827 -0.45866591 13
2.2782462 2.3890529 -0.40533748 16
2.5304708 2.6498387 -0.32055882 13
2.8734157 3.0058086 -0.21792693 29
2.6586688 2.7782536 -0.067121953 12
2.5493062 2.6835926 0.064608812 15
2.5214527 2.6514904 0.19175896 35
2.5592752 2.6884437 0.32474229 21
2.6065595 2.7342899 0.46383476 19
4.9572515 5.1947246 1.1372787 10
nan nan nan nan
3.3111413 3.461283 1.1058595 14
nan nan nan nan
1.5889941 1.6506321 -0.61391884 24
1.7200494 1.7849001 -0.57227552 32
1.8868035 1.9552095 -0.52815932 15
2.0202601 2.0913124 -0.46054313 10
2.2824485 2.3602476 -0.40314382 16
2.5419784 2.6249518 -0.31968728 13
2.8401134 2.9297473 -0.21384473 33
2.9857678 3.0767736 -0.074835919 9
2.8468356 2.9552009 0.071624674 40
2.5565388 2.6510749 0.19301502 11
2.5572252 2.6490095 0.32212761 10
2.5814342 2.6703544 0.45603511 13
3.1814876 3.2876306 0.72460455 19
3.1390855 3.2404172 0.87695819 13
3.187326 3.2856193 1.0568202 4
3.1492956 3.2430167 1.2112732 21
1.5937315 1.6325868 -0.61133063 35
1.7147623 1.7547295 -0.56642681 43
1.8660803 1.9069096 -0.51861888 30
2.0237532 2.0658674 -0.45804018 9
2.2919221 2.3371677 -0.40192512 11
2.5444338 2.5919483 -0.31776983 19
2.866097 2.9155471 -0.21426344 33
2.7869656 2.8320827 -0.069355868 20
2.6018965 2.6634729 0.064992763 28
2.5917404 2.6502988 0.19427109 16
2.7930806 2.8531985 0.34932023 8
2.7820568 2.8379688 0.4879649 12
3.1088953 3.1680562 0.70301658 12
nan nan nan nan
3.2055161 3.2596807 1.0554705 39
3.0851059 3.1328585 1.1781443 12
1.5969348 1.6131839 -0.60822481 28
1.7557758 1.7717847 -0.57587475 24
1.8900774 1.9053146 -0.52167183 30
2.0321994 2.0464385 -0.45678869 10
2.3039837 2.3168874 -0.40119389 8
2.5427885 2.5543535 -0.31532949 19
2.8590915 2.8690894 -0.21227466 15
2.8631711 2.8691747 -0.070752062 16
2.6143389 2.6400156 0.064853139 18
2.5647264 2.5872054 0.19092159 25
2.6543181 2.6738489 0.32962301 20
2.8041086 2.8217826 0.4884524 40
nan nan nan nan
3.2796252 3.2922456 0.90328985 60
3.2818604 3.2910383 1.0730166 13
3.0886164 3.0940123 1.171415 16
1.610616 1.6050029 -0.60926002 24
1.765034 1.7570419 -0.57497495 24
1.9019405 1.8906888 -0.52129018 28
2.0548468 2.0405526 -0.45866591 7
2.306006 2.2867694 -0.3987565 5
2.5676353 2.5435512 -0.31620103 10
2.8975072 2.8673224 -0.2136354 42
2.7579641 2.7254248 -0.067680433 19
2.6157012 2.604769 0.064434282 12
2.6039643 2.5903671 0.19249167 20
2.7614918 2.7441969 0.34060463 10
2.7363789 2.7154446 0.47334057 12
3.2659135 3.2375362 0.72835892 28
3.1950965 3.1629181 0.8739053 15
nan nan nan nan
3.6296437 3.585568 1.3670822 22
1.6289499 1.6002064 -0.61184824 40
1.7719975 1.7389077 -0.57317531 29
1.9235064 1.8856097 -0.5235799 32
2.0552802 2.0119777 -0.45553723 7
2.3275914 2.2761664 -0.39973149 4
2.5753534 2.5158179 -0.31498083 16
2.9880047 2.9148536 -0.21876432 24
2.7110453 2.6419058 -0.066074811 23
2.6480899 2.6004555 0.064783335 9
2.63099 2.5800576 0.19311969 15
2.6572342 2.603066 0.32543954 11
2.7737119 2.7143252 0.47650915 14
3.0587111 2.9890423 0.67736137 12
3.2550321 3.1775618 0.88420898 15
nan nan nan nan
3.1182055 3.0365636 1.1662387 20
1.6400816 1.5887952 -0.61184824 45
1.7700902 1.7129427 -0.56867629 27
1.9425963 1.8772551 -0.52510637 32
2.0664341 1.9948363 -0.4549115 7
2.3162758 2.23368 -0.39510044 9
1.9973742 1.9241307 -0.24264158 10
2.9420695 2.83023 -0.21394941 15
2.7452824 2.6381574 -0.066458762 16
2.6623204 2.5772669 0.064678617 28
2.6475022 2.5602386 0.19301502 12
2.5907974 2.5027792 0.31515515 15
2.7830646 2.6847584 0.474803 12
3.4720874 3.3459351 0.76371318 31
3.2559206 3.134336 0.87848467 5
3.6295865 3.4903886 1.1625471 50
3.6312006 3.4870653 1.3489649 34
1.6315771 1.5586245 -0.60460132 25
1.7763666 1.6951621 -0.56687671 29
1.936856 1.8463784 -0.52014536 21
2.0771034 1.9779996 -0.45428574 14
2.3332531 2.2188218 -0.3953442 15
2.5885625 2.4590302 -0.31236616 22
2.9322922 2.7826402 -0.21185598 21
2.8797522 2.7289662 -0.06925115 8
2.6783555 2.5577044 0.064643718 24
2.6359658 2.5145848 0.19092159 23
2.6399441 2.5148644 0.31898999 18
2.7408767 2.608279 0.46456599 18
3.3473153 3.1820412 0.73148763 18
3.2221906 3.0588157 0.86360151 5
3.7429476 3.5494447 1.1908909 13
nan nan nan nan
1.6477715 1.5527829 -0.60667187 26
1.7992146 1.693718 -0.57047588 31
1.949699 1.8328117 -0.52014536 19
2.0865421 1.9593939 -0.45334715 9
2.361331 2.2151127 -0.39753783 13
2.5950627 2.431818 -0.31114599 25
2.9283128 2.740268 -0.21018122 49
2.980067 2.7857735 -0.071205825 24
2.7776713 2.615715 0.066598386 7
2.6956432 2.5358083 0.19395708 3
2.707818 2.5445902 0.32509091 22
2.8082368 2.6352642 0.47285309 12
3.2383039 3.0356543 0.70301658 33
3.7287347 3.4917288 0.99297011 11
3.5563998 3.3268547 1.1243054 9
3.1043639 2.8999369 1.1382862 26
1.6458362 1.5294054 -0.60201317 30
1.818137 1.6877441 -0.57272542 51
1.9376569 1.7968043 -0.51365787 41
1.9838982 1.8377534 -0.42831761 22
2.3854811 2.2066615 -0.39900026 13
2.61344 2.414994 -0.3113203 22
2.9557025 2.7284 -0.21080926 33
2.908283 2.6808693 -0.069041722 17
2.7822242 2.5845001 0.066284239 46
2.7348008 2.5377805 0.19552715 8
2.7766657 2.5730219 0.33119181 6
2.796973 2.5891192 0.46797833 18
3.3053005 3.0564592 0.71302837 13
3.6131103 3.3364191 0.95595312 26
3.1627128 2.9174469 0.99338394 12
3.3911152 3.1248519 1.2356021 9
1.6604797 1.5220836 -0.60356599 27
1.8022751 1.6503253 -0.56417727 27
1.9530514 1.7858828 -0.51442105 28
2.1016915 1.9197807 -0.4508442 9
2.3960471 2.1863587 -0.39826906 12
2.6641083 2.4275546 -0.31532949 15
2.96877 2.7023208 -0.21039055 36
3.0477834 2.7713263 -0.071903922 10
3.288281 3.0121012 0.077837728 7
2.693512 2.464694 0.19134027 35
2.9044096 2.6548803 0.34426519 33
2.7797933 2.5374107 0.46212861 12
3.6491425 3.3274567 0.78217238 18
3.6502507 3.3249683 0.95976931 20
3.8591032 3.5102835 1.204388 14
3.1454823 2.8581579 1.1388038 15
1.6610333 1.5013865 -0.59994256 28
1.8065207 1.6311729 -0.5619278 34
1.9552653 1.7630017 -0.51174974 21
2.1209137 1.9103495 -0.45209566 9
2.39502 2.1549723 -0.39558792 12
2.7106314 2.4355288 -0.31881571 4
2.9920228 2.6855316 -0.21070457 19
2.9315703 2.6285014 -0.068727575 13
2.9234009 2.6405683 0.068762481 11
2.6824806 2.4204071 0.18935151 23
2.6712842 2.4077687 0.31463224 13
2.7694051 2.4927108 0.45749757 19
3.0920613 2.780201 0.65858912 16
3.4922616 3.1367295 0.91244864 33
3.2307017 2.8977256 1.001932 27
3.1624818 2.8335507 1.1377686 6
1.6599371 1.4794706 -0.59580147 30
1.8193206 1.6198162 -0.56237763 28
1.9557872 1.7388735 -0.50869679 27
2.134198 1.8954973 -0.45209566 9
2.4055505 2.1342483 -0.39485672 16
2.7096732 2.4006906 -0.31672394 3
3.0585585 2.7069359 -0.21405408 15
3.0067787 2.6583028 -0.070053965 18
2.8491812 2.5376351 0.066598386 12
2.7097576 2.4109139 0.19008422 10
2.7505753 2.4446514 0.32195333 11
2.8090115 2.4930801 0.46115363 12
3.2488604 2.8804193 0.68768603 24
3.3347704 2.9534698 0.86589122 37
nan nan nan nan
3.7453654 3.3089643 1.3391298 3
1.6716772 1.4691206 -0.59631914 38
1.8203336 1.5980757 -0.55922836 34
1.9619739 1.7200003 -0.50717038 23
2.126574 1.8623316 -0.44771552 11
2.4293571 2.1252434 -0.39631912 17
2.726366 2.3817163 -0.31672394 9
3.075876 2.6842055 -0.21394941 43
3.1096745 2.7108333 -0.072008632 18
3.2439613 2.8488882 0.075359493 15
2.8015914 2.4577961 0.1953178 10
2.7525899 2.4122586 0.32021019 9
2.7621131 2.4171951 0.45067286 11
3.3923287 2.9655778 0.7136541 39
nan nan nan nan
3.2297218 2.816473 0.98933482 1
1.9300731 1.6813388 0.68587047 7
1.6891921 1.4637406 -0.59890729 26
1.8417588 1.5942572 -0.56237763 35
1.9679937 1.7011248 -0.50564384 11
2.1230781 1.8332378 -0.44427395 11
2.4486444 2.1121213 -0.39705035 11
2.7142448 2.3379192 -0.31341204 13
3.1127079 2.6782982 -0.21520546 21
3.1224589 2.6838422 -0.071869008 13
2.9629419 2.5656767 0.068413429 27
2.8488925 2.4643102 0.19741124 8
2.7708709 2.3942859 0.3203845 18
2.8570721 2.4652898 0.46334729 10
3.2139466 2.770293 0.67204249 15
3.2998066 2.841291 0.84642875 2
1.971157 1.6948637 0.60016948 10
1.9388331 1.6653059 0.68483526 4
1.6934944 1.4468925 -0.59683669 26
1.8395035 1.5699748 -0.55832857 27
1.979821 1.6873451 -0.50564384 11
2.1147664 1.8004446 -0.43989375 13
2.460305 2.0924041 -0.39656287 11
2.7289829 2.3176222 -0.31323773 12
3.2150972 2.7275646 -0.22096242 19
3.4492824 2.9231339 -0.078919783 11
2.9883845 2.5514226 0.068587959 11
2.8265171 2.4106636 0.19468978 2
2.7511215 2.3438714 0.31620103 40
3.261272 2.77458 0.52574438 21
nan nan nan nan
1.9905399 1.6898942 0.50755197 6
1.9888861 1.6861026 0.60196906 5
1.9681019 1.6667122 0.69104689 9
1.7062588 1.4378217 -0.59787202 28
1.8561108 1.5624371 -0.56012815 50
1.9822434 1.66625 -0.50335413 11
2.1542027 1.8088732 -0.44552541 11
2.1858408 1.8328391 -0.35025251 18
2.7477489 2.301553 -0.31358635 19
3.1646571 2.647943 -0.21625218 21
2.9064262 2.4284275 -0.066109717 9
2.8374262 2.3893352 0.064748429 9
2.8657866 2.4106534 0.19625986 31
2.7868407 2.3417549 0.31846708 24
nan nan nan nan
2.0180166 1.6915177 0.41705433 7
2.0037954 1.6772157 0.50793356 5
1.9973279 1.6700246 0.60106927 7
1.9868155 1.6594682 0.69363505 9
1.7209617 1.4292786 -0.59942496 27
1.8567452 1.5404052 -0.55697882 34
1.9772 1.6385908 -0.49915636 10
2.1351333 1.7669641 -0.43895519 36
2.4647999 2.0376117 -0.39266306 9
2.7668223 2.2848513 -0.31393498 19
3.208179 2.6455605 -0.21792693 17
2.9480045 2.4284205 -0.06666819 16
3.0955925 2.5700104 0.070228487 21
2.807622 2.3276236 0.19113094 28
nan nan nan nan
2.0220516 1.672787 0.32222256 8
2.0300689 1.6770339 0.41705433 6
2.0396829 1.6831799 0.51403946 8
2.0104411 1.6572803 0.60151911 6
1.9822321 1.631704 0.68794107 5
1.7114671 1.4013183 -0.59269565 36
1.8734879 1.5323403 -0.55877846 28
1.9827918 1.6194335 -0.49762988 9
2.1565995 1.7595085 -0.44083238 31
2.2450714 1.8297313 -0.35561478 13
2.7239926 2.2176793 -0.30731115 4
3.1971254 2.5991607 -0.21593818 21
2.9400494 2.3876104 -0.066109717 17
2.9281838 2.3958371 0.066039905 24
nan nan nan nan
2.0510879 1.6746155 0.23165996 8
2.0508943 1.6720728 0.3249037 6
2.0539811 1.6727998 0.4195573 7
2.0422463 1.6614654 0.51174974 4
2.0174253 1.6395174 0.60016948 5
1.9875758 1.6129553 0.68587047 6
1.7106857 1.3808421 -0.58907217 31
1.8735209 1.5106609 -0.55562913 14
1.9983568 1.6095932 -0.49877474 10
2.1515975 1.7311658 -0.43739083 27
2.2314832 1.7928765 -0.35147122 16
2.7953467 2.2435031 -0.31358635 12
3.245909 2.6023247 -0.21803163 10
2.1167974 1.6946604 -0.047330927 3
2.0853744 1.6826844 0.04677245 7
2.063498 1.6632495 0.13889964 5
2.0751448 1.6702504 0.23305444 7
2.0761507 1.6692697 0.32709733 9
2.0622387 1.6563071 0.41893157 5
2.0354173 1.6324275 0.50717038 5
2.0303428 1.6266116 0.60061932 6
3.3544769 2.684561 1.1512272 2
1.7260904 1.3739791 -0.59114271 26
1.8868102 1.5003 -0.55652899 37
2.0049317 1.5919412 -0.49762988 10
2.1636302 1.7161037 -0.43739083 40
2.198513 1.7418969 -0.34440279 37
2.8359411 2.2437124 -0.31637534 7
2.1467483 1.6966169 -0.14340053 8
2.120435 1.674018 -0.047156405 5
2.093941 1.6655952 0.046702638 5
2.1032062 1.6711681 0.14078373 7
2.1051934 1.6709497 0.23514619 9
2.0799761 1.6485686 0.32587865 6
2.0644598 1.6345114 0.41705433 6
2.0449417 1.6173171 0.50678873 7
3.4899189 2.756175 1.0266767 10
3.6825421 2.9051702 1.2568253 49
1.7234825 1.352354 -0.58700162 23
1.878834 1.472664 -0.55113012 43
2.0252731 1.5851659 -0.49991959 10
2.1662209 1.6936564 -0.43551362 32
2.1918461 1.7118433 -0.34147793 55
2.1696804 1.6920944 -0.24072415 9
2.1459353 1.67177 -0.14256316 5
2.1494291 1.6726841 -0.047540355 8
2.127548 1.6682117 0.047191311 7
2.1069593 1.6502876 0.14026037 7
2.1136682 1.6537575 0.23479758 6
2.0742278 1.620564 0.32319754 6
2.0789354 1.6224897 0.41768005 8
nan nan nan nan
3.4045117 2.6503401 0.99608326 46
3.6859598 2.8663435 1.2511313 12
1.7527466 1.3556546 -0.59373093 20
1.8844422 1.4559379 -0.54978037 26
2.0254099 1.5625925 -0.49724829 10
2.1701696 1.672462 -0.43394926 25
nan nan nan nan
2.1811485 1.6772857 -0.24072415 4
2.1876519 1.6798594 -0.14455192 8
2.1547072 1.6527691 -0.047400735 7
2.1391425 1.6533179 0.047191311 6
2.1010394 1.6221119 0.13910899 4
2.1078076 1.6255767 0.23288015 8
2.0807717 1.6024109 0.32246631 3
3.1752419 2.4426196 0.6344983 51
3.9198191 3.0121355 0.96091413 26
3.5816929 2.749325 1.0424232 49
3.3746982 2.5866907 1.1393216 26
1.7345141 1.3223032 -0.58441341 15
1.8976617 1.4451079 -0.55068022 32
2.0391235 1.5511479 -0.4980115 15
2.2050948 1.6755795 -0.43864229 7
2.2139523 1.6798733 -0.34123421 7
2.2023315 1.6692396 -0.24177003 6
2.2069976 1.6709576 -0.14507528 5
2.1534331 1.6280376 -0.047121495 5
2.1392131 1.6302342 0.046946973 6
2.1183887 1.612612 0.13952768 6
2.1317942 1.6204674 0.23427464 1
2.9896247 2.2700722 0.46090987 20
3.188648 2.4185607 0.63387251 37
3.5980098 2.725106 0.87733978 48
3.5712721 2.7019138 1.0338751 46
3.4261322 2.5892859 1.1507095 28
1.7403862 1.3081447 -0.5833782 12
1.9074543 1.4321574 -0.55068022 41
2.0530446 1.5392298 -0.49877474 13
2.2214825 1.6636965 -0.43958092 13
2.24441 1.6790339 -0.34415907 8
2.2107389 1.6514388 -0.24142142 3
2.2122064 1.6507314 -0.1446566 6
2.1628609 1.6121479 -0.047086593 6
2.1425476 1.6092552 0.04677245 4
3.048213 2.2869999 0.19971403 32
3.0084939 2.2547393 0.32892576 32
3.0467224 2.2800698 0.4672471 11
3.2339327 2.4175317 0.63950419 25
3.8524373 2.8767498 0.93458253 28
3.9556141 2.9494998 1.1391522 13
4.0979376 3.052283 1.3691529 31
1.7448193 1.2925128 -0.58182526 12
1.9064405 1.4106919 -0.54753089 29
2.0495288 1.5143601 -0.4953402 10
2.2362218 1.6504934 -0.44020665 14
2.246491 1.6562549 -0.34269661 6
2.1997514 1.6194278 -0.23898104 3
2.2043686 1.6210481 -0.14340053 5
3.674473 2.6991701 -0.079582974 32
3.124516 2.3128643 0.067854956 27
3.0592871 2.2621014 0.19940001 16
3.0097382 2.2230277 0.32735696 21
3.0689566 2.2634573 0.46822205 12
3.236418 2.3843508 0.63668835 28
4.2772193 3.1476815 1.0322767 13
3.8426311 2.8237243 1.1009105 29
3.6908801 2.7092369 1.2268023 51
1.7506797 1.2780221 -0.58078998 12
1.9083697 1.3916069 -0.54528135 35
2.0695741 1.5069475 -0.49762988 9
2.2397022 1.6290315 -0.43864229 7
2.2355151 1.624197 -0.33928427 6
2.2236235 1.6137792 -0.24037553 3
3.3315353 2.4142873 -0.21562417 31
3.7434433 2.7097995 -0.080665022 10
3.8481867 2.8071773 0.083143272 15
3.5253587 2.5688539 0.22860347 6
3.1411648 2.2863832 0.33990738 14
3.0702317 2.231473 0.46602839 16
3.2721672 2.3756244 0.64044279 33
3.8509042 2.7927151 0.92466044 39
4.0716572 2.9495556 1.1607475 13
3.8224025 2.7649262 1.2640723 13
1.7611268 1.2668977 -0.58130759 12
1.9164554 1.3771139 -0.54483151 34
2.0718086 1.4871025 -0.49572179 10
2.2523437 1.6149007 -0.43895519 9
2.5792999 1.8465974 -0.38949445 8
2.9219785 2.0896182 -0.31428361 4
3.3641422 2.4031651 -0.21667089 36
3.6401701 2.5965087 -0.078047164 14
3.3087182 2.3793066 0.071136013 8
3.1356056 2.2523313 0.20233083 31
3.2444775 2.3271029 0.34932023 13
3.1143959 2.2313333 0.47041571 14
3.2721982 2.3418002 0.63731414 36
4.0396214 2.8867595 0.96511191 31
nan nan nan nan
3.768779 2.6872525 1.240261 45
1.7618307 1.2492927 -0.57871938 14
1.9210145 1.3606571 -0.54348177 32
2.0773311 1.4692013 -0.49457693 10
2.2893767 1.6173738 -0.44396105 10
2.5982964 1.8335775 -0.39046943 8
2.9462678 2.0760539 -0.31532949 9
3.3759377 2.3761716 -0.21635687 17
3.8736913 2.7234864 -0.082654595 12
3.5438852 2.51107 0.075813256 17
3.1626642 2.2384641 0.20306353 38
3.351346 2.3693762 0.35908166 40
3.0893548 2.1809154 0.46432224 25
3.2820094 2.3143451 0.63606256 21
4.0302882 2.8388438 0.95824283 19
9.5701962 6.731039 2.7012124 2
3.9565861 2.7797043 1.2956481 7
1.7689253 1.2358569 -0.57820177 12
1.9368584 1.3516746 -0.54528135 41
2.0827062 1.4512949 -0.4934321 10
2.289264 1.5934509 -0.44177097 10
2.607775 1.8131255 -0.38998193 8
2.9672351 2.0599806 -0.31602672 9
3.3924432 2.3525467 -0.21635687 21
3.6657598 2.5392416 -0.077837728 22
3.4219584 2.3889689 0.072846346 15
3.1864054 2.2220421 0.20358689 8
3.2762537 2.2821491 0.34932023 16
3.1159129 2.1672289 0.46602839 41
3.3045762 2.2958846 0.63731414 25
4.2193642 2.9281678 0.99831271 15
4.054049 2.8092508 1.1387023 26
4.137918 2.864162 1.3484472 12
1.787058 1.2300493 -0.58130759 16
1.9317955 1.3281834 -0.54123229 16
2.0992615 1.441164 -0.49495855 10
2.2987032 1.5763127 -0.44145811 9
2.6072676 1.7859013 -0.38803205 8
2.9848342 2.0414634 -0.31637534 9
3.4137328 2.3321843 -0.21667089 7
4.1112018 2.8055227 -0.086878076 9
3.7581887 2.5848646 0.07961788 15
5.5558939 3.8170345 0.35326776 2
3.2329662 2.2186358 0.343045 23
3.1489792 2.1577673 0.46870953 28
3.3270431 2.2772229 0.6385656 25
nan nan nan nan
3.9673376 2.7083638 1.1090088 63
9.7169924 6.6259975 3.1513808 1
1.7844094 1.209954 -0.57768416 12
1.918432 1.2993649 -0.53493363 16
2.1190283 1.4330732 -0.49724829 10
2.3161991 1.5646504 -0.44270959 9
2.61638 1.7654361 -0.38754454 8
2.9824901 2.009443 -0.31463224 7
3.4365592 2.3127556 -0.21708956 7
3.6494102 2.4532261 -0.076755688 13
3.55762 2.410502 0.075010449 2
3.3974121 2.299355 0.21499613 12
3.2731369 2.2127481 0.34565967 32
3.1935821 2.1557219 0.47309685 25
3.3395846 2.2517316 0.63793981 21
20.677137 13.925921 4.8457856 8
4.0734711 2.7393253 1.1333034 22
4.1598635 2.794261 1.3427533 16
1.7912059 1.1963948 -0.5771665 12
1.9274559 1.285941 -0.53493363 9
2.1208122 1.4128025 -0.4953402 10
2.3270659 1.5484424 -0.44270959 10
2.6154153 1.7383366 -0.38559461 9
2.5379689 1.6849465 -0.26652226 7
3.4659381 2.2975371 -0.21792693 1
3.6631124 2.4254825 -0.076685868 16
3.4595962 2.3090096 0.072602011 11
3.4349842 2.2899842 0.21635687 8
3.3100624 2.2042007 0.34792572 25
3.2350039 2.1509583 0.47699666 23
3.3815522 2.2458463 0.64294571 13
20.760771 13.772536 4.8427324 8
4.041666 2.6781633 1.1193565 16
4.2050476 2.7822073 1.3510355 19
1.7946734 1.1806746 -0.57561362 12
1.9363871 1.2724525 -0.53493363 10
2.1238143 1.3940245 -0.49381369 10
2.3408558 1.5347328 -0.44333532 9
2.6208444 1.7156864 -0.38461968 8
3.0032423 1.9637684 -0.31393498 9
3.4614315 2.2607844 -0.21667089 7
3.745281 2.4424508 -0.078047164 13
5.6138363 3.6918142 0.11728017 11
3.8093956 2.5023081 0.23886132 28
3.3570244 2.2017999 0.35123762 23
3.2495692 2.12889 0.47699666 32
3.4529595 2.2595544 0.65358323 16
20.918865 13.668078 4.857234 8
3.9541867 2.5806546 1.0901129 17
4.172101 2.7197602 1.334471 16
1.7848359 1.1568738 -0.56991959 12
1.9433672 1.2581844 -0.53448373 11
2.1351435 1.3802295 -0.49419534 10
2.3481941 1.5162101 -0.44270959 9
2.6491439 1.7085663 -0.38705707 8
3.0068271 1.9362832 -0.3128891 7
3.5275228 2.2689798 -0.21981104 7
4.1487689 2.6655087 -0.086075269 20
3.6958702 2.3937113 0.076860398 8
3.8217428 2.4723961 0.23854731 13
3.3920147 2.1918745 0.35332939 26
3.3877871 2.1857915 0.49503332 16
3.4437435 2.2193418 0.64889026 19
7.0142598 4.5151868 1.6214949 1
6.9425802 4.462194 1.9053355 4
6.8262048 4.3823481 2.1735625 8
1.7961257 1.1464639 -0.57095486 12
1.9521036 1.2445865 -0.53448373 9
2.1513519 1.3695067 -0.49572179 10
2.3453867 1.4913003 -0.44020665 9
2.6576562 1.6879015 -0.38656959 8
3.0337324 1.9237803 -0.31428361 9
2.6237123 1.6618488 -0.16276483 18
4.1300983 2.6129589 -0.08530736 11
5.5771666 3.5571532 0.11546512 14
3.8321724 2.4413629 0.23812862 4
3.4391718 2.188463 0.35664126 23
3.359401 2.134409 0.48869613 17
3.5125253 2.2291169 0.65890205 16
6.9991817 4.4366779 1.6108096 4
6.9356909 4.389648 1.8949879 12
4.1606808 2.6302743 1.318942 3
1.8040862 1.1338959 -0.57095486 12
1.9508427 1.2247101 -0.5317843 10
2.1558692 1.3513271 -0.49457693 10
2.3641114 1.4801325 -0.44177097 9
2.659276 1.6629927 -0.38510716 8
3.043709 1.9004436 -0.31393498 7
2.6047459 1.624467 -0.16088074 9
3.7239108 2.3197348 -0.076581158 22
5.5764637 3.502178 0.11494155 13
5.6679387 3.5554905 0.35065094 15
3.5556674 2.2278721 0.3671 6
3.4566822 2.162492 0.50063932 8
3.5481043 2.2171016 0.66265643 21
6.996676 4.3669162 1.6031773 4
4.6226106 2.8806815 1.2574764 3
6.8309627 4.2519011 2.1559627 12
1.8168865 1.124323 -0.57250774 12
1.9593452 1.2110609 -0.5317843 9
2.1602395 1.3331492 -0.4934321 10
2.3844774 1.4698099 -0.44364822 7
2.6640604 1.6402227 -0.38413221 8
3.0569017 1.8791496 -0.31393498 9
3.564054 2.1883378 -0.21918301 7
4.1627684 2.5529497 -0.085237555 11
5.6432958 3.4894559 0.11581416 9
5.7368026 3.5431242 0.35337242 18
5.7399268 3.5409033 0.59004438 35
5.8464432 3.600976 0.8430922 27
5.7204375 3.5192363 1.0637544 9
6.9901934 4.295352 1.5947818 5
4.6326423 2.8422246 1.2547771 15
6.8440094 4.194015 2.1507864 12
1.8114926 1.1035717 -0.56836665 12
1.9727461 1.2003924 -0.53313404 10
2.1611047 1.3129386 -0.49152401 10
2.3913028 1.4510777 -0.44302243 7
2.6788414 1.623642 -0.38461968 8
3.0597196 1.8515722 -0.3128891 7
3.6202681 2.1881964 -0.22169513 7
4.1650839 2.5145226 -0.084923409 3
5.6196923 3.4208596 0.11483683 14
7.2034545 4.3797717 0.44182017 8
5.9467235 3.6114032 0.60869569 26
5.6015458 3.3964295 0.80433774 28
5.643486 3.4178193 1.0449823 26
6.9763322 4.2200298 1.5848596 4
6.895987 4.1648512 1.8598955 10
6.8416929 4.1271729 2.1409512 9
1.8108689 1.0859305 -0.56577843 11
1.9927808 1.1936002 -0.53628331 8
2.1769571 1.3018508 -0.49305046 12
2.3878074 1.4262453 -0.44051951 7
2.6832917 1.6008337 -0.38364473 8
3.0588772 1.8220094 -0.31149462 6
3.5942616 2.1383605 -0.21918301 8
2.6697412 1.5864367 -0.054207176 4
5.494205 3.29212 0.11180011 13
5.9502382 3.561142 0.3634209 23
5.8469524 3.4951701 0.59597093 16
5.7171679 3.4121766 0.81749964 13
5.6332736 3.3581073 1.038725 19
6.9701982 4.1501303 1.5768455 6
6.9433188 4.1275635 1.8648443 6
6.9251533 4.1118593 2.1580334 9
1.823397 1.0762076 -0.56733137 13
1.9909928 1.1737211 -0.53358394 10
2.1876848 1.287617 -0.4934321 12
2.3925974 1.4065373 -0.43958092 9
2.7012494 1.5860822 -0.38461968 8
3.0818348 1.8066572 -0.3125405 7
3.6366785 2.1293643 -0.22085775 5
4.2239513 2.4702582 -0.085412078 3
5.5670042 3.2831445 0.11281236 6
7.1227908 4.1956463 0.43323711 11
5.8265615 3.4280002 0.59143883 33
5.6723862 3.3319609 0.80775005 18
5.8235536 3.4166565 1.0693861 17
7.0549011 4.13412 1.5894389 4
7.0123343 4.1026073 1.8756419 21
nan nan nan nan
1.8325363 1.0644219 -0.56784898 12
1.9923959 1.155881 -0.5317843 11
2.2017169 1.2752644 -0.49457693 12
2.4160376 1.3977129 -0.44208387 10
2.7053814 1.5632128 -0.38364473 4
3.0805662 1.7771331 -0.31114599 7
3.6341503 2.0939524 -0.21981104 7
4.2254958 2.4317327 -0.085097939 20
5.5482812 3.220109 0.11197464 11
7.0672398 4.0967364 0.42810816 5
5.8400059 3.3812499 0.59039295 34
5.9120541 3.4174559 0.8384611 31
5.7446194 3.316659 1.050614 24
nan nan nan nan
nan nan nan nan
7.013711 4.0330615 2.1678684 100
1.8382456 1.0506439 -0.56733137 12
2.000417 1.1419433 -0.5317843 11
2.1986268 1.2530577 -0.4919056 12
2.4154363 1.3749485 -0.44020665 9
2.7127774 1.5423251 -0.38315722 8
3.0998285 1.7595173 -0.31184325 7
3.6486804 2.0685303 -0.21981104 8
4.2371492 2.3992181 -0.084993221 5
5.5306873 3.1584876 0.11117183 11
7.1321001 4.0680785 0.43030626 11
5.8288455 3.3206716 0.58690673 24
5.7528639 3.2720678 0.81262481 12
5.769351 3.2774487 1.0509269 13
7.1546226 4.0594392 1.5989794 69
7.0706277 4.0052595 1.8760918 100
nan nan nan nan
1.8337487 1.0311568 -0.56370795 12
2.0117385 1.1298585 -0.53268409 10
2.2004716 1.2338372 -0.49037915 11
2.4353175 1.3638433 -0.44208387 9
2.7200136 1.5214107 -0.38266978 8
3.1015997 1.7320054 -0.31079736 6
3.6421018 2.0313313 -0.21855497 7
4.246809 2.365684 -0.084853604 16
5.570035 3.1295969 0.11152088 13
7.071497 3.9683433 0.42496803 8
5.8570991 3.2828228 0.5874297 17
5.8933649 3.2977414 0.82919908 23
5.8093352 3.2467282 1.0540556 17
7.1605029 3.9969518 1.5940183 50
nan nan nan nan
nan nan nan nan
1.8341403 1.01459 -0.56163734 11
2.0178714 1.114845 -0.53223425 11
2.2159078 1.2222377 -0.4919056 9
2.4309378 1.3391831 -0.43958092 9
2.742743 1.5090828 -0.38437593 9
3.1028404 1.705096 -0.30975151 6
3.6666994 2.0116205 -0.21918301 7
4.2947865 2.3532765 -0.08548189 5
5.5234933 3.052906 0.11015959 11
7.0780482 3.9072921 0.42371196 8
nan nan nan nan
5.8953738 3.2450335 0.82627422 8
5.8370514 3.20895 1.0549942 22
7.1469288 3.9241908 1.5848596 64
nan nan nan nan
10.24674 5.6099281 3.1301577 1
1.8411789 1.0017606 -0.56163734 11
2.0153317 1.0951476 -0.52953482 10
2.2189989 1.2043177 -0.49076074 9
2.4261031 1.3150755 -0.43707794 9
2.7497191 1.4880099 -0.38388845 9
3.107657 1.6796048 -0.30905426 6
3.6697612 1.9809251 -0.21855497 7
4.2688622 2.3004682 -0.084644176 7
5.5125246 2.9980435 0.10953131 11
7.1606402 3.8895321 0.42706147 17
7.0653243 3.8313687 0.70317256 1
5.9120903 3.2019908 0.82554299 3
5.9577961 3.222712 1.0728277 14
7.1240559 3.8471434 1.5737926 70
10.044072 5.4172244 2.6346271 2
10.247271 5.5198946 3.1187694 1
1.8496581 0.9901166 -0.56215501 12
2.0124278 1.0758916 -0.52683538 11
2.2221575 1.1860228 -0.48961592 9
2.4387119 1.2999634 -0.43770367 9
2.7387581 1.4580631 -0.38096359 9
3.129863 1.6634787 -0.31010011 4
3.6870294 1.9571298 -0.21876432 7
4.2632208 2.260118 -0.084225312 26
5.5262666 2.955713 0.10939168 11
7.1664796 3.8281538 0.42580539 28
7.0578384 3.765372 0.69986063 2
7.0311012 3.7448051 0.97812337 2
6.9846878 3.7153916 1.2530402 10
7.1310053 3.788434 1.569595 57
10.212487 5.4163651 2.6688194 2
10.232635 5.4201884 3.1027229 1
1.865073 0.98167843 -0.56474322 12
2.0181651 1.0609093 -0.52638549 14
2.2182136 1.1640952 -0.48694456 9
2.454726 1.2865756 -0.43895519 9
2.7594223 1.4444323 -0.38242605 9
3.1343374 1.637895 -0.30940288 7
3.6935213 1.9276438 -0.21834564 7
4.2629361 2.2219813 -0.083911166 21
5.5025196 2.893791 0.10851907 14
7.1329122 3.7464528 0.42224655 25
7.0521965 3.6993444 0.69672298 1
7.0289369 3.6808929 0.97422361 3
6.9754472 3.6482291 1.2467828 12
7.127696 3.7231054 1.5631074 67
10.163655 5.2998848 2.6463244 2
10.510104 5.4735451 3.1751921 1
1.8530076 0.95886755 -0.55904913 12
2.0255225 1.0467941 -0.52638549 11
2.2227972 1.1467804 -0.48618135 11
2.4636481 1.269407 -0.43895519 9
2.7659085 1.423316 -0.38193855 9
3.1563292 1.6214359 -0.31044877 9
3.6997805 1.8981642 -0.21792693 7
4.2765651 2.1912544 -0.083876267 12
5.5527859 2.8709185 0.10911245 11
7.116302 3.6745718 0.41973442 23
7.0619121 3.6418052 0.69515419 2
7.012105 3.6099253 0.96837389 3
6.9585843 3.5777645 1.239274 10
7.1168408 3.654418 1.5550934 73
10.349545 5.3052549 2.6850159 2
10.658113 5.4563847 3.2083211 1
1.8596562 0.94590861 -0.55904913 12
2.0345185 1.0335102 -0.52683538 9
2.2307489 1.1312344 -0.48618135 10
2.4601142 1.245929 -0.43676507 10
2.7757778 1.4039716 -0.38193855 9
3.1497858 1.5903822 -0.30870563 7
3.7200747 1.8758876 -0.21834564 7
4.3328352 2.182034 -0.084679075 17
5.3159857 2.701622 0.10408615 6
7.1204095 3.6139534 0.41847834 19
7.0445137 3.5707958 0.69097072 2
7.0087981 3.5465398 0.96447408 3
6.9516592 3.5130563 1.2336423 10
7.1071262 3.5869524 1.547461 76
10.271467 5.1750016 2.6553226 2
nan nan nan nan
1.866215 0.9329018 -0.55904913 12
2.0294795 1.0131884 -0.52368605 9
2.2421057 1.1173857 -0.48694456 12
2.4616783 1.2252042 -0.43551362 10
2.7819571 1.3827904 -0.38145107 9
3.1572425 1.5665828 -0.308357 7
3.7187634 1.8427763 -0.21750826 7
4.3318329 2.1437495 -0.084364928 21
5.5350819 2.7645166 0.10799549 11
7.1061463 3.544543 0.41617554 11
7.0407372 3.5073147 0.68818176 3
7.0013905 3.4816163 0.96008676 3
6.9370909 3.4451125 1.2267592 5
7.0968165 3.5198052 1.5398288 65
10.670602 5.2830091 2.7489021 2
nan nan nan nan
1.8692145 0.91814709 -0.55801392 12
2.0277555 0.99470407 -0.52143657 10
2.2498524 1.1017046 -0.48694456 13
2.4754961 1.2105908 -0.43645221 9
2.7808402 1.3581095 -0.37998864 9
3.1788478 1.5497414 -0.30940288 4
3.7171721 1.8097754 -0.21667089 7
4.3682752 2.1239462 -0.084783792 18
5.5686073 2.7328579 0.10827474 11
7.1145768 3.4869392 0.41523352 22
7.0417852 3.446692 0.68591571 6
6.9916382 3.4160945 0.95545572 3
6.9343438 3.3836045 1.2220662 12
7.0947433 3.4572737 1.5341043 60
20.552259 9.9973831 5.2764525 9
nan nan nan nan
1.882538 0.90843439 -0.5600844 11
2.038161 0.9822163 -0.52233636 11
2.2397971 1.0774601 -0.4831284 12
2.489229 1.1958454 -0.43739083 10
2.7866743 1.3369452 -0.37950116 9
3.1824017 1.5240687 -0.30870563 6
3.7261126 1.7820572 -0.21646154 7
4.3739738 2.0890911 -0.084609263 12
5.4884806 2.6461508 0.10635497 9
7.1189513 3.427654 0.41408211 30
7.0459266 3.3879466 0.68399829 10
6.9956307 3.3577518 0.95277458 2
6.9382024 3.3257194 1.2186246 10
7.090374 3.3940961 1.5279986 67
20.772766 9.9259119 5.3151436 9
nan nan nan nan
1.8748684 0.88865024 -0.55594331 11
2.0449686 0.9679634 -0.52233636 10
2.2419388 1.0592819 -0.48198354 10
2.488584 1.1742233 -0.43582645 9
2.7995315 1.3191502 -0.37998864 9
3.1785407 1.4950304 -0.30731115 4
3.7565403 1.7644917 -0.21750826 7
4.384831 2.0568058 -0.084539458 17
5.4887486 2.5992081 0.10600592 14
7.079515 3.3479824 0.41041863 16
7.0369782 3.323359 0.68086064 11
7.0009446 3.30037 0.95033723 2
6.9272923 3.2612171 1.2126801 12
7.0907993 3.3336544 1.5230374 73
21.028559 9.8684063 5.3628335 10
nan nan nan nan
1.8792754 0.87472433 -0.5554257 10
2.0516768 0.95366222 -0.52233636 10
2.2510602 1.0444307 -0.48236516 10
2.4967206 1.1568222 -0.43582645 9
2.808672 1.299575 -0.37998864 11
3.1889007 1.4728035 -0.30731115 6
3.7651403 1.7365503 -0.21729892 7
4.3972669 2.0253072 -0.084504552 8
5.4958801 2.5557694 0.10579649 13
7.119019 3.3060477 0.41136068 35
7.0256662 3.2582242 0.67754871 12
6.9769788 3.2297287 0.94400001 2
6.9194107 3.1986818 1.2073613 10
7.0800328 3.2684355 1.5157868 83
21.273922 9.8029232 5.4078236 10
nan nan nan nan
1.8853368 0.86158228 -0.5554257 10
2.0529664 0.93688852 -0.52098668 10
2.258297 1.02869 -0.48236516 11
2.5065341 1.1401817 -0.43613935 10
2.8212917 1.2815758 -0.38047612 9
3.1954751 1.4488609 -0.30696252 9
3.7407818 1.6937479 -0.21520546 7
4.3985434 1.9887941 -0.084260218 10
5.4280925 2.4783039 0.10415597 8
7.07832 3.2272706 0.40769714 24
7.0355468 3.2033205 0.67632854 13
6.9451399 3.1563022 0.93668783 2
6.9199872 3.140501 1.2036068 10
7.0526085 3.1962364 1.5051014 77
nan nan nan nan
nan nan nan nan
1.8930678 0.84919071 -0.55594331 11
2.0505641 0.91855085 -0.51873714 10
2.265424 1.012898 -0.48236516 11
2.5036111 1.1178217 -0.4342621 10
2.828357 1.2610399 -0.38023239 8
3.2055123 1.4265169 -0.30696252 7
3.7561655 1.6692131 -0.21541482 7
4.3940434 1.9499247 -0.083911166 1
5.3558459 2.4002755 0.10244562 19
7.0806251 3.1688013 0.40654576 27
7.0377302 3.1451831 0.67441112 16
6.959753 3.1045077 0.93571293 1
6.9020443 3.0744343 1.1967238 3
nan nan nan nan
nan nan nan nan
6.9247465 3.070071 2.029659 41
1.9024867 0.83751076 -0.55697864 12
2.0569267 0.90421283 -0.51873714 10
2.2634506 0.99311471 -0.48045707 11
2.5077345 1.0987316 -0.43363637 10
2.8189044 1.233308 -0.37779501 8
3.2263494 1.408886 -0.3080084 7
3.7677281 1.6429478 -0.21541482 5
4.314045 1.8784859 -0.082131028 3
5.3468451 2.351558 0.10195696 13
7.0586848 3.1000209 0.40403363 19
7.0321479 3.0839672 0.67179644 11
nan nan nan nan
4.2951856 1.8774145 0.74243808 7
nan nan nan nan
nan nan nan nan
6.9123516 3.0070136 2.019824 40
1.8994193 0.82037944 -0.55439043 12
2.0596104 0.88828725 -0.51783735 10
2.2613122 0.97340733 -0.478549 10
2.5244184 1.085098 -0.43520072 10
2.8383908 1.2182961 -0.37925744 8
3.214129 1.3769143 -0.30591667 9
3.7772696 1.6158203 -0.21531016 5
4.4208398 1.8883858 -0.083911166 1
5.4127059 2.3355608 0.10289939 11
nan nan nan nan
4.3594837 1.8756872 0.41520998 2
4.3138118 1.8524688 0.576442 1
6.8898325 2.954411 1.1873378 10
nan nan nan nan
4.2039356 1.7966017 1.0554705 1
nan nan nan nan
1.8962064 0.80333102 -0.55180228 12
2.078325 0.87920153 -0.52098668 11
2.2734787 0.95988768 -0.47969386 10
2.5282917 1.0659131 -0.43457499 10
2.8449974 1.1976805 -0.37901369 9
3.2236633 1.3544419 -0.30591667 7
3.7847741 1.5878651 -0.2151008 5
4.4339151 1.8574765 -0.083911166 1
4.4307613 1.8752731 0.083980985 1
7.0534492 2.9809446 0.40131214 2
7.0157804 2.9606967 0.66621852 16
4.3668871 1.8392593 0.58180428 1
nan nan nan nan
7.0522165 2.9615839 1.4867837 48
19.356506 8.1128893 4.8454461 8
nan nan nan nan
1.9053367 0.79155475 -0.55283749 12
2.0718122 0.85944378 -0.51783735 10
2.2764964 0.94249147 -0.47893062 11
2.5265434 1.0444641 -0.43301064 10
2.8532896 1.1777896 -0.37901369 9
3.2475443 1.3385415 -0.30731115 9
3.788379 1.5583645 -0.21468212 5
4.446775 1.8264766 -0.083911166 1
5.4281659 2.2528608 0.10258525 9
nan nan nan nan
nan nan nan nan
nan nan nan nan
6.8865824 2.8398514 1.1798289 12
7.0273366 2.8935907 1.4772433 76
19.375233 7.9661245 4.8364482 8
nan nan nan nan
1.9090271 0.77750504 -0.55231988 12
2.0723462 0.84275651 -0.51648766 10
2.2955923 0.93214321 -0.48160195 10
2.5464091 1.0324366 -0.43520072 9
2.8504016 1.1533735 -0.37755126 9
3.2420318 1.309866 -0.30591667 9
3.7729681 1.5220808 -0.21321672 5
4.3425531 1.7483374 -0.081712164 5
nan nan nan nan
4.3184962 1.7553153 0.24430427 1
4.227952 1.7150764 0.39917332 3
4.1158462 1.6670916 0.54524344 1
6.8801141 2.7825446 1.1754488 10
7.0309806 2.8378468 1.4738088 85
19.405071 7.8204679 4.8301492 8
nan nan nan nan
1.9196573 0.76664305 -0.55387276 12
2.0780342 0.82863194 -0.51648766 10
2.2929232 0.91246587 -0.47969386 10
2.5351968 1.0073411 -0.43207204 10
2.850805 1.1310178 -0.3765763 9
3.2508719 1.2877693 -0.30591667 9
3.7835023 1.4957035 -0.21321672 5
4.3394728 1.7128645 -0.081432931 8
4.3164501 1.7220881 0.081118785 1
nan nan nan nan
4.2543397 1.6921467 0.40056777 1
4.1273851 1.638315 0.54524344 1
6.8552999 2.7169733 1.1679399 10
7.0245776 2.779809 1.4684662 83
19.526724 7.7154126 4.8472457 8
nan nan nan nan
1.9123697 0.74829406 -0.55024934 10
2.0801387 0.81268507 -0.51558787 10
2.2881072 0.89255536 -0.47740412 10
2.5493581 0.99292773 -0.43332353 9
2.8623321 1.1125262 -0.37706378 9
3.2486382 1.2607175 -0.30487078 8
3.7935956 1.4699153 -0.21321672 7
4.3308077 1.6745965 -0.081048973 7
4.3019981 1.6824721 0.080630124 1
nan nan nan nan
4.2511973 1.6566193 0.39917332 2
4.1014404 1.5957887 0.54036868 1
6.8552208 2.6630981 1.1648113 8
7.0218472 2.7221847 1.4638867 79
19.66371 7.6112609 4.8679414 8
nan nan nan nan
1.9103312 0.73216039 -0.54817873 12
2.0912213 0.80023354 -0.51693755 10
2.3017721 0.87896061 -0.47893062 10
2.5434775 0.96973342 -0.43113342 7
2.8793058 1.0960459 -0.37828246 5
3.2499115 1.2351742 -0.30417353 8
3.8077505 1.4441495 -0.21342604 7
4.3405228 1.6436129 -0.081014074 7
4.2597699 1.6309097 0.07961788 2
4.205061 1.6074398 0.23593052 1
4.1621418 1.5885364 0.38976046 1
4.1313062 1.5734642 0.54280609 7
6.8519454 2.6055496 1.1610568 10
7.0186539 2.6647377 1.4593072 77
18.032639 6.8355632 4.4522319 7
nan nan nan nan
1.9226309 0.72152096 -0.55024934 12
2.0858078 0.78151208 -0.51423812 10
2.298507 0.85983431 -0.4770225 7
2.5444674 0.95032579 -0.43019485 9
2.8720062 1.0703733 -0.37633255 5
3.2621896 1.2138467 -0.30452216 8
3.8137484 1.4168065 -0.21321672 3
4.3425179 1.6097928 -0.080839552 7
4.237071 1.5892358 0.078989588 1
4.2215166 1.5808809 0.23624454 3
4.1824627 1.5629276 0.39063203 7
4.1251817 1.5390617 0.54061246 26
6.8510118 2.5519509 1.1579281 10
7.0076423 2.6047289 1.4532013 77
17.926451 6.6525517 4.4144397 6
nan nan nan nan
1.9329375 0.71041662 -0.55180228 12
2.0855908 0.76528251 -0.51288843 11
2.3099847 0.84579182 -0.47816736 10
2.5473292 0.93118244 -0.42956907 9
2.8794088 1.0502969 -0.37633255 5
3.2630959 1.1883156 -0.3038249 8
3.8216696 1.3894645 -0.21311203 7
4.3574095 1.580801 -0.080909356 10
4.2480626 1.5596167 0.078989588 2
4.2043214 1.5410601 0.23467445 3
4.2098432 1.5405844 0.39220083 2
nan nan nan nan
6.8463888 2.4959438 1.1541736 10
7.007206 2.5490315 1.4493852 83
17.8186 6.4713612 4.3766479 6
10.206779 3.7008464 2.9091263 2
1.9361533 0.69591415 -0.55128461 13
2.1001844 0.75363076 -0.51513797 10
2.3102877 0.82765913 -0.4770225 9
2.565088 0.91691983 -0.43144631 9
2.8829319 1.0288348 -0.37584507 5
3.2825732 1.169518 -0.30487078 6
3.818341 1.3573986 -0.21237932 5
4.3457246 1.5423181 -0.080490492 7
4.3284798 1.5549359 0.080281071 6
4.2453232 1.521718 0.23634921 1
4.2207594 1.5104201 0.39220083 1
4.1761785 1.4920005 0.54451227 1
6.8436079 2.4395888 1.150732 12
7.0044866 2.492806 1.4451874 85
17.745823 6.3050423 4.3478541 6
10.243924 3.6315913 2.9122322 2
1.935497 0.68045712 -0.54973167 12
2.1072335 0.73959458 -0.51558787 10
2.3013282 0.80591488 -0.47396958 9
2.5602384 0.89507949 -0.42956907 9
2.8825469 1.0060679 -0.37487015 6
3.2720425 1.1394461 -0.30312768 8
3.8314974 1.3320202 -0.21258868 5
4.3469405 1.5086634 -0.080315977 3
4.3677964 1.5338606 0.080804639 2
4.3274651 1.5171527 0.24032672 1
4.2236795 1.4782841 0.39150357 1
4.1961184 1.4653505 0.54573095 3
6.811974 2.3748477 1.1425974 12
7.0031762 2.4373946 1.4413712 87
nan nan nan nan
nan nan nan nan
1.9310658 0.66378826 -0.54714346 12
2.1086593 0.72360027 -0.51468807 8
2.3031838 0.78855592 -0.47320631 9
2.5664251 0.8771826 -0.42956907 10
2.8913796 0.98655897 -0.37511387 9
3.2836893 1.117861 -0.30347627 8
3.8444848 1.3065259 -0.21279801 5
4.3895593 1.4892008 -0.080909356 1
4.3462453 1.4922928 0.080211259 1
4.3417296 1.4882017 0.24053608 1
4.2678275 1.4603739 0.39464122 3
4.2325473 1.4449995 0.54914331 7
6.8470855 2.3336058 1.1457262 1
nan nan nan nan
nan nan nan nan
9.8618317 3.3418846 2.7900696 4
1.937484 0.65090692 -0.54766113 12
2.1044211 0.70576429 -0.51243854 9
2.3179417 0.77557212 -0.47511441 9
2.564992 0.85674101 -0.42831761 9
2.9057293 0.96886092 -0.37608883 9
3.2987845 1.0979991 -0.30417353 8
3.8478267 1.2777644 -0.21248402 5
4.4681811 1.4811715 -0.082165927 1
4.4361811 1.488633 0.081677265 1
4.4201913 1.480693 0.24430427 1
4.3081517 1.4406532 0.39743021 3
4.2952571 1.4330082 0.55596799 2
6.8201036 2.2713943 1.1385301 10
nan nan nan nan
4.2724419 1.4179404 1.039274 1
nan nan nan nan
1.945652 0.63856965 -0.5486964 12
2.1000378 0.6880219 -0.51018906 10
2.3287649 0.76160842 -0.47625926 8
2.5707638 0.83926296 -0.42831761 9
2.9048722 0.94609249 -0.37511387 9
3.2987905 1.0724783 -0.30347627 8
3.8355377 1.2447617 -0.2113326 5
4.4593887 1.4437821 -0.081816882 1
4.5108142 1.4795928 0.082864024 1
6.9470487 2.2746747 0.38309923 2
4.3503017 1.4210567 0.40039349 3
4.2501807 1.3858893 0.54889959 12
nan nan nan nan
nan nan nan nan
17.559021 5.691731 4.2614727 6
10.087098 3.2638779 2.8407981 2
1.9554722 0.62708098 -0.55024934 12
2.1065283 0.6743055 -0.51063895 10
2.3246741 0.74234593 -0.47435117 9
2.5727968 0.82009423 -0.42769188 9
2.9036782 0.92389017 -0.37413892 9
3.317591 1.0530405 -0.30452216 8
3.8555582 1.2215756 -0.21196064 5
4.4233532 1.3989251 -0.080979168 1
5.2009029 1.6658242 0.095325045 1
