# .PCD v0.7 - Point Cloud Data file format
VERSION 0.7
FIELDS x y z intensity
SIZE 4 4 4 4
TYPE F F F F
COUNT 1 1 1 1
WIDTH 1385
HEIGHT 1
VIEWPOINT 0 0 0 1 0 0 0
POINTS 1385
DATA ascii
1.691355 -2.3339415 -0.3539086 7
1.6644006 -2.3001246 -0.24839386 4
1.649711 -2.2823391 -0.14758742 5
1.6634033 -2.3038218 -0.049599741 2
2.2659788 -3.1142781 0.067226671 6
2.5163994 -3.4622555 0.22431193 41
3.2833493 -4.5224614 0.4889437 4
2.68911 -3.7094047 0.56254894 13
2.4341886 -3.361464 0.65733767 13
2.1424973 -2.9619198 0.71057272 7
2.430402 -3.3648815 0.95829159 28
2.0933619 -2.9014504 0.95866579 11
1.4269201 -1.988698 -0.65584749 40
1.5337038 -2.1398866 -0.60781777 9
1.6727327 -2.3373101 -0.55868876 9
1.6485146 -2.3060203 -0.44896698 4
1.6646378 -2.3311529 -0.35171497 3
1.6598693 -2.3279102 -0.25013697 6
1.6406894 -2.3035614 -0.14821544 5
1.6229348 -2.2811608 -0.048866738 7
2.3898325 -3.3331642 0.071589775 8
2.3549411 -3.2881341 0.21196064 15
2.2698119 -3.1727788 0.34130189 27
2.6516097 -3.711935 0.56011152 15
2.4221358 -3.3944557 0.66046637 48
2.7496367 -3.8576963 0.92084426 2
2.0802882 -2.9229259 0.82826984 26
2.2476752 -3.1616175 1.0394174 8
1.4152323 -2.0017657 -0.65688276 33
1.5277205 -2.1632764 -0.611417 10
1.6801338 -2.3826241 -0.56670272 15
1.6551262 -2.349772 -0.45522434 3
1.6380421 -2.3281062 -0.34952128 5
1.6344143 -2.3263993 -0.24874248 3
1.6325985 -2.3264034 -0.14894815 8
1.6115614 -2.298985 -0.049006358 7
1.6038233 -2.2701979 0.048517693 6
1.6536539 -2.3433354 0.15030889 1
2.2499022 -3.1918044 0.34165049 18
2.1366098 -3.0355814 0.45579138 6
2.6369672 -3.7506328 0.72616887 10
2.3751154 -3.3819561 0.80330586 55
2.0710204 -2.9533329 0.83276886 12
2.0205054 -2.8845088 0.9436543 17
1.395702 -2.0036714 -0.65429455 42
1.518146 -2.1818871 -0.61366653 10
1.6634591 -2.3942957 -0.56670272 19
1.9033484 -2.7426431 -0.52874857 13
1.6160942 -2.3313274 -0.3483026 1
1.6003937 -2.3112619 -0.24595349 3
1.5992799 -2.313102 -0.14737807 5
1.5909268 -2.3035982 -0.048866738 7
1.5982168 -2.2961106 0.048831832 6
1.5756862 -2.2662711 0.1446566 6
nan nan nan nan
2.0497553 -2.9558113 0.44165453 23
2.5713503 -3.7121162 0.71521842 13
2.3492131 -3.395226 0.80254269 8
2.322325 -3.3601243 0.94299495 12
3.143671 -4.5553098 1.4830333 1
1.3838661 -2.016552 -0.65532982 29
1.5072839 -2.1988618 -0.61546612 10
1.6582153 -2.421762 -0.57051897 22
1.8757144 -2.742491 -0.52624559 8
2.1953588 -3.2146585 -0.47797161 19
1.5965697 -2.3404832 -0.24787092 1
1.5969938 -2.3437405 -0.14863414 5
1.5624325 -2.2964623 -0.048482787 5
1.5916004 -2.320128 0.049111072 7
1.5658684 -2.2851815 0.14517996 6
1.5548335 -2.2724783 0.24089848 7
1.5524336 -2.2715216 0.33782184 6
nan nan nan nan
nan nan nan nan
nan nan nan nan
3.487406 -5.1277113 1.6616182 16
1.3809302 -2.0419276 -0.66050619 27
1.4955544 -2.2139151 -0.61681581 10
1.6555395 -2.4544382 -0.57547992 8
1.8609378 -2.7620723 -0.52749711 8
2.1878347 -3.2509365 -0.4811402 16
2.3225036 -3.4562495 -0.36431101 45
2.3920381 -3.5637567 -0.22493997 45
1.5512191 -2.3136878 -0.048622403 6
1.5585694 -2.30633 0.048587501 6
1.5599338 -2.3109562 0.14612199 9
1.5571507 -2.3094404 0.24368747 7
1.5298859 -2.2724242 0.33635944 6
1.5355443 -2.2834086 0.43582645 6
nan nan nan nan
nan nan nan nan
2.2494042 -3.3575838 1.0828989 23
1.3741387 -2.062773 -0.66412973 29
1.4811417 -2.2259245 -0.61726576 11
1.6427101 -2.4724772 -0.57700646 10
1.8547171 -2.7947476 -0.53125149 8
2.1705697 -3.274404 -0.4823589 11
2.2939188 -3.4657335 -0.36361378 35
2.362694 -3.5737054 -0.22452128 24
3.045815 -4.6122108 -0.096476905 2
1.5368899 -2.3088315 0.048412975 6
1.5282805 -2.298506 0.1446566 3
1.5431948 -2.3235745 0.24403608 7
1.5205669 -2.2929757 0.33782184 8
1.526111 -2.3039544 0.43770367 6
1.5014635 -2.2693241 0.52892256 8
1.5210153 -2.3023663 0.63706142 1
2.225909 -3.3732054 1.0828989 34
1.360764 -2.073931 -0.66464734 28
1.4687704 -2.2411003 -0.61861545 7
1.6329339 -2.4953847 -0.57967776 10
1.841646 -2.8175485 -0.53312874 8
2.1726174 -3.327708 -0.4879649 13
2.3442826 -3.5947502 -0.37546691 74
2.4357724 -3.740747 -0.23394175 24
2.6025047 -4.0013876 -0.083317786 3
1.5295053 -2.3328831 0.048692215 3
1.5067258 -2.300765 0.14413324 6
1.5214823 -2.3259542 0.24316452 6
1.5034366 -2.3018732 0.33757812 6
1.5110686 -2.3162069 0.43801656 7
1.5016618 -2.3044236 0.53464681 6
1.4712902 -2.2604024 0.62266457 7
1.4653965 -2.2547894 0.72055227 6
1.3473009 -2.0850029 -0.66516501 7
1.4636569 -2.2676725 -0.62311447 7
1.6074005 -2.4932413 -0.57662481 10
1.830981 -2.8433053 -0.53563172 9
2.1589954 -3.3578222 -0.49015856 21
2.3094399 -3.5959413 -0.37389815 48
2.5655451 -3.9993172 -0.24901451 27
2.5604854 -3.9975688 -0.082864024 22
nan nan nan nan
nan nan nan nan
1.500891 -2.3298199 0.24246727 8
1.485585 -2.3087144 0.33709061 6
1.4920638 -2.3214533 0.43707794 5
1.4918996 -2.324765 0.53693652 8
1.4680935 -2.2903061 0.62806338 7
1.4448066 -2.2565765 0.71796405 4
1.3320401 -2.0924954 -0.66464734 27
1.4481875 -2.2775826 -0.62311447 6
1.6025825 -2.5242915 -0.58120424 11
1.8153177 -2.8626916 -0.53688318 8
2.1467116 -3.3892102 -0.49259594 12
2.2827792 -3.6082101 -0.37354952 41
2.2783663 -3.6068056 -0.22357923 22
2.4894664 -3.9455655 -0.081432931 24
2.2903323 -3.6006465 0.074486867 23
2.5491414 -4.0121589 0.24911918 19
2.0839081 -3.2837131 0.34025604 27
1.4704934 -2.3207066 0.33733436 6
1.4631437 -2.3117836 0.43332353 7
1.473943 -2.331547 0.53617334 5
1.463915 -2.3183713 0.63301229 9
1.4372599 -2.2796817 0.72210521 9
1.3163736 -2.100107 -0.66412973 27
1.4446614 -2.3074577 -0.62851328 10
1.5905678 -2.5434644 -0.58311236 10
1.7957904 -2.8749816 -0.53688318 8
2.1135442 -3.3889549 -0.49040228 19
2.2817628 -3.6629548 -0.37755868 30
2.2474318 -3.6120551 -0.2229512 43
2.5283408 -4.0698609 -0.083631933 17
2.1882629 -3.4924514 0.07193882 35
2.4412451 -3.9007468 0.24116412 13
2.0387607 -3.2626991 0.33659548 50
nan nan nan nan
1.4599146 -2.3418047 0.43707794 3
1.4410304 -2.3151121 0.53006744 7
1.4425496 -2.3202598 0.63076282 6
1.4247669 -2.2943356 0.72365808 6
1.3081372 -2.1188812 -0.66723549 11
1.4166473 -2.2973332 -0.62311447 13
1.5717432 -2.5528347 -0.58273071 11
1.7798145 -2.8941791 -0.53813463 9
2.0997782 -3.4184861 -0.49259594 12
2.2634265 -3.6906836 -0.37877885 20
2.2920594 -3.7417662 -0.22996421 24
2.5517185 -4.170558 -0.085342273 9
2.1732771 -3.5229604 0.072252966 41
2.7094119 -4.3972044 0.27068159 16
2.0102394 -3.26632 0.33554959 42
2.0307431 -3.3048022 0.47626543 20
2.1513455 -3.5051816 0.65139318 57
1.426265 -2.3265412 0.53044903 1
1.4120733 -2.3070047 0.62446415 10
1.4016609 -2.2926886 0.7200346 4
1.3063563 -2.1494234 -0.6739648 24
1.414732 -2.3304887 -0.62941307 7
1.5549004 -2.5654242 -0.58311236 11
1.7564975 -2.9014645 -0.53719604 4
2.0399113 -3.3736074 -0.48406506 17
2.2468736 -3.721746 -0.38034767 38
2.1823418 -3.6191373 -0.22148579 31
2.5369842 -4.2122521 -0.085830934 20
2.1465538 -3.5346279 0.072183155 42
2.1762714 -3.5877964 0.2199157 4
2.4292586 -4.009603 0.41015494 8
2.0363908 -3.366457 0.48309013 34
2.1084352 -3.4896822 0.64576155 24
2.10991 -3.496258 0.79376549 1
5.1402116 -8.5311213 2.2994497 4
1.3945864 -2.3173151 0.72469336 7
1.2903272 -2.1568334 -0.67344719 27
1.4044253 -2.3503458 -0.6321125 7
1.5419818 -2.5846472 -0.58502042 11
1.750355 -2.9374135 -0.54157621 6
2.0477831 -3.4406471 -0.49162099 12
2.2462811 -3.7801614 -0.38470542 26
2.2243021 -3.7476408 -0.22839414 31
2.4361343 -4.1094508 -0.083387598 21
2.1361895 -3.5735569 0.072671816 32
2.6221561 -4.3917336 0.2680648 29
2.4012074 -4.0264645 0.41015494 15
1.904174 -3.1980877 0.45701009 27
1.9184304 -3.2258728 0.59445107 4
nan nan nan nan
2.9403646 -4.9580503 1.3308105 1
1.9060948 -3.217901 1.0021474 3
1.2752382 -2.1657889 -0.67344719 13
1.3889706 -2.3617725 -0.6325624 11
1.5318526 -2.6088929 -0.58807337 10
1.7228106 -2.9376338 -0.53938609 12
2.035753 -3.4754133 -0.49454582 18
2.1755798 -3.720077 -0.37703574 42
2.2655783 -3.8786263 -0.23540714 35
2.3942859 -4.1039033 -0.082933836 43
nan nan nan nan
nan nan nan nan
2.3064766 -3.9297228 0.39865038 23
1.9058881 -3.2524076 0.46285981 24
2.2939942 -3.9194167 0.71928573 21
2.0212564 -3.4575803 0.7785008 20
2.0294571 -3.4771774 0.92949778 13
nan nan nan nan
1.2591183 -2.1729672 -0.67292953 23
1.3763531 -2.3781586 -0.63436204 19
1.5204773 -2.6314228 -0.59074467 11
1.7111464 -2.9649875 -0.54220194 16
2.0134232 -3.4929807 -0.49503332 30
2.1690958 -3.7676065 -0.38034767 46
2.2732816 -3.9549541 -0.23907068 18
2.2709937 -3.9557674 -0.07961788 14
2.6962819 -4.6569486 0.093928859 16
2.0756617 -3.5893617 0.21729892 46
2.3278148 -4.0302682 0.40719163 15
1.8553694 -3.2174838 0.45603511 37
1.7953175 -3.1171148 0.56973439 2
1.9872792 -3.4545894 0.77468461 6
1.7067251 -2.970485 0.79092801 17
nan nan nan nan
1.2496591 -2.1917739 -0.6760354 9
1.3529665 -2.3758554 -0.63121271 7
1.5005898 -2.6382983 -0.58998144 13
1.7016581 -2.9954598 -0.54564345 33
1.9870304 -3.5034981 -0.49454582 18
2.1456861 -3.7878585 -0.38087061 40
2.2561433 -3.9877195 -0.2401174 60
2.5383668 -4.493865 -0.090089321 22
2.3239057 -4.0775476 0.0819216 19
2.0650139 -3.6277072 0.21876432 28
2.2976525 -4.0429564 0.40684301 17
1.9333776 -3.4061277 0.48089647 40
1.8276409 -3.2237761 0.5869422 52
nan nan nan nan
1.6715606 -2.9568808 0.78417939 8
1.8569015 -3.2887549 1.0119824 11
1.2394384 -2.2086527 -0.67862362 19
1.3453386 -2.4003091 -0.63526183 5
1.4850103 -2.6538496 -0.59112626 12
1.6729946 -2.9934716 -0.54314053 16
1.9863579 -3.558543 -0.5003956 10
2.2307265 -4.0028906 -0.40091643 17
2.2340772 -4.013844 -0.24074543 38
2.5057764 -4.507544 -0.090019517 38
1.9736184 -3.519825 0.070437916 33
2.005481 -3.581044 0.2151008 34
2.6999755 -4.8270793 0.48388866 8
1.8205099 -3.2600906 0.45847249 6
1.7598667 -3.1553731 0.57223737 25
1.7464691 -3.1352096 0.69759774 22
1.9179724 -3.4487488 0.91105181 1
1.9671001 -3.5414505 1.0854871 37
1.2258562 -2.2206345 -0.67965883 25
1.3323123 -2.4164686 -0.63706142 9
1.4636072 -2.6589925 -0.58998144 11
1.6558626 -3.0120025 -0.54439199 17
1.968154 -3.5845039 -0.50210178 13
2.0925901 -3.8174477 -0.38087061 36
2.1810634 -3.9837935 -0.23802395 24
2.4550593 -4.4898362 -0.089321412 15
1.9692796 -3.5702882 0.071170911 7
nan nan nan nan
1.9650815 -3.571516 0.35664126 56
1.8378465 -3.3457956 0.46870953 1
2.0000319 -3.645577 0.65858912 34
1.6585008 -3.0268047 0.67088449 11
2.2632668 -4.1373692 1.0887631 14
1.8997215 -3.4771118 1.0616758 5
1.2094015 -2.2274406 -0.67914116 20
1.3219125 -2.4377029 -0.64021075 7
1.4506161 -2.6795044 -0.59227115 10
1.6592224 -3.0686677 -0.55252659 16
1.9572304 -3.6243565 -0.50575781 10
2.0741241 -3.8456316 -0.38226506 50
2.1143765 -3.9268227 -0.2337324 52
2.1622522 -4.0207801 -0.079687685 19
2.2380025 -4.1253209 0.0819216 37
2.5956311 -4.7905221 0.28554502 7
2.1951768 -4.0565085 0.40353107 13
1.8333145 -3.3934751 0.47358429 12
1.7212675 -3.1900678 0.57411456 12
1.6540936 -3.0694184 0.67775363 22
1.7058434 -3.1694205 0.83096927 12
1.8049929 -3.3592551 1.0218177 3
1.1992815 -2.2460542 -0.68224704 15
1.2938581 -2.4262378 -0.63481188 6
1.4378815 -2.699713 -0.59456086 10
1.6243811 -3.0537302 -0.54783356 16
1.9449142 -3.662477 -0.50917011 10
2.0500264 -3.8652985 -0.382788 44
2.1025567 -3.969363 -0.23540714 22
2.4024148 -4.5431223 -0.08970537 31
2.2108119 -4.1422229 0.081956498 33
2.2472901 -4.2158813 0.25037524 10
1.9243835 -3.6161931 0.3583844 40
2.1064351 -3.9632959 0.55109322 12
1.7532314 -3.3029087 0.59226096 57
1.6454949 -3.1051774 0.68309623 14
1.6918797 -3.1967533 0.83501834 28
nan nan nan nan
1.1884568 -2.262717 -0.68483526 16
1.2854608 -2.45052 -0.63886106 9
1.4235531 -2.7183816 -0.59646893 11
1.6057689 -3.0702477 -0.54877216 13
1.9107493 -3.6580355 -0.50673276 15
2.0874772 -4.00318 -0.39498982 61
2.1153865 -4.0618877 -0.24001274 24
2.1167598 -4.0697255 -0.080071643 28
2.0591817 -3.9238267 0.077349067 7
1.9906455 -3.7980609 0.22473061 12
1.8941805 -3.6186175 0.35733855 46
nan nan nan nan
1.7319579 -3.3185704 0.59288669 16
1.6542665 -3.1737576 0.69568962 10
1.7846603 -3.4297619 0.89260584 37
1.9856676 -3.8209424 1.1538154 8
1.174404 -2.2743919 -0.68587047 29
1.2629628 -2.4490423 -0.63616163 9
1.3991487 -2.7177804 -0.59417921 18
1.5897154 -3.091924 -0.5506494 13
1.8760971 -3.6536269 -0.50429535 12
2.1067395 -4.1098528 -0.40405402 20
2.0696847 -4.042778 -0.23802395 34
2.01547 -3.9419658 -0.077279255 26
2.4580731 -4.7644696 0.093579806 4
3.5393717 -6.8691697 0.40497568 2
1.8825468 -3.6583269 0.35995319 52
2.4998946 -4.8663568 0.67174387 8
1.7060425 -3.3253081 0.59194809 4
1.6150591 -3.1520314 0.68843889 10
1.5583376 -3.0465693 0.79002815 19
1.8112981 -3.5456891 1.0668522 5
1.1602458 -2.2859805 -0.68690574 22
1.2572885 -2.4803963 -0.64201033 11
1.3828002 -2.7327373 -0.5953241 10
1.5903651 -3.1470227 -0.55847108 16
1.8577001 -3.6808128 -0.50624532 15
1.9917296 -3.9515188 -0.38714582 36
2.0566721 -4.0874591 -0.23980337 20
1.993288 -3.966661 -0.077488683 24
1.8658195 -3.679322 0.072008632 22
2.0231488 -3.9947531 0.23467445 15
1.8992261 -3.7549412 0.36814582 41
2.2377055 -4.4318256 0.60959053 23
1.6987959 -3.368886 0.59757972 1
1.6557106 -3.2877247 0.71553379 11
1.7415802 -3.4627471 0.89485532 26
1.6573457 -3.3010042 0.98972404 26
1.1399472 -2.2853808 -0.68431759 23
1.2390726 -2.4873691 -0.64156049 20
1.3834056 -2.7807565 -0.60371965 13
1.5662704 -3.1524673 -0.55753249 13
1.8257838 -3.6812439 -0.50453913 9
1.9579037 -3.9528291 -0.38592559 46
1.9367044 -3.9151821 -0.22891749 63
1.9212785 -3.8908296 -0.075743444 39
1.9745705 -3.9603763 0.077244349 22
1.8463508 -3.7080677 0.21708956 38
2.08935 -4.2034402 0.41067785 6
1.8729664 -3.7730658 0.51721358 8
1.8486726 -3.7290273 0.65921491 6
1.7563692 -3.5490634 0.76972359 53
nan nan nan nan
1.568145 -3.1770875 0.94934833 37
1.1337202 -2.3121676 -0.69001162 27
1.2272552 -2.5062463 -0.64425987 15
1.3665454 -2.7956381 -0.60486454 26
1.5528897 -3.181077 -0.5606612 20
1.8233018 -3.7399788 -0.51087636 4
1.9675829 -4.0413017 -0.39324668 55
2.0245643 -4.1657248 -0.24273418 18
1.9218178 -3.9595861 -0.0768255 35
1.9679883 -4.0171633 0.078082062 21
1.810764 -3.7011325 0.21593818 30
2.3502007 -4.8100996 0.46837494 35
1.760429 -3.6094143 0.49308339 1
1.867575 -3.8341899 0.67548412 1
1.6033533 -3.2961168 0.71248084 14
1.8546094 -3.8177202 0.97988689 1
1.5703716 -3.2383666 0.96435976 10
1.1209043 -2.3269877 -0.69208211 25
1.2207109 -2.5375826 -0.65010858 23
1.3440838 -2.7977965 -0.60333806 26
1.5491449 -3.2289746 -0.56723142 13
1.7851439 -3.7275512 -0.50746399 19
1.9212701 -4.0171938 -0.38958618 44
1.959149 -4.101912 -0.23823328 24
2.0653825 -4.3321104 -0.083771549 14
1.8217512 -3.7836297 0.073300108 12
1.9742084 -4.1057692 0.23875666 28
nan nan nan nan
1.8447918 -3.8486528 0.5240382 1
1.7535833 -3.6632922 0.64325857 15
nan nan nan nan
1.8421787 -3.8604734 0.98753524 4
1.6031437 -3.3640816 0.99852395 33
1.1029792 -2.3312638 -0.69104689 22
1.2004679 -2.5407569 -0.64875889 32
1.3265413 -2.8126702 -0.60448295 20
1.5184239 -3.2238934 -0.56441563 24
1.7651813 -3.754602 -0.5094139 21
1.9796892 -4.2166004 -0.40754023 24
1.9288989 -4.114018 -0.23812862 26
1.9122703 -4.0859723 -0.078745253 40
1.9159811 -4.0532889 0.078256592 42
1.9140846 -4.05477 0.23498847 9
1.7679687 -3.7503266 0.36274219 10
1.8036811 -3.8330164 0.52013838 10
1.7105218 -3.6399906 0.63700122 7
2.0618448 -4.3955736 0.94374132 60
1.9269316 -4.1135583 1.0487219 16
1.696086 -3.6256962 1.0725461 8
1.0895239 -2.3461056 -0.69311744 16
1.1838961 -2.5528178 -0.64965874 27
1.3151236 -2.8396773 -0.60829914 17
1.5085781 -3.2633653 -0.56942153 16
1.7572304 -3.8064842 -0.51477611 4
1.9418623 -4.212225 -0.40579712 15
1.9144381 -4.1603751 -0.24001274 16
1.9697005 -4.286377 -0.082340457 7
1.9297342 -4.1572566 0.080001831 15
1.8623497 -4.019434 0.23216233 12
1.7327207 -3.7447999 0.36099908 32
1.6752944 -3.6256685 0.49040228 10
1.6753309 -3.632406 0.63355964 13
5.0182238 -10.89537 2.331686 8
1.9983279 -4.3446755 1.1040599 16
2.8340082 -6.1729226 1.8200157 21
1.0675083 -2.3413501 -0.68949395 24
1.15797 -2.5432851 -0.64515966 23
1.3020804 -2.8651011 -0.61173368 20
1.4710643 -3.2414393 -0.56378984 17
1.7322526 -3.8222754 -0.51526362 13
1.8147737 -4.011807 -0.38522837 18
1.887814 -4.1790986 -0.24032672 24
1.895326 -4.201591 -0.080455594 17
1.9090546 -4.1909771 0.080385789 26
1.6738092 -3.6796451 0.21185598 17
1.7123028 -3.7695034 0.36221924 15
1.641929 -3.6212921 0.48820862 55
1.7379278 -3.8383608 0.66734952 30
1.655704 -3.661865 0.7811721 13
1.6737922 -3.7087646 0.93939567 6
2.2852218 -5.0706401 1.4902802 8
1.0637628 -2.3769586 -0.69777614 11
1.1465472 -2.5655406 -0.64875889 23
1.283646 -2.8777072 -0.61249691 30
1.4395579 -3.2317812 -0.56034833 27
1.7200485 -3.8669233 -0.51965094 13
1.7972319 -4.0480518 -0.38749442 28
1.8440217 -4.1593103 -0.23844264 22
1.8384238 -4.1525507 -0.079268835 11
1.9181128 -4.2900023 0.08202631 15
1.8663044 -4.1800008 0.23990804 4
1.6242839 -3.6430671 0.34897158 27
1.6125723 -3.6235988 0.48698995 12
1.7062753 -3.8395689 0.66547227 4
1.6699163 -3.7630591 0.80025297 36
1.608399 -3.6312702 0.91690058 28
2.060658 -4.6589174 1.3650117 1
1.0502503 -2.3914025 -0.69984674 13
1.1293911 -2.5752671 -0.64920878 9
1.2910782 -2.9495468 -0.62585354 17
1.4264545 -3.2634728 -0.56410277 41
1.6882458 -3.8679211 -0.51818854 13
1.8946176 -4.3469434 -0.41486132 20
1.8205162 -4.1849031 -0.23917533 22
1.7735357 -4.0827489 -0.077698112 34
1.6535075 -3.7685816 0.071834102 30
1.7585284 -4.0136495 0.22965018 11
1.596416 -3.6488419 0.34844866 25
1.5719756 -3.5981097 0.48211515 28
2.2408178 -5.138804 0.88792211 10
1.6537937 -3.7980256 0.80521399 15
nan nan nan nan
2.0227432 -4.6586595 1.3608706 6
1.040066 -2.412688 -0.70398778 12
1.1280165 -2.6204839 -0.65865678 11
1.2709717 -2.9582663 -0.62585354 20
1.4081022 -3.2821832 -0.56566709 42
1.6540617 -3.8610761 -0.51575112 13
1.7019947 -3.9787199 -0.37860456 18
1.7127806 -4.0116763 -0.22860347 13
1.6076796 -3.7709749 -0.071554869 27
1.813696 -4.2113538 0.080036737 17
1.5986078 -3.7172821 0.21206531 12
1.5935543 -3.7108843 0.35332939 41
1.559965 -3.6379175 0.48601499 39
1.6586151 -3.875442 0.66766238 1
1.6255888 -3.8037786 0.80406916 7
1.7064387 -3.9987543 1.0037317 15
1.9811407 -4.6492162 1.3541414 18
1.020609 -2.412595 -0.70191729 20
1.1184949 -2.6478477 -0.66360563 10
1.243179 -2.9487586 -0.62203735 16
1.411021 -3.3517725 -0.57599175 13
1.6431273 -3.9088449 -0.52062589 15
1.6633856 -3.9647832 -0.37616417 22
1.6499356 -3.938503 -0.22378856 26
1.6552851 -3.9570861 -0.074870825 11
1.6339687 -3.8662627 0.07326521 13
1.6773248 -3.974653 0.22609136 15
1.5744479 -3.7363331 0.35472387 25
1.5368391 -3.6542087 0.48674619 42
nan nan nan nan
4.8961582 -11.676012 2.4610546 45
nan nan nan nan
1.4972312 -3.5827584 1.0404526 6
1.0030009 -2.417877 -0.70139962 22
1.1022193 -2.6609929 -0.66495538 12
1.2075621 -2.9210789 -0.61440504 20
1.368744 -3.3158934 -0.56817007 17
1.6226065 -3.9367387 -0.52281958 32
1.6879646 -4.1034374 -0.38819164 16
1.6428883 -3.9998081 -0.22661473 18
1.6192727 -3.9481938 -0.074486867 31
1.614593 -3.8960493 0.073614255 17
1.7610319 -4.2557082 0.24137343 19
1.5475646 -3.7453923 0.35454956 30
1.5173446 -3.6795301 0.48869613 40
nan nan nan nan
4.8667836 -11.837013 2.4877679 7
1.6504409 -4.0221901 1.0037317 24
1.4809716 -3.6145754 1.0466642 1
0.98900771 -2.4319782 -0.70347023 28
1.0784832 -2.6559842 -0.66180605 21
1.2136847 -2.9949405 -0.62814325 15
1.3685311 -3.3821337 -0.577869 18
1.5988019 -3.9571731 -0.5240382 19
1.6227677 -4.0245786 -0.37965041 14
1.6552042 -4.1112285 -0.23226699 50
1.5633268 -3.8888974 -0.073160492 30
1.6009023 -3.9405732 0.07424254 10
1.5488416 -3.8181589 0.21593818 12
1.8998541 -4.6905146 0.44275117 11
1.5570873 -3.8519902 0.51014513 16
1.5496775 -3.8394437 0.6557734 10
4.8368673 -12.001808 2.5152442 18
nan nan nan nan
1.5183356 -3.7807906 1.0916989 26
0.97558171 -2.4477963 -0.70605838 20
1.0627973 -2.670691 -0.66360563 9
1.1869495 -2.9887438 -0.6250903 13
1.3587211 -3.4264946 -0.58381349 16
1.5872134 -4.0088434 -0.52940047 27
1.6180605 -4.0951042 -0.38522837 18
1.752533 -4.4422421 -0.25027055 8
1.5698522 -3.9853024 -0.074766114 15
1.6687748 -4.1913166 0.078745253 12
1.5745341 -3.9606528 0.22336988 12
1.5936188 -4.014781 0.37790731 22
1.5279644 -3.8572304 0.5094139 26
nan nan nan nan
2.0653133 -5.2297149 1.0929539 1
1.483369 -3.7638242 0.93399692 12
1.4876596 -3.7805119 1.088593 11
0.96338785 -2.467144 -0.70968187 16
1.0512054 -2.6962018 -0.66810465 12
1.1703265 -3.0079353 -0.62738001 23
1.3347666 -3.4358966 -0.58381349 15
1.5563169 -4.0124235 -0.52842557 21
1.5800753 -4.0800128 -0.382788 30
1.5659626 -4.0519671 -0.22766145 16
1.5009577 -3.8898237 -0.072776534 28
1.5995045 -4.1004014 0.0768255 31
1.4837826 -3.8096349 0.21426344 24
1.5345002 -3.9459605 0.37041187 12
1.5455025 -3.9804215 0.52428192 27
1.3967144 -3.604677 0.6122846 20
4.7779112 -12.350146 2.5740135 44
1.4542042 -3.7647448 0.93174732 16
2.4038148 -6.2328696 1.7899926 2
0.94519168 -2.470036 -0.7086466 11
1.0272648 -2.6887317 -0.66450548 34
1.1512241 -3.0195005 -0.62814325 18
1.3183763 -3.4633636 -0.5869422 16
1.5402533 -4.0526133 -0.53232533 14
1.6074026 -4.2359705 -0.39638433 34
1.5263207 -4.0307784 -0.22588199 26
1.4864681 -3.9317482 -0.073369913 34
1.5372839 -4.0215359 0.075150065 21
1.4841677 -3.8886871 0.2181363 8
1.4622003 -3.8371592 0.35925597 30
1.5155499 -3.9834278 0.52330703 30
nan nan nan nan
nan nan nan nan
1.5182172 -4.0114908 0.99023467 12
1.7747562 -4.6967545 1.3453414 27
0.92767853 -2.4746034 -0.70812893 14
1.0150872 -2.7120872 -0.66855454 23
1.1464435 -3.0695674 -0.63692045 23
1.3030539 -3.494468 -0.59069663 15
1.5243841 -4.096756 -0.53671265 14
1.5548946 -4.1854558 -0.39063203 17
1.5266315 -4.1159787 -0.23006889 13
1.5138168 -4.0901842 -0.076127395 22
1.5070692 -4.024416 0.075010449 32
1.4667567 -3.9230196 0.21949703 12
1.5558923 -4.1680751 0.38923752 12
1.4163325 -3.8023076 0.49820194 20
1.7578969 -4.7268414 0.79875451 1
nan nan nan nan
1.419762 -3.831948 0.94344479 12
1.3431376 -3.6309724 1.0373468 17
0.92058957 -2.5101979 -0.71641117 13
0.99096394 -2.7064724 -0.66540527 14
1.1317264 -3.0959356 -0.64073664 33
1.2732757 -3.4907124 -0.58850652 18
1.502539 -4.1259513 -0.53915 19
1.526998 -4.1999536 -0.39098063 46
1.559123 -4.2976518 -0.23959403 20
1.5397044 -4.2510672 -0.078919783 27
1.7638519 -4.8121414 0.089461036 10
1.6643577 -4.5505314 0.25393409 4
1.4720385 -4.0312519 0.37546691 27
1.4359871 -3.9389241 0.51477611 13
1.7240274 -4.7392998 0.79875451 16
2.7893074 -7.6802392 1.5882941 1
2.5335281 -6.9873614 1.7159268 19
1.3263221 -3.6659229 1.0445937 28
0.90434766 -2.5202005 -0.71744639 10
0.98124617 -2.7390084 -0.67170388 13
1.1088827 -3.1021059 -0.64035505 24
1.2561789 -3.5199814 -0.59194809 16
1.4830254 -4.1625195 -0.54256237 4
1.4776093 -4.1541958 -0.38575131 26
1.4783127 -4.1653824 -0.23163895 45
1.5079854 -4.2560577 -0.078815073 13
1.4763423 -4.1187325 0.076371737 10
1.5820786 -4.4210038 0.24608369 9
1.4076623 -3.9401135 0.36605412 45
1.5910672 -4.4633045 0.58180428 30
1.6856008 -4.7363315 0.79625154 42
2.6376872 -7.4238801 1.531433 4
4.4755621 -12.617597 3.0908277 20
1.3909332 -3.9300547 1.117063 9
0.88545233 -2.5228066 -0.71641117 14
0.96854508 -2.7641828 -0.67620289 20
1.0903344 -3.1169946 -0.64188147 33
1.2445639 -3.5638845 -0.59789258 24
1.4532763 -4.170897 -0.54231864 16
1.4570811 -4.1888738 -0.38801736 24
1.5259275 -4.3942094 -0.2437809 20
1.522753 -4.3949676 -0.081188597 24
1.5138025 -4.3154964 0.079827309 44
1.4377478 -4.1055627 0.22797546 27
1.3689488 -3.9178696 0.36309084 35
1.4795773 -4.2416134 0.55158067 40
1.6487757 -4.7346368 0.79406142 36
1.597999 -4.5991631 0.94641262 16
2.5500374 -7.351615 1.7964593 17
1.4305248 -4.1311092 1.171415 5
0.86951435 -2.5324297 -0.71744639 20
0.95981711 -2.8002069 -0.68340135 13
1.0698185 -3.1282458 -0.64264476 33
1.2336946 -3.6136136 -0.60477573 12
1.4318963 -4.2013607 -0.54499972 16
1.4534585 -4.2743969 -0.39498982 42
1.4875091 -4.3820605 -0.24252485 44
1.3734297 -4.0529637 -0.074696302 37
1.4972615 -4.3656816 0.080560312 9
1.3495314 -3.9416592 0.21834564 11
1.3370939 -3.9120145 0.3616963 48
1.4428813 -4.2311726 0.54889959 30
1.3871434 -4.0747061 0.68174148 37
2.5306566 -7.4465299 1.5287617 2
2.5155466 -7.4190679 1.8086065 2
1.2567157 -3.7128057 1.0502877 19
0.85427207 -2.5457642 -0.71951699 13
0.94891119 -2.8327088 -0.68970001 20
1.0498199 -3.1412241 -0.64378959 28
1.2053113 -3.6127689 -0.60321134 16
1.4050398 -4.2187881 -0.54597467 14
1.4147874 -4.2579689 -0.39254946 31
1.4675697 -4.4245658 -0.24430427 16
1.3551581 -4.0928268 -0.075254776 19
1.4889895 -4.442389 0.081781976 20
1.3093061 -3.9131031 0.21625218 30
1.3185877 -3.9477105 0.36413667 26
1.4660238 -4.3993382 0.56937367 35
1.3792392 -4.1461458 0.69206619 7
2.4693277 -7.4360681 1.5230374 12
nan nan nan nan
1.2629139 -3.8186986 1.0777225 41
0.84309804 -2.5718589 -0.72521096 16
0.9260816 -2.830004 -0.68745047 21
1.0345666 -3.1690063 -0.64798737 34
1.1812841 -3.6248517 -0.60383707 13
1.3823085 -4.2492595 -0.54865587 13
1.4349995 -4.4190989 -0.40649435 40
1.4218731 -4.389102 -0.24179214 6
1.3468561 -4.1649761 -0.076406635 27
1.3664688 -4.1733146 0.07665097 17
1.4190865 -4.341701 0.2393847 39
1.3101532 -4.0155377 0.36954033 21
1.3554007 -4.1640754 0.5376876 21
1.403367 -4.3191199 0.71928573 16
1.3289086 -4.0972586 0.8372699 16
1.4790229 -4.5682359 1.1085589 30
1.1863476 -3.6730018 1.034241 26
0.83042318 -2.5942414 -0.72986972 13
0.90867442 -2.8438253 -0.68925005 27
1.0153586 -3.1834564 -0.64951384 34
1.1751608 -3.6911592 -0.61353606 18
1.3568156 -4.2720499 -0.55036199 14
1.4191667 -4.4764905 -0.41085216 47
1.3570145 -4.2882357 -0.23572117 34
1.3418267 -4.2505546 -0.077802829 11
1.3922582 -4.3520293 0.079757497 13
1.2509762 -3.917465 0.21551949 34
1.4483962 -4.5466437 0.41747603 8
1.34026 -4.2148232 0.54304987 27
1.3661665 -4.3040953 0.71521842 34
1.4798446 -4.6735511 0.95290023 20
nan nan nan nan
1.2095617 -3.8339062 1.0772049 50
0.81620419 -2.6108968 -0.73297554 10
0.88929629 -2.8499444 -0.68925005 25
0.98143917 -3.1529768 -0.64188147 28
1.1511214 -3.7049327 -0.61447465 16
1.3341738 -4.3020425 -0.55304313 13
1.3878803 -4.4862885 -0.41085216 47
1.3075979 -4.2346296 -0.23226699 45
1.3882538 -4.5041957 -0.082270645 17
1.3582659 -4.3501897 0.079548068 24
nan nan nan nan
1.274194 -4.0960011 0.37529263 37
1.2784442 -4.119803 0.52964419 7
1.2864056 -4.1531391 0.68862462 13
2.1548913 -6.9699411 1.4180925 13
1.2531412 -4.063303 0.98168647 10
1.221984 -3.9696548 1.112922 42
0.79682976 -2.6128354 -0.73194027 9
0.87221575 -2.8654048 -0.69149959 20
0.96282578 -3.1710229 -0.64417118 35
1.1229362 -3.7053168 -0.61322314 19
1.3144529 -4.3454533 -0.55743045 15
1.4014183 -4.64465 -0.42444846 30
1.2722439 -4.2245302 -0.23122028 37
1.3130269 -4.3682342 -0.07961788 8
1.2713456 -4.1740122 0.076162301 8
1.2321763 -4.0530257 0.22200914 23
1.2455679 -4.1047964 0.37529263 41
1.2623042 -4.1704268 0.53500646 15
1.3842043 -4.5818129 0.7580815 12
1.2236927 -4.0581856 0.82391334 26
1.2286724 -4.0850153 0.9848358 16
1.1603577 -3.8652222 1.0813459 35
0.77912027 -2.6201866 -0.73245794 9
0.85496241 -2.8807652 -0.69374907 41
0.95292455 -3.2190826 -0.65256679 22
1.0897652 -3.6884387 -0.60915589 13
1.2874527 -4.3659482 -0.55889291 14
1.3071163 -4.4440637 -0.40527418 20
1.2590346 -4.2888846 -0.23425576 31
1.3004911 -4.4387035 -0.080734834 8
1.3947427 -4.6965284 0.085516788 12
1.214635 -4.0979128 0.22399792 12
1.215185 -4.1076608 0.37476969 30
1.2095625 -4.0991721 0.52476943 11
1.9677255 -6.6814499 1.103176 1
1.2257829 -4.1702251 0.84490222 8
1.2352122 -4.2131748 1.0136294 1
1.1284629 -3.8565423 1.0766873 23
0.76833665 -2.6515391 -0.73970485 16
0.82237828 -2.8436072 -0.68340135 17
0.93478119 -3.2407475 -0.65561974 17
1.071093 -3.7206342 -0.61322314 19
1.258586 -4.3805528 -0.55962408 15
1.2601426 -4.3975368 -0.40021914 19
1.2504799 -4.3724608 -0.23833798 22
1.2535551 -4.3919096 -0.079722598 9
1.3474679 -4.6562085 0.084609263 12
1.1876596 -4.1120486 0.22431193 23
1.1991717 -4.1600761 0.37877885 8
nan nan nan nan
1.2601666 -4.39183 0.72366595 30
nan nan nan nan
1.3786331 -4.8269372 1.1589479 16
1.1290495 -3.9609346 1.1036046 13
0.74922031 -2.6529894 -0.73866957 11
0.81304753 -2.8847768 -0.69194949 16
0.91429454 -3.2527051 -0.65676457 20
1.0606812 -3.7810936 -0.62198347 16
1.2367668 -4.4176927 -0.56328017 14
1.2510766 -4.4808531 -0.40701729 11
1.2126474 -4.3520112 -0.23676789 50
1.197916 -4.3078642 -0.078047164 16
1.2098972 -4.2899723 0.077802829 11
1.1591011 -4.1181154 0.22420727 11
1.2705063 -4.5229998 0.41102645 25
1.1957694 -4.2683797 0.54426849 3
1.1871611 -4.2462087 0.69832355 55
1.179249 -4.2264414 0.85291624 16
1.22559 -4.4044046 1.0554705 6
1.0477864 -3.7730799 1.0492525 30
0.7352891 -2.6749201 -0.74332833 21
0.80526131 -2.9354858 -0.70274711 12
0.89311826 -3.2646899 -0.65790945 17
1.039462 -3.8074629 -0.62511224 19
1.2116358 -4.4472871 -0.56596124 15
1.2584208 -4.6317573 -0.41991636 14
1.1900749 -4.389286 -0.23833798 20
1.2163839 -4.4956384 -0.081293307 21
1.2513804 -4.5586429 0.082514979 15
1.1192418 -4.0856547 0.22200914 42
1.2121038 -4.4337444 0.40213659 13
nan nan nan nan
1.1657854 -4.2848911 0.70332944 27
1.1646321 -4.289516 0.86398321 46
1.9811664 -7.3171353 1.7501193 19
1.0652596 -3.9425552 1.0942869 22
0.70861262 -2.6501274 -0.73504615 24
0.78424609 -2.9391532 -0.70229727 7
0.87737209 -3.2974067 -0.66325212 15
1.0062653 -3.7898068 -0.62104493 19
1.1856432 -4.4748263 -0.56839865 22
1.4108022 -5.3396721 -0.48319143 27
1.18028 -4.4766693 -0.24262951 22
1.1778464 -4.4769464 -0.080804639 17
1.138533 -4.2639422 0.07703492 11
1.0968622 -4.116528 0.22326522 31
1.2082555 -4.5441494 0.41137511 20
nan nan nan nan
1.092895 -4.1306038 0.67673558 30
1.1090974 -4.2007337 0.84452063 12
1.0806216 -4.1044879 0.97988689 16
1.0215111 -3.8882377 1.0772049 27
0.69641173 -2.6793163 -0.74177545 10
0.76615405 -2.9539883 -0.70454675 12
0.84941489 -3.2844443 -0.65943593 17
0.98570609 -3.8196921 -0.62479931 21
1.1583343 -4.498374 -0.57034856 22
1.2104753 -4.714489 -0.42584294 14
1.1202488 -4.3725829 -0.23655853 50
1.1371529 -4.4482493 -0.080141447 17
1.1328514 -4.3646941 0.078710355 12
1.0620883 -4.1008835 0.22200914 17
1.1774995 -4.5563316 0.41172373 11
1.1437639 -4.43858 0.56279266 15
1.0315646 -4.0118656 0.65608621 31
1.0714493 -4.1760459 0.83803314 16
1.0789877 -4.2176566 1.0050814 36
1.0645806 -4.170433 1.1532978 4
0.68100011 -2.6972246 -0.74539888 13
0.74789292 -2.9687138 -0.70679629 7
0.83555216 -3.3264723 -0.66668665 15
0.96237761 -3.8398933 -0.62698942 21
1.1360515 -4.5429411 -0.57497966 17
1.2016325 -4.8194847 -0.43455851 7
1.1330901 -4.5547342 -0.24597903 16
1.0386274 -4.1843681 -0.075254776 6
1.1243511 -4.4597526 0.080281071 13
1.0957992 -4.3561234 0.23540714 18
1.1412963 -4.547049 0.41015494 16
2.1397164 -8.5501375 1.0821998 3
1.1140786 -4.461688 0.72835892 9
1.8676375 -7.4962544 1.5016669 7
1.0015982 -4.0321774 0.95919138 9
1.0405517 -4.1983895 1.1589917 26
0.66859162 -2.7281816 -0.75264585 11
0.72761238 -2.9757552 -0.70724612 12
0.82486331 -3.3837242 -0.67699033 17
0.94488341 -3.8849068 -0.63324684 17
1.1043087 -4.5507612 -0.57497966 14
1.2401053 -5.1259818 -0.46140248 8
1.1724952 -4.8576422 -0.26188916 15
1.0585483 -4.3956494 -0.078919783 13
1.0931889 -4.4674935 0.080281071 12
1.053519 -4.3151608 0.23279037 12
1.1038661 -4.5316758 0.40806317 15
1.7019238 -7.0081453 0.8855027 2
nan nan nan nan
0.99504763 -4.1161757 0.82315004 22
1.0779802 -4.4729114 1.0622189 14
1.0125715 -4.2111864 1.1605446 16
0.6517626 -2.7421801 -0.755234 14
0.70861888 -2.9883471 -0.70904577 10
0.80167204 -3.3913112 -0.67737198 16
0.9150185 -3.8798728 -0.63136959 17
1.0702387 -4.5486979 -0.57376093 21
1.0485616 -4.4670582 -0.40143937 61
1.0675651 -4.5623322 -0.24556033 12
1.0096513 -4.3250389 -0.077523597 30
1.0375017 -4.3718967 0.078431122 11
0.98839658 -4.1747022 0.22483528 26
1.0850266 -4.5935655 0.41294393 15
1.6902651 -7.1783004 0.90548927 1
0.98165333 -4.1787391 0.67986429 12
1.0007813 -4.2702045 0.85253465 27
0.98495179 -4.2125888 0.99878269 28
1.5238351 -6.5379486 1.7987925 19
0.63173544 -2.7428982 -0.75419873 16
0.69035727 -3.0046167 -0.71174514 13
0.78120172 -3.4081709 -0.67966169 19
0.88770759 -3.8821597 -0.6307438 16
1.0459563 -4.5889616 -0.57790446 19
1.0297196 -4.5286674 -0.40632007 27
1.0272077 -4.5285888 -0.24336222 16
0.96973151 -4.2890716 -0.076755688 14
1.0144466 -4.4080882 0.078954689 5
0.96889609 -4.2202659 0.22692874 16
1.074265 -4.694253 0.42131084 8
1.5697905 -6.876121 0.86600363 1
0.943537 -4.1429505 0.67298114 25
0.99354553 -4.3766432 0.87237877 5
0.93055451 -4.109127 0.97268844 16
0.89779508 -3.9741268 1.0916989 5
0.61389238 -2.750906 -0.755234 18
0.6830166 -3.0682139 -0.72569215 7
0.76121646 -3.4307916 -0.68309623 12
0.86058336 -3.8882623 -0.6307438 17
1.0283911 -4.6580038 -0.58570409 15
1.0010756 -4.5493665 -0.40754023 20
0.98957306 -4.5083385 -0.24189681 12
0.95206165 -4.3483157 -0.077698112 21
1.0406145 -4.670754 0.083527215 5
0.96410787 -4.3380589 0.23289503 16
1.0547937 -4.7578664 0.42636588 13
1.845114 -8.3503571 1.0500263 10
0.91671669 -4.1590824 0.67454553 10
1.5986319 -7.2709942 1.4470955 9
0.9406386 -4.2925553 1.0145293 37
1.0771192 -4.9277177 1.3515531 21
0.59630281 -2.7626779 -0.75730455 29
0.65542752 -3.0443311 -0.7189436 15
0.74136513 -3.4552176 -0.68691242 17
0.8416853 -3.9328084 -0.63700122 17
0.99957693 -4.6825423 -0.58789778 10
1.0663033 -5.0122585 -0.44832912 5
0.97465819 -4.5932875 -0.24608369 16
0.95108038 -4.4937577 -0.080176361 3
0.931319 -4.3221269 0.077174544 11
0.92708451 -4.3134413 0.23122028 16
1.0290694 -4.8001804 0.4295035 22
3.9132352 -18.315977 2.2996747 11
0.88189453 -4.1383333 0.67016536 10
nan nan nan nan
1.0750089 -5.0749383 1.1976395 35
0.89573234 -4.2395511 1.1610622 4
0.58055073 -2.7837942 -0.76196331 37
0.63574547 -3.0564644 -0.72074324 10
0.72399932 -3.4929895 -0.69339991 19
0.81780821 -3.9559989 -0.63981706 16
0.97207332 -4.7146807 -0.59106636 38
0.96313632 -4.6837335 -0.41834757 16
0.91931379 -4.4864969 -0.24001274 24
0.91407943 -4.4728589 -0.079687685 21
0.90560585 -4.3500576 0.077558495 13
0.90060288 -4.3374085 0.23216233 19
0.99310911 -4.7955413 0.42845765 16
1.5193236 -7.3624139 0.92303848 1
1.5188035 -7.3794112 1.1932822 19
1.5372235 -7.4887671 1.4860206 9
0.85322326 -4.1676583 0.98213637 25
0.85645944 -4.19838 1.1481214 1
0.56262743 -2.7953546 -0.76403385 30
0.61592591 -3.0684707 -0.72254282 25
0.69827962 -3.4882119 -0.69149184 15
0.79434216 -3.9789081 -0.6426329 14
0.93100274 -4.6804662 -0.58594781 22
0.95173687 -4.7978301 -0.42793471 14
0.91278517 -4.6141262 -0.24650237 12
0.87587011 -4.4438162 -0.0790594 22
0.90357083 -4.4933524 0.080001831 6
0.86202615 -4.2983985 0.22975488 23
0.98263997 -4.9176302 0.43874201 9
1.6608222 -8.3343115 1.0434453 7
1.4716185 -7.4050784 1.1957852 35
1.482236 -7.4858351 1.4833492 31
0.84411532 -4.2748404 1.0059812 16
0.84801787 -4.3064661 1.1760738 15
0.54248208 -2.7934303 -0.76248091 29
0.60021257 -3.0993769 -0.72884148 11
0.67762995 -3.5122788 -0.69530803 8
0.77400869 -4.0231528 -0.64889026 19
0.89979899 -4.6946507 -0.58692282 19
0.89689934 -4.6928101 -0.41799891 2
0.91158462 -4.7832284 -0.25519016 10
0.84631705 -4.4576812 -0.079199016 16
0.84325892 -4.3503518 0.077349067 12
0.84602112 -4.3768668 0.23362774 25
0.97742581 -5.0709324 0.45181534 27
1.4008229 -7.2949352 0.91207021 12
1.4016826 -7.3201051 1.1804546 38
1.4957888 -7.8411984 1.5516587 29
0.87725013 -4.6118221 1.0838143 14
0.81865299 -4.3160782 1.1771091 4
0.52318829 -2.8010385 -0.76351619 31
0.58051652 -3.117003 -0.73199081 10
0.659904 -3.5535984 -0.70255876 7
0.74520034 -4.0285883 -0.64889026 16
0.87132335 -4.7242436 -0.58984768 19
0.85943097 -4.6734838 -0.41573292 23
0.85718179 -4.6796126 -0.24932852 8
0.82272112 -4.5047913 -0.079932027 22
0.82313859 -4.4111743 0.078326404 22
0.82124925 -4.4181538 0.23551181 19
0.91715056 -4.9485016 0.44031078 5
1.359961 -7.3591943 0.91889495 21
1.3471196 -7.3182917 1.1785774 21
1.381116 -7.5251107 1.4871653 11
0.78925794 -4.313046 1.0122797 36
0.78462917 -4.3047209 1.1724503 22
0.50635213 -2.8198345 -0.76765728 11
0.55908495 -3.1228979 -0.73244065 25
0.63480282 -3.5601625 -0.7029404 13
0.71671212 -4.0317478 -0.64857739 16
0.84594238 -4.7732134 -0.59520996 18
0.85382289 -4.8324051 -0.42932916 10
0.81064564 -4.606801 -0.24514163 14
0.79021567 -4.5045161 -0.079827309 22
0.80460387 -4.4897795 0.07961788 12
0.78160375 -4.3746262 0.23289503 18
1.2599318 -7.0732188 0.62856722 8
1.3096932 -7.3824196 0.92060113 36
1.3310875 -7.5259271 1.21049 49
1.3384348 -7.5906391 1.4982322 6
0.80568832 -4.5833154 1.0743662 14
nan nan nan nan
0.49157625 -2.8518572 -0.77542186 21
0.54089963 -3.1478515 -0.73738962 20
0.61585814 -3.5953619 -0.70904624 13
0.69723195 -4.0832658 -0.65608621 15
0.81925368 -4.8181429 -0.60008472 20
0.8120752 -4.7911034 -0.42514572 7
1.177556 -6.9695215 -0.37043396 5
0.76007605 -4.5178113 -0.079966925 33
0.76384413 -4.4360313 0.078570738 23
0.75957996 -4.4251204 0.23530249 27
1.3196238 -7.7201114 0.68521845 6
1.2514087 -7.3441982 0.91475141 62
1.287768 -7.581552 1.2179989 36
0.72095561 -4.2625461 0.84032285 8
0.71503019 -4.241015 0.99293399 4
0.72552264 -4.3170347 1.1729679 28
0.47435918 -2.868479 -0.7790454 18
0.52358085 -3.1764567 -0.74323833 28
0.5866099 -3.5743885 -0.70408523 15
0.67763776 -4.1426187 -0.66484654 15
0.79538256 -4.8784657 -0.60690933 24
1.0027082 -6.1772432 -0.54751235 19
0.77065611 -4.7634401 -0.25288737 6
0.75031722 -4.6531768 -0.082270645 10
0.76606423 -4.6425037 0.082131028 12
0.73871666 -4.4914093 0.23854731 18
1.1513307 -7.0230694 0.62264061 3
1.2272885 -7.5192852 0.93546921 36
1.2376641 -7.6079054 1.2208147 19
0.69632423 -4.2944856 0.84566551 7
3.138515 -19.442278 4.546711 7
0.69536638 -4.3219943 1.1729679 12
0.45492634 -2.8755372 -0.78008062 25
0.50260633 -3.1877346 -0.74503797 13
0.56773001 -3.6171873 -0.71171761 7
0.64808977 -4.1433454 -0.66422081 15
0.76864356 -4.9309735 -0.61275911 20
0.96566844 -6.2234697 -0.55099863 19
0.73280406 -4.7390971 -0.25131726 6
0.76075453 -4.9369698 -0.087192222 1
0.73207635 -4.6378617 0.081956498 17
0.72720718 -4.6227288 0.24524632 18
1.2741562 -8.127305 0.71973211 1
1.1827223 -7.5786648 0.94180632 36
1.2327881 -7.9267154 1.270561 38
0.66933358 -4.3186436 0.8494817 11
0.7288385 -4.7243705 1.1036099 13
0.66547036 -4.3286533 1.1734856 19
0.43282035 -2.8652716 -0.77645719 25
0.48440111 -3.2181437 -0.75133657 21
0.54449987 -3.6346536 -0.71438891 12
0.62118989 -4.1614447 -0.66641092 26
0.74033308 -4.9774528 -0.6178776 15
0.9384734 -6.3323832 -0.56006277 12
1.2370808 -8.3876276 -0.44433233 6
0.7160936 -4.8729148 -0.085970551 5
0.68686658 -4.5578332 0.080455594 17
0.70351791 -4.6849713 0.24828181 39
1.1675583 -7.8029957 0.69027346 15
1.1501368 -7.71416 0.95764935 23
1.1521949 -7.7651315 1.2433413 19
0.63945454 -4.3251529 0.84986329 6
0.69950449 -4.7485013 1.108109 16
0.66853362 -4.5548019 1.2335316 6
0.41881779 -2.9063935 -0.78680992 27
0.45971489 -3.2020769 -0.74683756 25
0.52141327 -3.6499367 -0.71667862 4
0.5953545 -4.1831779 -0.66922677 14
0.71005881 -5.0079274 -0.62104625 16
0.91095358 -6.4491014 -0.56982422 15
1.0306933 -7.3337636 -0.38812348 5
0.97431618 -6.9590554 -0.12265551 2
0.68171865 -4.7425241 0.083631933 17
0.68633586 -4.7924595 0.25372472 14
1.1782999 -8.2585011 0.72984219 7
1.081678 -7.6097856 0.94375628 11
1.1250397 -7.9546943 1.2724382 43
2.9935734 -21.246552 4.1707034 52
0.7105068 -5.0619245 1.1800933 3
0.67282844 -4.8117938 1.3018599 21
0.39928767 -2.9110906 -0.78732753 26
0.44133809 -3.2302325 -0.75268626 20
0.49867246 -3.6689639 -0.71973157 10
0.57216686 -4.226284 -0.67548412 15
0.68072963 -5.0480556 -0.62543356 16
0.87287062 -6.4985957 -0.57365906 18
1.1307199 -8.4630814 -0.44747245 18
0.62938094 -4.7295804 -0.083282888 7
0.68004936 -4.9709344 0.087576173 10
0.95223182 -6.9877391 0.36959657 9
1.0848095 -7.9919043 0.7056129 35
1.0992751 -8.1304092 1.0073721 10
nan nan nan nan
2.913269 -21.747066 4.2649632 40
0.61160094 -4.5837379 1.0676178 9
0.64744043 -4.871798 1.3168714 16
0.38046119 -2.9214041 -0.78939813 16
0.41808748 -3.2234988 -0.75043678 26
0.4761982 -3.691745 -0.72354776 9
0.54414177 -4.2359581 -0.67642272 16
0.6430788 -5.0269752 -0.62226492 15
0.84120566 -6.6032066 -0.58237463 15
0.94155562 -7.4323163 -0.39262438 2
0.89000314 -7.0550013 -0.12412152 23
0.90452284 -6.9644375 0.1225857 19
0.93359727 -7.2178845 0.38142449 10
1.0140953 -7.8726344 0.69445693 7
1.0613365 -8.2735615 1.0241901 13
1.0331453 -8.0985994 1.2930875 7
2.8267841 -22.251345 4.3599858 56
0.56595665 -4.4737287 1.0410736 7
0.61426467 -4.8760924 1.3168714 24
0.36151269 -2.9315951 -0.79146868 15
0.39708605 -3.2340069 -0.75223637 28
0.45272392 -3.7085419 -0.72621906 12
0.51887143 -4.2689776 -0.68111575 15
0.62697154 -5.1810102 -0.64078909 4
0.790043 -6.5573492 -0.57784253 12
0.89355725 -7.4603667 -0.39377576 8
0.86421788 -7.2475448 -0.12740256 16
0.85587692 -6.9605098 0.12241118 22
0.89658064 -7.3231955 0.3866581 17
1.0207558 -8.3737926 0.73803484 10
nan nan nan nan
0.97160769 -8.0524931 1.2846401 19
2.738481 -22.796366 4.4630227 50
0.5435918 -4.5452003 1.0568202 14
0.58288711 -4.8955069 1.3210124 16
0.34289017 -2.9455013 -0.7945745 15
0.37551263 -3.2405064 -0.75313616 27
0.42724553 -3.7095873 -0.72583747 16
0.49002635 -4.274374 -0.68142867 16
0.59754258 -5.2364373 -0.64712632 16
0.75618392 -6.657599 -0.58620954 15
0.85104483 -7.5397086 -0.39764863 17
0.82044661 -7.3029389 -0.12827519 16
0.81654698 -7.0356965 0.12363284 21
0.85954911 -7.4402361 0.39251971 10
5.2561536 -45.707031 4.0252008 24
3.6935203 -32.267391 3.9878087 12
3.6416399 -32.011929 5.1028929 45
2.6444323 -23.354847 4.5687308 45
0.51416862 -4.5623507 1.0599694 27
0.53835368 -4.7995305 1.2940953 9
0.32265568 -2.9652765 -0.7992332 23
0.35369995 -3.2664824 -0.75853503 23
0.40233332 -3.7400172 -0.73118013 13
0.46171847 -4.3132854 -0.68706024 20
0.5645346 -5.2999921 -0.65443844 6
0.71837765 -6.7780018 -0.59631962 18
0.78335321 -7.4406104 -0.39210105 11
0.7674917 -7.3267903 -0.12858933 16
0.76954365 -7.0953035 0.12457528 27
0.81783181 -7.5775352 0.39942807 18
4.8125596 -44.810162 3.9429257 23
3.4363556 -32.207954 3.9770846 77
3.4113064 -32.132648 5.1179109 46
nan nan nan nan
2.44907 -23.301355 5.4091735 30
0.49927381 -4.7823877 1.2884012 13
0.30292445 -2.9770663 -0.80182141 18
0.33343828 -3.2940767 -0.76438373 16
0.38099748 -3.78369 -0.7391941 13
0.43471125 -4.3399153 -0.69081473 20
0.5322358 -5.351212 -0.66028816 4
0.67476767 -6.8205233 -0.59963149 21
0.7559638 -7.6823015 -0.40455699 2
0.71904457 -7.3598328 -0.129078 19
0.7244637 -7.1322088 0.12513375 21
0.75880557 -7.5094018 0.3955552 7
4.4094968 -43.944622 3.8639627 21
3.2221687 -32.281956 3.9834216 77
3.1989434 -32.21999 5.1282353 30
3.1662059 -32.118256 6.2734184 13
0.47350776 -4.8292046 1.1202563 11
0.47514802 -4.8721986 1.311695 12
0.283748 -2.9905987 -0.80492729 13
0.31375465 -3.325372 -0.77113229 13
0.3529256 -3.7686656 -0.7357595 16
0.40440235 -4.342844 -0.69081473 22
0.49760449 -5.3844476 -0.66394424 2
0.64481968 -7.017519 -0.61653972 12
0.70158684 -7.6794362 -0.4041383 5
0.68190855 -7.5220037 -0.13183548 13
0.68914431 -7.2903857 0.12782143 19
0.77066118 -8.1985579 0.43156233 8
4.0259099 -43.071018 3.784651 19
3.0047917 -32.390633 3.9941463 77
2.9837327 -32.347755 5.1451306 31
2.9438696 -32.161083 6.2776165 13
0.42936206 -4.7178907 1.0937122 17
0.50988424 -5.6353741 1.516162 11
0.2631844 -3.0021746 -0.80751544 16
0.29079702 -3.3372388 -0.77338177 16
0.32762408 -3.782773 -0.73804927 16
0.37449929 -4.3594036 -0.69300479 16
0.46827713 -5.4847074 -0.67588747 4
0.60322422 -7.1092 -0.6242094 9
0.68145162 -8.0982265 -0.42591006 6
0.63154471 -7.5524869 -0.13228925 16
0.63474625 -7.255178 0.12712333 21
0.74564731 -8.5918703 0.45197338 8
3.6468828 -42.278912 3.7126603 18
2.7860498 -32.497849 4.0048709 78
2.7520099 -32.36631 5.1448174 31
nan nan nan nan
0.4061985 -4.8372874 1.1207062 26
0.39548311 -4.7494407 1.2770132 10
0.24190831 -3.0000877 -0.80648017 23
0.27138186 -3.3877506 -0.78462934 21
0.30147919 -3.7967627 -0.74033892 19
0.34716243 -4.4012966 -0.69926214 18
0.43183586 -5.5115905 -0.67881227 2
0.56285411 -7.2324219 -0.63466811 14
0.77617061 -10.064262 -0.52901191 13
0.58445543 -7.6304846 -0.13358071 20
0.59289467 -7.3851104 0.12932234 22
0.86841279 -10.888434 0.57245076 14
3.2890017 -41.512844 3.6432843 16
2.560426 -32.606003 4.0158386 78
2.5361254 -32.514713 5.1654663 31
2.5156224 -32.471127 6.3306613 71
0.36897936 -4.7953162 1.1103585 4
0.36349106 -4.7674961 1.2811544 6
0.22365245 -3.0383096 -0.81631529 7
0.24928676 -3.4109418 -0.78957826 26
0.27818578 -3.8339729 -0.74720806 16
0.31762192 -4.4094687 -0.70020074 20
0.39772627 -5.5758533 -0.68636823 2
0.51741523 -7.3077221 -0.64094335 11
0.73579061 -10.469773 -0.55005091 6
0.54130238 -7.7800045 -0.13612877 20
0.54026961 -7.3570657 0.12876385 22
0.79282498 -10.874174 0.57140404 14
2.9425814 -40.751835 3.5746057 15
2.3445232 -32.707821 4.02632 78
nan nan nan nan
2.2924571 -32.538815 6.3405838 57
2.2663469 -32.410255 7.5007687 83
0.3395918 -4.8932014 1.3142831 16
0.20412484 -3.0571098 -0.82097405 8
0.22464688 -3.3911703 -0.78462934 22
0.25256845 -3.8534534 -0.75064266 6
0.28913721 -4.4470606 -0.70583236 22
0.3619352 -5.6121082 -0.69051176 6
0.47526377 -7.4503403 -0.65314513 8
0.67604828 -10.685942 -0.56114614 21
0.49384335 -7.8713226 -0.13766459 20
0.49976173 -7.5242729 0.13162605 21
0.73028582 -11.082724 0.58208054 8
2.6182077 -40.053196 3.5116792 14
2.1209984 -32.798668 4.0355821 78
nan nan nan nan
2.0725391 -32.579136 6.3455439 14
2.0455317 -32.512806 7.5210142 63
0.30157322 -4.8337541 1.2977188 4
0.18254672 -3.0546033 -0.81993878 12
0.20327123 -3.4315627 -0.79362738 30
0.22485751 -3.8414032 -0.7479713 19
0.25888517 -4.4627752 -0.70802242 20
0.32696232 -5.6878252 -0.69953007 6
0.42707944 -7.5211086 -0.65907168 14
0.60625386 -10.776148 -0.56564707 14
0.45857522 -8.2279768 -0.14384274 24
0.45066038 -7.5854678 0.13263829 21
2.5589914 -43.456982 2.2814293 41
2.2956867 -39.336555 3.4473581 13
1.8972253 -32.903835 4.0467939 78
nan nan nan nan
0.28716576 -5.0727806 0.98762739 11
1.8222023 -32.592449 7.5363111 63
nan nan nan nan
0.16091251 -3.0500159 -0.81838584 13
0.17971689 -3.4406824 -0.79542702 15
0.20005521 -3.8820925 -0.75560367 16
0.22943354 -4.4980121 -0.7133413 22
0.29124928 -5.7692714 -0.7092796 2
0.37706876 -7.5477209 -0.66116345 14
0.5380823 -10.923746 -0.57318348 24
0.52133197 -10.697674 -0.18695019 14
0.41286796 -7.8779874 0.13769948 21
nan nan nan nan
1.9865766 -38.681072 3.3886151 13
1.671886 -33.003513 4.0575185 79
1.6515523 -32.943466 5.2242856 16
1.6196055 -32.648037 6.35394 87
1.6054724 -32.709202 7.560605 42
0.23881546 -4.9359026 1.3241183 21
0.14111671 -3.0838721 -0.82718569 12
0.15622036 -3.4535336 -0.7981264 15
0.1753802 -3.92259 -0.76323599 17
0.19985805 -4.5231504 -0.71709567 20
0.25243187 -5.8048792 -0.71342319 2
0.32650447 -7.5999331 -0.6655212 2
0.46659458 -10.995002 -0.57674229 17
0.44396698 -10.637118 -0.18583323 35
0.35613942 -7.8126965 0.13651273 19
1.6941726 -37.598202 1.9724379 30
1.6871688 -38.033176 3.330744 12
1.452245 -33.12915 4.0716548 79
1.4270221 -32.948029 5.2233477 32
1.3950665 -32.738968 6.369586 72
1.3805219 -32.801388 7.5795012 43
nan nan nan nan
0.12102456 -3.1079259 -0.83339739 17
0.13383137 -3.4837265 -0.8048749 31
0.14836107 -3.9335282 -0.76514411 16
0.16967115 -4.5619416 -0.72304016 19
0.21487743 -5.8600249 -0.72000414 6
0.27916935 -7.7613153 -0.67946619 5
0.39718145 -11.205576 -0.58762819 14
0.38872117 -11.131518 -0.1944198 21
0.31307763 -8.1127253 0.14171354 17
1.4304352 -37.577179 1.970763 91
1.408218 -37.510193 3.2840283 25
1.2232635 -33.201965 4.0794549 79
nan nan nan nan
1.1821631 -33.026306 6.4237757 59
1.1555926 -32.927082 7.6064959 43
0.16967024 -4.907835 1.3158361 10
0.099694349 -3.1202803 -0.83650321 25
0.1083445 -3.4475682 -0.79632682 17
0.1221625 -3.9756768 -0.77315807 17
0.14014445 -4.6400199 -0.73524207 21
0.17519888 -5.9030504 -0.72512263 4
0.22734568 -7.8447289 -0.6866129 5
0.32791975 -11.523515 -0.60416633 14
0.30039045 -10.754168 -0.18778789 38
0.3393006 -10.737004 0.18750866 10
1.1711642 -37.686062 1.9759965 30
1.1490513 -37.608727 3.2918723 63
0.99463892 -33.316841 4.0926166 80
nan nan nan nan
