# .PCD v0.7 - Point Cloud Data file format
VERSION 0.7
FIELDS x y z intensity
SIZE 4 4 4 4
TYPE F F F F
COUNT 1 1 1 1
WIDTH 1425
HEIGHT 1
VIEWPOINT 0 0 0 1 0 0 0
POINTS 1425
DATA ascii
1.5392867 4.5061555 -0.41660443 21
1.8661356 5.4536476 -0.30208316 2
2.4989176 7.2904444 -0.13452315 17
4.0514536 11.962632 0.22045881 40
3.9507468 11.645207 0.64446503 8
3.952966 11.631728 1.0748047 16
10.137827 29.762663 3.8605773 49
10.166229 29.794928 4.9861927 28
10.167601 29.747976 6.1108489 25
10.212843 29.812279 7.2753677 19
10.181817 29.671036 8.4054079 19
0.83842212 2.4225864 -0.68690574 34
0.91532975 2.6403341 -0.64515966 22
1.0193682 2.9338212 -0.60371965 31
1.1414864 3.279747 -0.55002367 23
1.3187321 3.7826331 -0.49186471 19
1.5600704 4.4673591 -0.41398975 18
1.8850322 5.3858166 -0.29904768 2
2.5041075 7.142611 -0.13211471 13
4.1479626 11.971846 0.2211569 25
4.0640373 11.709798 0.64959395 20
4.0406165 11.622666 1.0765477 18
10.358425 29.728655 3.8654523 49
10.383102 29.74934 4.9905729 14
10.393822 29.730013 6.1219158 38
10.394906 29.683218 7.2609701 18
10.405987 29.648447 8.419384 19
0.85467005 2.4148531 -0.68638813 45
0.94480997 2.6651044 -0.65280801 27
1.0314311 2.904614 -0.59914029 32
1.1644465 3.2737622 -0.55033648 26
1.3377756 3.7527664 -0.4891836 24
1.5731307 4.4056969 -0.40928334 15
1.8967596 5.3032799 -0.29517484 2
2.5154512 7.0176573 -0.13012515 19
4.2039909 11.871705 0.21983051 36
4.1636796 11.738335 0.6527341 23
4.1376767 11.639229 1.0807312 18
10.595169 29.754704 3.8781266 24
10.599959 29.718906 4.9974561 14
10.618966 29.706642 6.1322198 26
10.617647 29.653957 7.2717681 37
10.657107 29.715136 8.458725 78
0.86714607 2.3980792 -0.68328232 30
0.94832897 2.6183016 -0.64291012 28
1.0644099 2.9324062 -0.60639101 26
1.1730974 3.2265675 -0.54376626 16
1.3592114 3.7323823 -0.48772117 15
1.5880648 4.3537078 -0.40544853 15
1.9117941 5.2298813 -0.29182532 2
2.5177796 6.8764405 -0.12782143 16
4.2854075 11.838305 0.21976072 21
4.2393999 11.692082 0.65179205 20
4.2045641 11.577086 1.0775936 16
10.857633 29.831104 3.8978693 37
10.826122 29.696146 5.0062165 29
10.838436 29.681622 6.1421423 39
10.867445 29.712772 7.3041611 57
10.877609 29.676281 8.4690771 58
0.89056259 2.4100876 -0.68845868 45
0.97064352 2.6225829 -0.64560956 34
1.0631922 2.8680265 -0.59456086 31
1.1950343 3.2185073 -0.54376626 26
1.3700072 3.6818712 -0.4823589 24
1.6093733 4.3182449 -0.40318248 22
1.9312836 5.1737103 -0.28941786 2
2.5376959 6.7837787 -0.12642524 16
4.383225 11.855751 0.22063331 25
4.3244362 11.677938 0.65262944 17
4.3109274 11.616567 1.0840431 18
11.065262 29.769539 3.8995755 75
11.045912 29.669903 5.0143509 14
11.057741 29.63834 6.1490111 39
14.707034 39.356701 9.6998901 43
8.1105852 21.669691 6.1997514 25
0.9001267 2.3858955 -0.68328232 29
0.98296052 2.6013319 -0.64201033 33
1.0977877 2.8990915 -0.60257488 25
1.2188742 3.2137806 -0.54439199 15
1.3922157 3.6650383 -0.48138395 16
1.6338106 4.2920079 -0.40178797 21
1.9474335 5.1078477 -0.28648707 2
2.5788226 6.7532706 -0.1261809 19
4.4786038 11.858534 0.22126161 31
4.3980851 11.626914 0.65147805 20
4.3891993 11.58509 1.0838689 24
11.28552 29.72496 3.9039629 75
11.279472 29.662224 5.0262399 14
11.284382 29.628431 6.1627488 26
4.2199569 11.056767 2.7322557 12
8.0843945 21.148787 6.0667186 24
0.91815156 2.3831582 -0.68431759 34
0.99829239 2.5871336 -0.64021075 30
1.1144602 2.882201 -0.60066676 22
1.2348604 3.1886141 -0.54157621 15
1.4120257 3.6404235 -0.47943404 20
1.6745616 4.3083534 -0.40440264 20
1.9663811 5.0513196 -0.28407961 11
2.5794175 6.6158638 -0.12394699 13
nan nan nan nan
4.5986066 11.905203 0.66885358 6
4.4764357 11.570889 1.0854375 21
11.51142 29.693573 3.9103003 75
11.504153 29.62879 5.0340614 29
4.3084846 11.079248 2.3106971 6
4.213552 10.812777 2.6791673 36
8.0506306 20.627523 5.9331684 22
0.92557359 2.3533194 -0.67758828 33
1.0134715 2.572849 -0.6384111 34
1.1215813 2.8414793 -0.59379762 30
1.2331271 3.1192927 -0.53125149 17
1.4352156 3.6249392 -0.47870281 23
1.7016578 4.2891502 -0.40370542 15
1.9809455 4.9854984 -0.28114879 7
2.5723035 6.4639211 -0.12143384 26
3.7917602 9.6308794 0.18066731 1
4.6515703 11.79663 0.66456205 9
4.5907707 11.624599 1.0934559 17
13.794332 34.858307 4.6030054 15
11.716544 29.562447 5.0365648 14
4.3915224 11.063498 2.31375 29
4.1636176 10.468025 2.6008842 32
8.0078468 20.102398 5.7980642 28
0.93190569 2.3217008 -0.67034137 33
1.0343162 2.5729434 -0.64021075 23
1.1369886 2.822654 -0.59150791 32
1.2763058 3.1637337 -0.54032475 13
1.4471022 3.5817013 -0.47431552 26
1.7173569 4.2420764 -0.40039349 17
2.0134535 4.9659934 -0.28083476 4
2.577497 6.3476071 -0.11958389 18
4.253294 10.585743 0.19913197 3
5.7090578 14.187422 0.8014729 3
4.6576638 11.557156 1.090144 23
14.052962 34.799812 4.6081238 15
4.4800587 11.077409 1.8925444 22
4.4671736 11.028933 2.3129869 14
4.1493878 10.223825 2.5473459 22
4.1907496 10.310243 2.9821131 32
0.957609 2.3383791 -0.67707068 60
1.0352459 2.5241909 -0.62986302 24
1.1469657 2.7910409 -0.5865469 25
1.2863314 3.1255193 -0.53531879 15
1.4637492 3.5513237 -0.47163439 30
1.70818 4.1382065 -0.39167792 21
2.0938747 5.0625539 -0.28711507 14
2.6339927 6.3590178 -0.12014236 15
4.1329236 10.082123 0.19019634 5
4.7741117 11.628911 0.65880507 9
4.7753634 11.614648 1.0986853 17
8.8914413 21.582954 2.8661234 48
nan nan nan nan
4.2456717 10.275319 2.1611028 30
4.2121725 10.17914 2.5432968 38
4.2374649 10.220062 2.9645135 48
0.9753986 2.3352025 -0.67810595 67
1.0423132 2.4917333 -0.62356436 32
1.1591086 2.7668726 -0.58311236 31
1.3037537 3.107584 -0.53375447 17
1.4869679 3.5373583 -0.47114691 22
1.7246596 4.0967989 -0.38888893 23
2.1003511 4.9819307 -0.28334689 19
2.6534197 6.2815285 -0.11902541 15
3.8976607 9.3268023 0.17644383 5
5.0443778 12.053066 0.68476373 9
4.8671141 11.606752 1.1011256 19
9.0181618 21.474348 2.8597863 72
4.4945202 10.686825 1.836228 21
4.3363681 10.290656 2.1706433 20
4.2104011 9.9771233 2.5001061 18
4.531045 10.721259 3.1187694 16
0.98900241 2.3231761 -0.67655301 37
1.0638365 2.4953363 -0.6262638 29
1.1768557 2.7551014 -0.58234906 36
1.3207569 3.0875084 -0.53187722 19
1.4991149 3.4976981 -0.4672471 16
1.7626487 4.1066289 -0.39098063 27
2.1279821 4.9506321 -0.28240484 23
2.6726885 6.2059164 -0.11794336 7
4.4251823 10.384751 0.19703768 10
5.222466 12.237997 0.69732434 6
4.9522643 11.588013 1.1025201 17
9.1741123 21.425463 2.8617361 8
4.5503349 10.611614 1.8287191 21
4.4654484 10.393617 2.1988828 20
nan nan nan nan
4.0691385 9.443902 2.7553878 24
1.0002154 2.3036351 -0.67292953 45
1.075449 2.4733627 -0.62266457 27
1.1952776 2.7450185 -0.58196747 27
1.3396573 3.0707359 -0.53062576 17
1.5258811 3.4926043 -0.46797833 15
1.8040531 4.1234288 -0.39376962 19
2.1352892 4.8712544 -0.27874133 28
2.67576 6.0955539 -0.11619812 10
4.2959995 9.8895721 0.18820675 12
5.3449755 12.280891 0.70192993 3
5.1226311 11.753186 1.1216944 12
9.3647594 21.4555 2.8744104 8
4.6316938 10.59145 1.8309091 16
4.3386488 9.9072027 2.1023335 26
nan nan nan nan
4.0969801 9.3243399 2.7289882 31
1.0014192 2.263031 -0.6630944 33
1.0990063 2.4800477 -0.6262638 27
1.2132965 2.7328062 -0.58120424 28
1.3434072 3.0215981 -0.52374262 19
1.5558789 3.4945607 -0.46968448 27
1.8263055 4.0961761 -0.39237517 21
2.1676159 4.852581 -0.27853197 28
2.7076349 6.0529952 -0.11574436 15
4.2970114 9.7013369 0.18520494 8
5.263761 11.867179 0.68036753 21
5.2514629 11.822748 1.1318045 9
4.6851768 10.528024 1.4149032 30
4.6862249 10.515553 1.8234003 30
4.50772 10.100774 2.1500359 13
4.5575643 10.198113 2.5788391 22
4.5251226 10.106576 2.9671018 38
1.0298988 2.2841625 -0.67137665 33
1.1058671 2.4492261 -0.62041503 30
1.2262068 2.7119625 -0.57853287 30
1.3614976 3.0069861 -0.52280408 17
1.572037 3.4655356 -0.4672471 16
1.8523856 4.0778842 -0.39185223 23
2.1865375 4.8068085 -0.27675256 28
2.7216318 5.9720764 -0.11455759 17
4.2486567 9.4184904 0.18035316 7
5.3320885 11.803768 0.67879742 18
5.2632322 11.629693 1.1168137 19
4.7108426 10.394635 1.4012538 30
4.7740207 10.519387 1.8296577 12
4.6821332 10.297822 2.1988828 34
4.7368507 10.403706 2.6391258 48
4.5809836 10.047418 2.9588194 18
1.0389755 2.2630537 -0.66723549 46
1.120072 2.4363296 -0.61906534 39
1.250038 2.7140353 -0.58082259 26
1.3882484 3.0099642 -0.52499413 22
1.5955898 3.4547548 -0.4672471 24
1.8842818 4.0742226 -0.39272377 23
2.1973691 4.7424984 -0.27392641 29
2.7218187 5.866344 -0.11288217 15
4.3335061 9.4303932 0.18115598 7
5.5320811 12.022087 0.69355619 18
4.9036775 10.641791 1.0251257 7
4.7550077 10.300216 1.3929666 40
4.6906834 10.146914 1.7705256 12
4.7092385 10.173065 2.1790388 31
4.9591813 10.698304 2.7223577 24
5.1465549 11.082238 3.274061 4
1.0531117 2.2522454 -0.66620022 41
1.1370523 2.4284511 -0.61906534 41
1.2501473 2.666357 -0.57242703 32
1.4036674 2.9897163 -0.52311689 27
1.6205145 3.4453275 -0.46749085 17
1.8957002 4.0249186 -0.38923752 25
2.2219341 4.7111726 -0.27298436 24
2.7610013 5.8435817 -0.11281236 15
4.0951071 8.7540388 0.16869496 4
5.5892205 11.931698 0.69052064 9
4.9913945 10.636156 1.0279148 30
4.8773494 10.379004 1.4080786 39
4.6856232 9.9574633 1.742993 13
4.8739018 10.338837 2.2217801 14
4.8124619 10.194664 2.6026838 24
4.4144368 9.3388224 2.7678108 9
1.0671488 2.2413499 -0.66516501 39
1.1657195 2.4450805 -0.62536401 41
1.2734261 2.6662006 -0.5743351 42
1.4216163 2.9724672 -0.52186543 30
1.6445264 3.4339311 -0.46749085 13
1.9142748 3.9918261 -0.38732013 18
2.237427 4.6573458 -0.27078626 22
2.705507 5.6241379 -0.10893792 16
4.3804483 9.1920586 0.1777353 14
5.6985378 11.941872 0.69345152 15
5.1668949 10.813178 1.0484836 6
4.9060678 10.248939 1.3951604 16
4.6679578 9.7384233 1.7104547 9
3.4371967 7.1611533 1.5440264 22
4.8379316 10.065971 2.5783892 22
4.4669042 9.2774048 2.7590113 18
1.074344 2.2164612 -0.65998858 33
1.1708483 2.4123385 -0.61906534 31
1.2803886 2.634516 -0.56937408 24
1.4305792 2.939631 -0.51779813 31
1.6441026 3.3724048 -0.46066615 20
1.9202455 3.9336033 -0.38296232 22
2.2594268 4.622272 -0.26963487 22
2.749979 5.6158905 -0.10914735 7
4.405396 9.0846586 0.17623441 17
5.7369432 11.814771 0.68832254 9
5.1211109 10.527803 1.0242543 7
4.8800969 10.018996 1.3683491 14
4.9419646 10.132534 1.7855432 6
3.6637936 7.4985938 1.6222582 48
4.6999846 9.6065855 2.469063 36
7.6941228 15.705651 4.6861777 33
1.0953873 2.2212255 -0.66361207 58
1.1863786 2.4025657 -0.61861545 33
1.3057135 2.639591 -0.57242703 31
1.4431757 2.9136405 -0.51498228 26
1.6767219 3.3806977 -0.46334729 24
1.940773 3.9079504 -0.38174215 24
2.2907512 4.6045966 -0.26953021 20
2.733752 5.4878573 -0.10701816 16
4.5368624 9.1917562 0.17892207 17
5.1193085 10.358133 0.6055271 25
5.1069336 10.319489 1.007346 15
5.1509538 10.390188 1.4239216 9
4.8702946 9.8111477 1.7348584 9
3.6693063 7.3820648 1.6024141 14
4.8086758 9.661602 2.4915581 14
4.528883 9.083539 2.7196705 6
1.1091346 2.2100708 -0.66257679 61
1.1917478 2.3715885 -0.61276674 29
1.3192384 2.6218734 -0.57051897 36
1.4691966 2.9160986 -0.5171724 31
1.6850777 3.3387825 -0.45920372 27
1.9671097 3.8925276 -0.38156784 28
2.3003986 4.5461273 -0.26701808 27
2.7982168 5.5203638 -0.10803039 21
4.4270506 8.8175383 0.17222033 14
5.1170306 10.178507 0.59704864 17
5.2317204 10.388577 1.0176305 41
5.0115113 9.9383526 1.366643 16
4.8425875 9.5908537 1.7016943 3
3.4726439 6.8657331 1.495561 10
4.7421789 9.3635435 2.423173 48
7.6609159 15.107031 4.538651 11
1.1250306 2.2041905 -0.6630944 63
1.2052026 2.3582156 -0.611417 43
1.3321412 2.6021147 -0.5682292 25
1.4823089 2.8917084 -0.51466948 25
1.6968861 3.3060436 -0.45627886 22
1.9814824 3.8538933 -0.3791275 28
2.3275094 4.5210776 -0.26649469 15
2.8109899 5.453198 -0.10708796 16
4.5167017 8.8416214 0.1733024 13
5.1852369 10.1372 0.59673464 23
5.1497326 10.054802 0.9883461 3
4.9729452 9.6929426 1.337638 16
4.9094257 9.5568123 1.7016943 25
3.6037097 7.0060449 1.531433 32
4.8743725 9.4601355 2.4569156 20
nan nan nan nan
1.1243671 2.1654215 -0.65377688 38
1.2333227 2.3722217 -0.61726576 27
1.3430202 2.5788209 -0.56517625 38
1.5115955 2.8988044 -0.51779813 23
1.7144142 3.2835577 -0.45481643 27
1.9907933 3.8064222 -0.37581557 20
2.339556 4.4675636 -0.26429659 20
2.8183448 5.3749986 -0.1059361 16
4.4289312 8.5224247 0.16764782 9
6.4746571 12.443012 0.73511088 6
5.209672 9.9991713 0.98642868 3
5.0864162 9.7459803 1.3498249 3
3.7400246 7.1570482 1.2790084 10
3.712605 7.0955248 1.5566198 20
3.6755993 7.0128765 1.8279524 31
5.0145926 9.5554447 2.8915267 21
1.1331409 2.1455619 -0.65015346 37
1.2434759 2.351495 -0.61411637 38
1.3582352 2.5641766 -0.56403142 28
1.5188383 2.8637488 -0.51341796 11
1.7387967 3.2729595 -0.45506018 34
1.9995407 3.7590098 -0.37250364 16
2.375385 4.4599352 -0.26481998 11
2.8350863 5.3141141 -0.1051333 21
4.034162 7.6320901 0.15068409 1
5.2412467 9.9031773 0.58720946 23
6.6190143 12.490606 1.23674 2
5.5173082 10.394054 1.4448831 27
5.0868783 9.571064 1.7167121 9
3.7023926 6.9543996 1.531433 20
3.6832182 6.9096599 1.8077067 10
nan nan nan nan
1.1448078 2.1305916 -0.64808291 37
1.2510382 2.3253753 -0.60961735 34
1.3705161 2.5442622 -0.56174171 29
1.5214696 2.8197763 -0.50747347 25
1.7512263 3.241528 -0.45237905 20
2.0304766 3.7537205 -0.37337521 15
2.4034307 4.4357996 -0.26440126 9
2.8425565 5.2397037 -0.10405125 22
4.4367156 8.2536774 0.16356395 11
5.4701061 10.159095 0.60468972 8
5.379817 9.9788895 0.99183232 11
3.6934891 6.8423829 0.95472455 20
5.1016831 9.4353733 1.6988785 13
3.635885 6.7160273 1.4844941 69
5.4540315 10.061831 2.6422751 4
5.1980309 9.5735798 2.9189613 32
1.1735477 2.1479774 -0.65584749 39
1.263501 2.3097463 -0.60781777 30
1.3839703 2.5257809 -0.55983365 30
1.5354161 2.7986953 -0.50559622 26
1.7833695 3.246623 -0.45481643 17
2.0393484 3.7080302 -0.37023759 18
2.4092853 4.3734269 -0.2616798 14
2.8867962 5.2337379 -0.10433049 18
4.1829057 7.6497421 0.15218498 11
5.5169187 10.076861 0.60207289 20
3.7810268 6.8976135 0.68818176 1
3.7146506 6.765316 0.9476561 8
5.4062929 9.8340168 1.7774086 3
3.6391349 6.6113639 1.4669396 20
3.6626964 6.6459303 1.751919 19
4.9211645 8.9146719 2.7284706 24
1.1866388 2.1363544 -0.65481222 33
1.2805425 2.3025723 -0.60826772 31
1.3915796 2.4991493 -0.5560174 24
1.5476973 2.7761016 -0.50340617 25
1.8050239 3.2323604 -0.45457271 27
2.0612965 3.6867466 -0.36954033 24
2.4233871 4.3290439 -0.26000506 8
2.9320662 5.2291546 -0.10464463 20
4.3485212 7.8256035 0.15626885 9
5.6028605 10.070492 0.603957 8
5.4546089 9.7879372 0.98032773 10
3.9501925 7.0796413 0.99542886 21
5.2524862 9.4020739 1.7057616 28
3.6756151 6.5686641 1.4631234 16
3.6709046 6.5521932 1.7339228 40
5.2085595 9.2853374 2.8527036 23
1.1983044 2.1231804 -0.65325934 45
1.28564 2.2751398 -0.60331875 30
1.4022225 2.4774139 -0.5533461 24
1.5787275 2.7858522 -0.5071606 22
1.813271 3.1958265 -0.45116034 26
2.0800936 3.6601405 -0.36832017 16
2.4525626 4.3102837 -0.25990039 6
2.9527419 5.1830139 -0.10412105 18
4.0962019 7.2518206 0.14537854 17
5.5530796 9.8190336 0.591187 8
5.5004911 9.7141733 0.97666723 5
3.7635067 6.6357541 0.93668783 16
nan nan nan nan
3.6387341 6.4001298 1.4310676 26
3.7541704 6.5924468 1.751469 27
5.2856956 9.270565 2.8594329 23
1.2111753 2.1114116 -0.65222406 45
1.3053743 2.2728684 -0.60511833 30
1.4351485 2.494792 -0.559452 20
1.5991238 2.7764747 -0.50747347 25
1.8295865 3.1727726 -0.44969791 33
2.1036005 3.6420798 -0.36797154 16
2.4546008 4.2446437 -0.25696957 21
2.9648094 5.1207385 -0.10328334 24
4.0859933 7.1172609 0.14324935 21
5.7548604 10.012062 0.60521305 5
5.4310279 9.4372339 0.95261222 17
2.5933602 4.499083 0.63762045 8
5.2795725 9.1481771 1.6729103 12
3.6607358 6.3354735 1.4222903 21
3.761054 6.4986138 1.7334729 19
5.3764338 9.2785711 2.873409 40
1.229777 2.109581 -0.65429455 42
1.3251383 2.2704327 -0.60691798 33
1.4366773 2.4575937 -0.5533461 29
1.6104858 2.7516043 -0.50497049 21
1.8466738 3.1513586 -0.44847921 27
2.1108246 3.5963757 -0.36483395 22
2.4689939 4.2015758 -0.2553995 14
2.9731057 5.0533819 -0.10234091 20
4.1234894 7.0678353 0.14283049 26
5.7944012 9.9199018 0.60207289 5
5.5571332 9.5022774 0.96307093 1
2.5735345 4.3935132 0.62518978 12
3.8963065 6.6437578 1.2198761 24
4.069695 6.9310908 1.5623442 13
3.7470582 6.3714118 1.7064788 34
nan nan nan nan
1.2444746 2.1009443 -0.65429455 42
1.3419507 2.2628021 -0.60736787 20
1.4728483 2.4795754 -0.56059688 25
1.6185483 2.7216184 -0.50152892 25
1.8716748 3.1435075 -0.44921044 22
2.1215935 3.5575941 -0.36239356 28
2.4829082 4.158514 -0.25382942 4
3.0072868 5.0307865 -0.10230601 20
4.1339855 6.9735079 0.14150412 32
4.2182231 7.107121 0.43313241 5
2.6157422 4.4019103 0.44798052 11
2.5401831 4.2679725 0.60983425 13
4.0083203 6.726696 1.2402126 8
4.08077 6.8401251 1.5482242 23
3.8884079 6.5073624 1.7501193 23
6.0529313 10.11772 3.1591454 7
1.2581153 2.0905495 -0.65377688 31
1.3426306 2.2283404 -0.60061932 10
1.4870799 2.4641898 -0.559452 33
1.6313802 2.7001083 -0.49965176 30
1.8709713 3.0929971 -0.44384819 24
2.1385336 3.531142 -0.36117339 29
2.4942706 4.1120486 -0.25205001 6
3.0267649 4.9840307 -0.10178243 22
4.1464553 6.8845243 0.14028244 27
2.6175714 4.3409128 0.26565734 14
2.4445803 4.0492334 0.41381544 13
2.5493762 4.2161593 0.60495949 25
5.9180765 9.7757549 1.809947 15
3.7631035 6.2087293 1.4112234 23
3.9417107 6.495738 1.7541684 23
4.1969919 6.9055614 2.1652801 18
1.262603 2.065233 -0.64860052 39
1.3754485 2.2471693 -0.60826772 24
1.4709944 2.4004431 -0.5472402 32
1.6538548 2.6956754 -0.50090319 26
1.8935597 3.0815501 -0.44409195 27
2.1579156 3.5076408 -0.36030185 31
2.5075388 4.071167 -0.25058457 14
3.0635836 4.9661841 -0.10185225 20
4.1869607 6.8459048 0.14007302 19
2.607425 4.2582688 0.2616798 9
2.3509209 3.8333526 0.39342102 13
2.5489309 4.1513438 0.59813482 11
4.474133 7.2782965 1.3531584 19
3.8176792 6.2006965 1.4154211 17
3.9603767 6.4249301 1.742471 31
4.2510047 6.8883395 2.1689036 9
1.2674615 2.0418189 -0.64394182 31
1.3907126 2.2377548 -0.60826772 42
1.4949777 2.4017832 -0.54991156 25
1.6663642 2.6740053 -0.499026 25
1.9144897 3.0685909 -0.44409195 17
2.1686254 3.4705245 -0.3580358 22
2.5062404 4.0061522 -0.24765378 20
3.0760899 4.9113197 -0.10115415 20
4.2536502 6.8470812 0.14070129 8
2.4482763 3.9363797 0.24294353 16
2.3379946 3.7546821 0.38697147 15
2.5400336 4.0728102 0.58936024 11
4.2821169 6.8581495 1.2805728 80
4.1688695 6.6690001 1.5287617 39
4.0516672 6.4714546 1.7627167 14
5.4665885 8.7212572 2.7579758 27
1.2827145 2.0345552 -0.64445943 35
1.3886173 2.1999772 -0.60061932 18
1.4707953 2.3265688 -0.53502846 19
1.678653 2.652292 -0.49714881 26
1.923116 3.0350282 -0.44116706 26
2.1927998 3.4553013 -0.3580358 28
2.5245056 3.9733863 -0.24671172 16
3.1167395 4.8998494 -0.10136358 22
2.6943426 4.2702756 0.088134654 12
2.4938293 3.9478989 0.24472295 13
2.384382 3.7702634 0.39028341 32
2.5981488 4.1019325 0.59618485 25
4.3415308 6.8464355 1.2840142 14
3.9238551 6.1806188 1.4230535 27
4.0852461 6.4249215 1.7577677 19
4.2699952 6.7077208 2.1305985 12
1.301055 2.032058 -0.64653003 30
1.39553 2.1771035 -0.59702015 38
1.529426 2.3823285 -0.55029315 16
1.6949927 2.6371846 -0.49652308 20
1.9302932 2.9998269 -0.43799844 16
2.188807 3.3963652 -0.3535037 19
2.5435209 3.9422395 -0.24587436 12
3.1389358 4.8594942 -0.10097963 11
2.5536313 3.9853356 0.082619689 17
2.3822145 3.7135315 0.23122028 15
2.3406622 3.6445577 0.37895316 13
2.5966518 4.0369482 0.58936024 11
4.1913624 6.5087118 1.2261335 17
4.0743489 6.3197322 1.461597 24
4.186029 6.4830108 1.7816125 74
5.9978957 9.2784309 2.9603724 28
1.3183688 2.0277843 -0.64808291 34
1.4138844 2.1722076 -0.59836984 21
1.5481659 2.374882 -0.55105644 24
1.7273974 2.6467922 -0.50059032 23
1.9490173 2.9829543 -0.43751097 19
2.2157378 3.3860033 -0.35402662 17
2.5392408 3.875937 -0.24283887 20
2.6606209 4.0565786 -0.084679075 12
2.5497634 3.9188042 0.081607454 11
2.4146225 3.7068512 0.23184831 15
2.3453708 3.5964196 0.37564126 20
2.5715816 3.937284 0.57741702 22
6.5199118 9.9710655 1.8869127 3
4.1742854 6.3765488 1.4814411 10
4.0826645 6.2271013 1.719076 17
5.7869039 8.8164282 2.8257864 40
1.3239779 2.0056336 -0.64394182 33
1.4343871 2.1704125 -0.60061932 38
1.5484542 2.3394587 -0.54533213 23
1.7632917 2.6610148 -0.50559622 16
1.9752816 2.9775457 -0.43872967 17
2.2382202 3.3687925 -0.35385233 15
2.5330541 3.8082261 -0.23969871 14
2.6013162 3.9064157 -0.0819216 22
2.4767551 3.7490766 0.078431122 10
2.4073873 3.6399288 0.22870816 15
2.3737192 3.5849423 0.37616417 36
2.5606079 3.8613315 0.56888616 15
6.2921815 9.4776716 1.8018124 3
4.182838 6.2932949 1.4688478 7
4.1692324 6.2633357 1.7370722 38
6.8317814 10.251577 3.3009782 20
1.3282679 1.9818985 -0.63928306 30
1.4277879 2.1279819 -0.59162134 33
1.5669389 2.3318508 -0.54609537 32
1.7553635 2.6093037 -0.49808741 23
2.0137632 2.990027 -0.44262949 15
2.2371731 3.3167458 -0.35001746 28
2.5394595 3.7606552 -0.23781461 14
2.5568476 3.7821338 -0.079687685 11
2.3881414 3.560636 0.074835919 32
2.3648252 3.5218856 0.22232316 30
2.3642335 3.5170236 0.37076053 17
2.5342877 3.7643211 0.55718666 20
6.3648148 9.4433441 1.8036896 15
4.2025099 6.2281384 1.4604521 25
4.1746674 6.1775646 1.7213256 44
6.1735702 9.1251869 2.95209 18
1.3420718 1.9725772 -0.63928306 35
1.4568708 2.1389 -0.59747005 29
1.5864979 2.3257205 -0.5472402 33
1.7612814 2.5790422 -0.49464583 26
2.0301054 2.9693415 -0.44165453 17
2.2771583 3.3257055 -0.35263211 14
2.5825911 3.7675455 -0.2393847 12
2.5594285 3.7295671 -0.078954689 16
2.4613347 3.6149526 0.076336823 15
2.3938549 3.5118914 0.22274184 24
2.3842371 3.4938498 0.37006328 32
2.5045035 3.6645904 0.54499972 13
6.6090641 9.659524 1.8537486 4
4.4955187 6.5630813 1.5463161 20
4.2077684 6.1338081 1.7172765 46
6.3880458 9.3016281 3.023524 28
1.3525178 1.9583904 -0.63773018 45
1.4595778 2.1110442 -0.59252113 38
1.583696 2.2871487 -0.54075271 41
1.7769929 2.5634365 -0.4940201 26
2.0496542 2.9534657 -0.44141081 13
2.2866743 3.2900956 -0.3505404 10
2.5609181 3.6805677 -0.23498847 22
2.6174049 3.7575531 -0.079932027 1
2.4899209 3.6026175 0.076441541 11
2.3762648 3.4343247 0.21886899 30
2.352978 3.3968668 0.36152202 17
2.5684972 3.702472 0.55328691 15
3.185487 4.5867295 0.8844806 3
4.2722511 6.1446738 1.4547279 20
4.5288835 6.5040898 1.8297521 19
6.2363014 8.9461823 2.9220672 40
1.3606114 1.9409914 -0.63514197 28
1.4809957 2.1103747 -0.59522051 33
1.6120436 2.2937047 -0.54495054 32
1.7925733 2.5477359 -0.49339435 26
2.0416462 2.8985109 -0.43531734 17
2.2998321 3.2614272 -0.34914589 5
2.5635083 3.6299706 -0.23289503 18
3.2588685 4.609489 -0.09853629 6
2.4759655 3.5294869 0.075254776 23
2.3714864 3.37679 0.21625218 20
2.3777809 3.3819869 0.3616963 15
2.5371377 3.6032958 0.54109991 12
2.9522495 4.1881862 0.81158209 16
4.5414348 6.4355135 1.5310514 12
4.467351 6.3235021 1.7874613 46
nan nan nan nan
1.3786086 1.9377416 -0.63721251 41
1.4956927 2.0999839 -0.59522051 33
1.6173598 2.2682929 -0.54151595 41
1.822497 2.5531619 -0.49683592 23
2.0514407 2.8696537 -0.43312368 19
2.3005126 3.2145088 -0.34583399 11
2.5997896 3.6286731 -0.23394175 22
2.5658622 3.5760393 -0.0768255 11
2.4349995 3.4213169 0.073300108 25
2.3735554 3.331291 0.2143681 16
2.4210074 3.3928757 0.36465961 16
2.5569906 3.5794818 0.54012495 12
2.9990766 4.1937013 0.81658798 13
4.3896332 6.129118 1.4654131 21
7.6669765 10.693346 3.0377393 19
6.3241315 8.8106985 2.9060204 30
1.3668933 1.8938508 -0.62582451 35
1.5076698 2.0865955 -0.59432071 34
1.6354579 2.2601273 -0.54227924 30
1.822894 2.5163803 -0.49214289 22
2.0744226 2.8604445 -0.43385491 17
2.3071227 3.1778154 -0.34356794 19
2.6156626 3.5975113 -0.23310436 16
2.8384476 3.8996291 -0.084190413 15
2.4834135 3.4382761 0.074033104 23
2.4049463 3.325968 0.2151008 11
2.3926415 3.3053055 0.35698992 18
2.5865781 3.5679719 0.54109991 13
2.9435802 4.0559559 0.79374862 9
4.5108752 6.2086902 1.4917448 20
7.653616 10.522714 3.0039966 38
nan nan nan nan
1.3972044 1.9076399 -0.63358909 38
1.5222002 2.076019 -0.59432071 30
1.6612597 2.2631865 -0.54571378 27
1.8376409 2.5007305 -0.49151716 30
2.0990479 2.8522878 -0.43482983 12
2.3268886 3.1584234 -0.34321931 17
2.6709123 3.6214151 -0.23582584 18
2.8038239 3.7960758 -0.082375363 12
2.5008485 3.4132283 0.073858589 25
2.4157152 3.2934177 0.21405408 26
2.4050429 3.2740695 0.3554211 23
2.6084528 3.5470848 0.54061246 13
2.8516662 3.8735657 0.76183593 25
4.7603207 6.4567442 1.5592911 39
4.60813 6.2434707 1.7915102 10
3.5439522 4.7963781 1.5979488 8
1.3813536 1.8593177 -0.62064809 28
1.5235021 2.0484099 -0.5893718 29
1.6758463 2.249959 -0.54533213 30
1.8432465 2.4720044 -0.48838848 27
2.088728 2.7981646 -0.42873639 15
2.3292508 3.1169753 -0.34043032 13
2.641082 3.529124 -0.23101093 22
2.9303124 3.9113345 -0.08530736 13
2.5222321 3.3924754 0.073788777 13
2.3742557 3.1899533 0.2084018 21
2.4522722 3.2911739 0.35908166 11
2.5963483 3.4794683 0.53305656 16
2.8916416 3.8709724 0.7652775 16
4.8041573 6.4241943 1.5592911 13
4.6295023 6.1838775 1.7834121 12
3.5680802 4.7591543 1.5938078 10
1.3815088 1.8326597 -0.61495411 65
1.543635 2.0455015 -0.59162134 23
1.6804718 2.2244015 -0.54189759 45
1.8504977 2.4467962 -0.4858855 26
2.0974238 2.7692735 -0.42654276 15
2.3401194 3.0863509 -0.33886153 17
2.6445131 3.4840212 -0.22923151 20
2.590879 3.4084139 -0.074731201 7
2.3911514 3.1708636 0.069320954 18
2.4067428 3.1880658 0.20934384 16
2.4163129 3.1960974 0.3505404 35
2.5456996 3.3635769 0.51794475 21
3.0312543 4.0007749 0.79500008 13
4.7088609 6.2059445 1.5142603 31
4.6631279 6.1389942 1.7798128 8
nan nan nan nan
1.3927779 1.8216789 -0.61443645 34
1.5539691 2.0303044 -0.59027159 42
1.6947657 2.2110572 -0.54151595 41
1.8555092 2.4181459 -0.48275682 25
2.1191251 2.7577114 -0.42703021 26
2.3482475 3.0525663 -0.3369441 16
2.6858339 3.4876263 -0.2306969 20
2.5962915 3.3664923 -0.074207634 16
2.4253809 3.1699746 0.069670007 23
2.3937216 3.1252036 0.20630836 21
2.4077024 3.1400497 0.34618258 18
2.567909 3.3441491 0.51770103 13
2.9423308 3.8276029 0.76465172 34
4.778419 6.2071443 1.5226558 28
4.7284741 6.1356173 1.788361 17
7.2537379 9.4021864 3.1819215 1
1.4164368 1.8254021 -0.61909521 24
1.5732398 2.0252886 -0.59207124 36
1.706544 2.1945229 -0.54037106 27
1.8788339 2.4125988 -0.48432118 23
2.1249015 2.7256279 -0.42434907 16
2.3572431 3.0203912 -0.335201 14
2.7058008 3.4620245 -0.23027822 13
2.5408678 3.2474897 -0.071973726 9
2.4977274 3.2177291 0.071101107 23
2.4552486 3.1584542 0.20965785 5
2.3885074 3.0692797 0.34025604 19
2.5362949 3.2556713 0.50673276 25
2.9732902 3.8111222 0.76559031 18
4.9424767 6.3283629 1.5608176 10
7.3758411 9.4338655 2.7646487 2
7.2541389 9.2648592 3.1529336 1
1.4279509 1.8139509 -0.61857754 42
1.5788974 2.0035415 -0.5889219 24
1.7246363 2.1853373 -0.54113436 29
1.8809353 2.3808239 -0.48056671 16
2.1488025 2.7169557 -0.42532405 30
2.3676627 2.9893892 -0.33363217 30
2.7112932 3.4195735 -0.22870816 11
2.7350407 3.4458175 -0.076790586 34
2.4612899 3.1243749 0.069425672 29
2.4191113 3.067528 0.20473827 15
2.3827159 3.0181262 0.33642116 14
2.5619893 3.2405529 0.50722027 27
2.9936953 3.7825274 0.76402605 15
4.9584951 6.2583117 1.5520406 24
7.3765445 9.2968769 2.7399039 2
7.2417436 9.1171761 3.1198049 1
1.4454019 1.8099761 -0.62064809 50
1.5843283 1.9818152 -0.58577257 39
1.7472128 2.1824396 -0.54342401 33
1.8913339 2.3599274 -0.47900239 17
2.1490843 2.6786625 -0.42166796 26
2.4046974 2.9929781 -0.33589822 14
2.6975477 3.3538725 -0.22556801 18
2.8581045 3.5496864 -0.079548068 14
2.4880357 3.1133645 0.069565296 5
2.4679167 3.0848756 0.20704105 26
2.399992 2.9967527 0.33589822 21
2.5696461 3.204005 0.50429535 23
3.0051887 3.7430511 0.76027155 13
5.2050014 6.4760337 1.6150075 5
7.3545108 9.137372 2.7079608 2
7.3209696 9.0859556 3.1265342 3
1.468946 1.8133519 -0.62530684 38
1.5981245 1.9707068 -0.58577257 29
1.7525053 2.1579964 -0.54037106 45
1.916486 2.3573954 -0.48119247 27
2.1589615 2.6528163 -0.41996178 16
2.3915474 2.9344189 -0.33119181 19
2.7272074 3.3426971 -0.22609136 22
2.6386805 3.2307358 -0.072811447 18
2.5109696 3.0974722 0.069600195 21
2.6089547 3.2149017 0.21698491 6
2.4861817 3.0603378 0.34496242 11
2.5932064 3.1875262 0.50453913 17
2.8765676 3.5320499 0.72147578 22
nan nan nan nan
3.5975246 4.406291 1.3132644 5
3.6040876 4.409615 1.5259972 3
1.4742118 1.7940962 -0.62220097 45
1.6118445 1.9595011 -0.58577257 39
1.7700237 2.1487405 -0.54113436 37
1.9291257 2.3393872 -0.48025388 27
2.157208 2.6131866 -0.416062 15
2.4043586 2.9084377 -0.33014596 14
2.741564 3.3128052 -0.22535865 16
2.8040521 3.3847044 -0.076720782 21
2.4601386 2.9918263 0.067610621 19
2.434588 2.9575961 0.20076075 26
2.4948158 3.0275304 0.34321931 10
2.6116045 3.1647525 0.5038079 18
2.8571212 3.4585803 0.71052545 13
nan nan nan nan
7.501265 9.057806 2.7151594 6
7.4175296 8.947156 3.1141109 31
1.4730957 1.7674366 -0.61650699 37
1.6229882 1.945208 -0.58487278 31
1.7786888 2.1287973 -0.53922629 41
1.9378074 2.3167701 -0.47837666 22
2.1792231 2.6026275 -0.41679317 12
2.3985023 2.8614657 -0.32665971 18
2.7273865 3.2492216 -0.22232316 12
2.7941661 3.3252413 -0.075813256 14
2.7076707 3.246392 0.073788777 18
2.4577353 2.9435947 0.20097008 11
2.6257761 3.1415102 0.35821009 7
2.6578436 3.1753652 0.50843894 13
3.1006804 3.7004912 0.76465172 16
7.6067472 9.0685835 2.3007751 10
7.5840449 9.0319118 2.7228079 34
7.4089384 8.8108778 3.0846055 26
1.4991169 1.7733388 -0.62220097 25
1.6251981 1.9204426 -0.58082366 34
1.7829845 2.1046581 -0.53617334 24
1.9573642 2.3080468 -0.47931525 17
2.2114749 2.6039941 -0.4194743 11
2.4210017 2.8476872 -0.32700834 17
2.7494402 3.2305815 -0.22232316 21
2.6460946 3.1047573 -0.071205825 30
2.4559615 2.9041803 0.066388957 23
2.5048161 2.9588077 0.2031682 3
2.5252469 2.9787254 0.34165049 11
2.652422 3.1254163 0.5033204 30
3.01069 3.5438099 0.73649353 22
7.683866 9.0317068 2.3049729 68
nan nan nan nan
7.3847656 8.661747 3.0499237 15
1.518697 1.7718936 -0.62530684 13
1.6331576 1.903419 -0.57902408 38
1.802752 2.0981152 -0.53769976 22
1.9515314 2.2688665 -0.47399649 41
2.2084231 2.5648131 -0.41557449 11
2.426019 2.8145428 -0.32509091 19
2.7497406 3.1856055 -0.22054374 17
2.569109 2.9731932 -0.068587959 20
2.4683642 2.8778579 0.066179529 24
2.5045927 2.9170048 0.20149344 10
2.5415695 2.9569335 0.34112757 10
2.7000768 3.1369128 0.50819516 15
3.2635891 3.7875814 0.79187137 13
2.9659879 3.4385557 0.8826825 7
3.6144893 4.1859488 1.2768222 15
7.383141 8.5383768 3.0245595 35
1.5234249 1.7525005 -0.62220097 11
1.6528015 1.8993223 -0.58127356 28
1.8131242 2.0813539 -0.53655493 21
1.9734225 2.2629731 -0.47556084 28
2.2119131 2.5328846 -0.41289338 12
2.4390538 2.7900362 -0.32421938 16
2.7950366 3.1938684 -0.22242783 15
2.6372488 3.0093272 -0.069844536 10
2.5128274 2.8896596 0.06684272 13
2.4837377 2.8531892 0.19824862 26
2.454793 2.8159673 0.32683402 14
2.7774894 3.1827762 0.51867592 8
3.1983209 3.6611443 0.76997054 16
7.9059048 9.0372047 2.3339758 2
3.8554635 4.4025092 1.3510562 3
9.9880981 11.393254 4.0598359 12
1.5187135 1.7232491 -0.61547172 12
1.6618239 1.883644 -0.57992387 30
1.7964129 2.033335 -0.52739608 29
1.9957151 2.2565403 -0.4771252 22
2.1843615 2.4672372 -0.40460625 12
2.4478984 2.7610135 -0.32282487 13
2.8305233 3.1892154 -0.22347455 20
2.5819671 2.906095 -0.067854956 28
2.4906151 2.8240528 0.065725766 25
2.4414701 2.7654085 0.19332905 31
2.492377 2.8200922 0.32927439 21
2.6864979 3.0354676 0.49771443 15
3.1805739 3.5899341 0.75964588 10
3.1290553 3.5280578 0.91664648 1
8.605588 9.6893082 2.9918492 2
3.7378857 4.2041702 1.5073622 3
1.5294189 1.7111651 -0.61495411 20
1.6866293 1.8850663 -0.58397299 27
1.8302159 2.0426769 -0.53312039 36
1.9929546 2.2219651 -0.472745 27
2.221426 2.4740832 -0.40826234 19
2.4631164 2.7394133 -0.32230192 12
2.7965991 3.1070302 -0.21907835 15
2.5566795 2.8374896 -0.06666819 34
2.5262661 2.8244832 0.066144623 13
nan nan nan nan
2.5239713 2.8159778 0.33084321 14
2.6678467 2.9723184 0.49040228 23
3.1184244 3.4706619 0.73899657 19
9.0892744 10.105293 2.6419415 2
nan nan nan nan
nan nan nan nan
1.5452209 1.7047392 -0.61650699 20
1.6853428 1.8573712 -0.57902408 34
1.8510324 2.0371156 -0.53502846 39
2.0004432 2.19923 -0.47086781 25
2.2493377 2.4702556 -0.41021225 13
2.4929209 2.7339284 -0.32369643 15
2.839766 3.1110325 -0.2207531 19
2.5750775 2.8180952 -0.066633284 28
2.5486102 2.8097401 0.066214427 14
2.5402608 2.7975905 0.19803928 5
2.514086 2.7658532 0.32700834 19
2.741981 3.0123425 0.50015181 11
5.0052381 5.4929786 1.177013 5
8.7745838 9.6195107 2.5308907 2
nan nan nan nan
nan nan nan nan
1.5610067 1.6981767 -0.61805987 32
1.6982687 1.84556 -0.57902408 24
1.8545668 2.0125926 -0.53197551 27
2.0036936 2.172143 -0.46805197 14
2.2422864 2.428242 -0.40582496 12
2.5119467 2.7164578 -0.32369643 15
2.8654859 3.0955284 -0.22106709 19
2.5878942 2.7927141 -0.066458762 31
2.6033614 2.8301454 0.067121953 6
2.6057293 2.829742 0.20159812 15
2.4698656 2.6793816 0.31881571 16
2.7023535 2.9274876 0.4891836 30
3.0888205 3.3426383 0.72085011 16
3.1542599 3.4098718 0.90290827 16
nan nan nan nan
3.2668457 3.5229373 1.287366 24
1.5728241 1.6872374 -0.61805987 27
1.7004755 1.8222609 -0.57542485 25
1.8578486 1.9881206 -0.52892256 34
1.9621315 2.0975132 -0.4549115 13
2.257827 2.4110796 -0.40558121 15
2.5240352 2.6915882 -0.32282487 22
2.8050094 2.9880774 -0.21478678 36
2.8004115 2.9800508 -0.07138034 15
2.5766785 2.7621851 0.065935194 23
2.6022458 2.7866666 0.1998187 8
2.5891943 2.769779 0.33171475 13
2.6576078 2.8389885 0.47748414 14
4.9801402 5.3144531 1.1535479 5
3.2706687 3.4865658 0.92923987 28
3.0994678 3.2994449 1.0451227 4
3.0637314 3.2579827 1.1983322 4
1.5752745 1.6663897 -0.61443645 30
1.7131549 1.8103456 -0.57542485 30
1.864931 1.9679768 -0.52701449 41
2.0161526 2.1253242 -0.46398467 11
2.270504 2.39094 -0.40485001 13
2.5235429 2.6536887 -0.3203845 18
2.8368187 2.979995 -0.21562417 24
2.901161 3.0443912 -0.073404826 10
2.5780356 2.7252429 0.065481432 11
2.5090277 2.6495144 0.1912356 30
2.5426738 2.6822302 0.32334781 16
2.6158597 2.7555804 0.46651587 12
4.9436369 5.2022333 1.1366529 3
3.29493 3.4636474 0.92923987 22
3.3468974 3.5133612 1.1202563 16
3.3010499 3.4616024 1.2816719 22
1.5815221 1.6497734 -0.6123659 24
1.7230539 1.7955285 -0.57452506 24
1.8772634 1.9534947 -0.52663285 31
2.0186148 2.0983858 -0.46116886 10
2.2926471 2.3807511 -0.40582496 20
2.5337095 2.6274014 -0.31933865 30
2.9296861 3.0348387 -0.22106709 31
2.9501362 3.0528224 -0.074102923 13
2.5623906 2.671102 0.064608812 30
2.5689654 2.6751506 0.19437577 11
2.5530527 2.6557956 0.32230192 11
2.6006174 2.7014971 0.4604224 19
3.1718538 3.2914414 0.72397882 3
nan nan nan nan
nan nan nan nan
3.141151 3.2482195 1.2107556 42
1.5876157 1.6331506 -0.6102953 36
1.7205973 1.768093 -0.56957608 31
1.8894854 1.938935 -0.52625126 14
2.0166624 2.0672739 -0.45741442 9
2.296731 2.3519044 -0.4036313 12
2.546417 2.6039517 -0.31864139 12
2.8711619 2.9329607 -0.2151008 22
2.7908256 2.8479106 -0.069600195 27
2.5963125 2.6689162 0.064992763 28
2.6015117 2.6714609 0.19542249 42
2.8524652 2.9260952 0.35751286 8
2.7844274 2.8523118 0.48942733 13
3.154717 3.228246 0.71490556 13
3.2029352 3.2741573 0.89031488 12
3.2033434 3.2700047 1.0568202 4
3.0880063 3.1489675 1.1817677 12
1.600334 1.6234037 -0.61081296 26
1.739742 1.7629741 -0.57182562 25
1.8919368 1.9145243 -0.52319831 29
2.0143759 2.0362916 -0.45366001 10
2.2921424 2.3146548 -0.39997521 9
2.5434902 2.5648901 -0.31602672 27
2.8648336 2.8859134 -0.21311203 15
2.8698423 2.8879306 -0.071066193 28
2.6050518 2.6407604 0.064748429 33
2.5513332 2.5835989 0.19029355 28
2.6641202 2.6949883 0.33154044 13
2.7358401 2.7636776 0.47748414 27
3.1743948 3.2033386 0.71427983 66
3.2602797 3.2865629 0.89985526 17
3.2535622 3.2752118 1.0658182 9
3.2257025 3.2437685 1.225767 37
1.6116285 1.6121916 -0.61081296 26
1.756143 1.7549179 -0.57317531 31
1.8996971 1.8957233 -0.52167183 38
2.0411329 2.0347316 -0.45647582 9
2.2927721 2.2831895 -0.3972941 4
2.5768762 2.5625234 -0.31794414 18
2.8466549 2.8278368 -0.21028589 59
2.7891552 2.7678173 -0.068587959 15
2.6092815 2.6083717 0.064399377 14
2.5763743 2.5727806 0.19081691 38
2.7675045 2.7607491 0.34199914 12
2.7606928 2.7501144 0.47845906 14
3.2246857 3.2089672 0.72053725 12
3.4237711 3.4035163 0.93839866 9
3.0868742 3.0643313 1.0041816 55
3.0658274 3.0402524 1.1569211 11
1.6200938 1.5981876 -0.60977769 20
1.7655758 1.7398794 -0.57227552 29
1.915684 1.8851687 -0.52243507 27
2.0552881 2.0204322 -0.45647582 7
2.3001575 2.2587819 -0.39583167 4
2.5700788 2.5212059 -0.31498083 15
2.9619181 2.9015391 -0.21729892 17
2.698359 2.6405857 -0.065900289 34
2.6445169 2.6069381 0.064818241 6
2.6042345 2.5645409 0.19154961 31
2.6830242 2.6393642 0.32927439 16
2.7415903 2.6932137 0.47187814 31
2.9974568 2.9414833 0.66515946 27
3.2918313 3.2269762 0.89603907 20
3.1786709 3.1127832 1.0271266 28
3.1146016 3.0457888 1.167274 4
1.6284416 1.5841448 -0.60874242 44
1.7818722 1.7315853 -0.57362527 15
1.9341062 1.8775553 -0.52396154 24
2.0619028 1.9995196 -0.4549115 9
2.3244271 2.2509546 -0.3972941 6
1.9919071 1.9269252 -0.24246727 9
2.8954263 2.7980356 -0.21101859 43
2.8016262 2.7036109 -0.067959674 20
2.6665015 2.5930595 0.064922951 24
2.6545801 2.5787637 0.19395708 22
2.5884104 2.5109739 0.31550378 14
2.7555819 2.6703455 0.47114691 27
3.1806278 3.079016 0.70113939 18
3.1815944 3.0756524 0.86016703 25
3.7778692 3.6482441 1.2124863 31
3.6747229 3.5449207 1.3681176 28
1.6322181 1.5663348 -0.6061542 28
1.7837698 1.7099763 -0.57047588 27
1.9414941 1.8585764 -0.52243507 24
2.0686736 1.9782495 -0.45334715 10
2.3368242 2.232338 -0.3968066 15
2.5800929 2.462147 -0.31201756 22
2.9929683 2.8521564 -0.21667089 14
2.7301667 2.5989926 -0.065795571 5
2.649899 2.5411642 0.064085238 33
2.6133842 2.5035226 0.18966553 25
2.6831722 2.5676839 0.3249166 10
2.7669816 2.6441855 0.46992823 16
3.5749745 3.4127412 0.78279817 34
nan nan nan nan
nan nan nan nan
3.6098001 3.4339654 1.3349887 15
1.6459192 1.5575584 -0.60718954 30
1.7914152 1.6934664 -0.56912625 31
1.9640909 1.8547544 -0.52510637 18
2.0820904 1.9641238 -0.45334715 10
2.3509071 2.2146084 -0.39656287 15
2.5928662 2.4399784 -0.31149462 27
2.9846623 2.8057275 -0.21468212 33
3.0383763 2.8522284 -0.072741628 21
2.6889262 2.5436797 0.064608812 5
2.6492374 2.5035076 0.19102626 2
2.70683 2.5543578 0.32561383 24
2.7964716 2.6361835 0.47187814 12
3.3522069 3.1567516 0.72929758 13
3.5869706 3.3731089 0.95709801 23
3.174453 2.9820559 1.0055313 12
3.1217263 2.9294443 1.147086 27
1.6508349 1.5410448 -0.60511893 28
1.8029016 1.6812325 -0.56912625 51
1.9353256 1.8021975 -0.51403946 32
1.971367 1.8338315 -0.42644039 24
2.3717437 2.2039602 -0.39753783 13
2.6112964 2.4231737 -0.31166893 27
2.9294744 2.7155764 -0.20934384 40
2.9784882 2.7581134 -0.070856772 19
2.7519474 2.5671322 0.06569086 15
2.6710327 2.4890378 0.19134027 22
2.7416532 2.5521657 0.32770559 14
2.8133533 2.6152444 0.47163439 19
3.0397871 2.8227677 0.65702486 19
3.7005272 3.4327292 0.9811399 17
3.1322925 2.9015508 0.98573565 12
3.1066527 2.8747787 1.1341451 11
1.6572883 1.5255579 -0.60356599 27
1.8059874 1.6606914 -0.56642681 29
1.9449687 1.7859855 -0.51327622 42
2.1122231 1.9375312 -0.45397288 7
2.391463 2.1913719 -0.39826906 15
2.6384389 2.4142995 -0.3128891 21
2.9483626 2.6950572 -0.20934384 43
2.9592786 2.7021928 -0.069949247 15
nan nan nan nan
2.6956978 2.4770868 0.19186363 40
2.9252615 2.6852102 0.34740278 15
2.7891052 2.5566416 0.46456599 10
3.4367464 3.1469944 0.73805791 13
3.369489 3.0821655 0.88764352 13
3.8560598 3.5223007 1.2057377 7
3.1708844 2.8933866 1.1501919 1
1.656455 1.5035635 -0.59942496 26
1.8132061 1.6441157 -0.56507707 29
1.9559337 1.7710468 -0.51289463 29
2.1095824 1.9081625 -0.4505313 9
2.4081755 2.1759551 -0.39851278 13
2.6814346 2.4203124 -0.31602672 7
2.9685895 2.6757457 -0.20944853 28
3.0077925 2.7082281 -0.070647344 25
2.8452871 2.5808549 0.067052148 6
2.6833255 2.4313838 0.18977019 21
2.7016871 2.4454467 0.31881571 13
2.7744873 2.507823 0.45920372 18
3.0730369 2.7747562 0.6557734 28
3.5235868 3.1782267 0.92237073 28
3.2270133 2.9076586 1.0028318 3
3.1579766 2.8414595 1.1382862 26
1.6597139 1.4855205 -0.59683669 35
1.8202817 1.6275202 -0.56372738 43
1.9606224 1.7511532 -0.51098651 25
2.1254702 1.8963891 -0.45115703 9
2.4099684 2.1472046 -0.39631912 15
2.7116599 2.4134567 -0.31759554 3
3.0016589 2.6687491 -0.21049525 19
3.0266261 2.6871638 -0.070647344 28
2.8091393 2.5134261 0.065795571 12
2.7087471 2.4210501 0.19039823 28
2.6815317 2.3933597 0.31445792 12
2.7929752 2.490201 0.45944747 11
3.1361082 2.7931876 0.66515946 34
3.3212428 2.9539235 0.86398321 23
3.2690878 2.9044726 1.0095805 28
3.2812746 2.9122276 1.1755562 4
1.681373 1.4844173 -0.60097784 36
1.8123177 1.5983356 -0.55787861 26
1.9654334 1.7309351 -0.50907844 32
2.1208608 1.8658459 -0.44740263 10
2.415952 2.1224666 -0.39485672 15
2.7299402 2.395781 -0.31776983 4
3.0592651 2.6819608 -0.21321672 21
3.045311 2.6659701 -0.070647344 30
2.8940966 2.5532858 0.067366287 11
2.7765286 2.4469788 0.19395708 13
2.8248723 2.486958 0.32927439 7
2.7909105 2.4536026 0.45627886 7
3.4063694 2.9915173 0.71803427 37
3.3963981 2.9785602 0.87810302 7
3.8712127 3.391377 1.1881915 4
1.9407914 1.6984355 0.69104689 1
1.6875802 1.4685433 -0.59942496 33
1.838416 1.5981109 -0.56237763 35
1.9626461 1.7042992 -0.50526226 11
2.1252038 1.8428566 -0.44552541 10
2.4337125 2.1081467 -0.3953442 12
2.7255077 2.3584108 -0.31532949 9
3.0995355 2.678282 -0.21468212 22
3.1228855 2.6956038 -0.072008632 12
2.9706907 2.5842059 0.068727575 7
2.8316631 2.4597929 0.19657388 11
2.7643461 2.398778 0.32021019 29
2.8364713 2.4587629 0.46090987 15
3.3231411 2.8765664 0.69613349 13
3.3012741 2.8546157 0.84833682 51
1.9687803 1.7006061 0.60061932 2
1.9382669 1.6718862 0.68587047 6
1.6963253 1.4554681 -0.59890729 26
1.8465689 1.5827011 -0.56147784 28
1.9658422 1.6825516 -0.50297254 14
2.1275067 1.8189903 -0.44333532 12
2.4498794 2.0923953 -0.39558792 11
2.7282636 2.3276885 -0.31376067 13
3.1470454 2.6811864 -0.21667089 24
3.3000052 2.8085232 -0.075638726 14
2.9769621 2.552469 0.068448335 11
2.9064083 2.4893365 0.20055141 5
2.7704268 2.3703549 0.31898999 19
3.2811115 2.8033252 0.52988791 22
3.249985 2.7737887 0.67673558 13
1.9989482 1.704249 0.51060492 7
1.9746705 1.6817659 0.59881973 6
1.9557774 1.663321 0.68794107 7
1.6813713 1.4223797 -0.5901075 31
1.8575724 1.5697719 -0.56147784 48
1.972748 1.6653332 -0.50182766 11
2.1624901 1.8235692 -0.44802836 10
2.273104 1.9141315 -0.36487687 8
2.73225 2.2983243 -0.31236616 13
3.1178193 2.619873 -0.21342604 33
3.2751067 2.7481418 -0.07462649 9
2.8690619 2.4262624 0.065586142 2
2.8790405 2.4321165 0.19751592 17
2.7777712 2.3432465 0.31794414 40
2.9084749 2.4508991 0.46700338 6
2.0099359 1.6919239 0.41611573 7
2.0032833 1.6839359 0.50869679 5
1.9953175 1.675458 0.60151911 6
1.9803748 1.6611435 0.69259977 10
1.7102983 1.4269904 -0.59683669 28
1.8577366 1.5483569 -0.55832857 39
1.9813083 1.6490083 -0.50106448 10
2.1371939 1.7768561 -0.44020665 27
2.4097753 2.0013463 -0.38461968 12
2.7604976 2.2893689 -0.31376067 21
3.1914022 2.643913 -0.21719423 19
2.9301627 2.4249034 -0.066388957 17
3.0794508 2.5675251 0.069984153 22
2.8161449 2.3454928 0.19207297 25
nan nan nan nan
2.0322859 1.6884351 0.32441622 7
2.0292993 1.6841584 0.41768005 5
2.0177219 1.6727669 0.50946003 7
2.0219769 1.6739143 0.60601819 10
1.9815025 1.6386594 0.68897635 5
1.7246941 1.4186982 -0.59838963 25
1.8669952 1.5341123 -0.55787861 25
1.9973261 1.6388712 -0.50220931 9
2.1373255 1.7518735 -0.43770367 25
2.3591807 1.9316545 -0.37438264 8
2.7856669 2.2776091 -0.31480655 13
3.1819379 2.598829 -0.21531016 15
2.9640629 2.4182949 -0.066772908 19
2.9567249 2.4304116 0.066807814 11
nan nan nan nan
2.0549848 1.6855835 0.23253153 7
2.0332742 1.6654009 0.32271007 6
2.0532379 1.6799573 0.42018303 7
2.0354314 1.6636096 0.51098651 7
2.0200262 1.6486676 0.60196906 4
1.9749266 1.6101372 0.68276465 6
1.7210521 1.3956717 -0.59373093 28
1.876145 1.5198153 -0.55742878 14
1.9934552 1.61254 -0.49839315 10
2.1587226 1.7443587 -0.43958092 27
2.2181423 1.7904539 -0.35000879 11
2.7918003 2.2510898 -0.31376067 16
3.2140052 2.5878227 -0.21625218 17
nan nan nan nan
2.1129172 1.712229 0.047470544 1
2.0584571 1.6663119 0.13879497 7
2.0744486 1.6774598 0.23340309 6
2.0633836 1.6661314 0.32563493 8
2.0526152 1.6556616 0.41768005 6
2.0439374 1.6468962 0.51022327 4
2.0084295 1.6165522 0.59522051 9
4.20714 3.3814182 1.4462808 4
1.7111377 1.3679407 -0.58700162 25
1.8836641 1.5042483 -0.55652899 33
2.0043845 1.5989347 -0.49839315 10
2.1705451 1.7296252 -0.43958092 36
2.1839867 1.7378449 -0.34269661 28
2.830842 2.2501421 -0.31637534 15
2.15697 1.7126615 -0.14434259 2
2.1090899 1.6722431 -0.046981879 7
2.0979664 1.6765845 0.046877164 6
2.0759952 1.6572459 0.13921365 6
2.0985732 1.6728709 0.23479758 8
2.0824423 1.6582297 0.3268536 6
2.0514708 1.6318128 0.41517711 5
2.0446241 1.6240393 0.50755197 8
3.3844299 2.6853521 0.99743301 3
3.8379383 3.0419121 1.3122126 10
1.7128236 1.3502815 -0.58441341 26
1.8907974 1.4889803 -0.55562913 34
2.0124123 1.5824742 -0.49762988 10
2.1794615 1.7119884 -0.43895519 33
2.2051363 1.7302903 -0.34415907 51
2.1626992 1.6945552 -0.24037553 6
2.1452825 1.6790963 -0.14277251 6
2.1361763 1.6701663 -0.047330927 7
2.1159034 1.666847 0.047016785 7
2.1141968 1.6637094 0.14099309 9
2.0942471 1.6462357 0.23305444 6
2.0845983 1.6362979 0.32539117 6
2.0659211 1.61989 0.41580287 6
nan nan nan nan
3.4030948 2.6616588 0.99743301 24
4.1117868 3.2124791 1.3981405 30
1.7237339 1.3394761 -0.58493102 19
1.8842131 1.4625995 -0.55068022 37
2.0280654 1.5719957 -0.49877474 10
2.1569972 1.6701262 -0.43207204 21
2.2045996 1.7051384 -0.34220913 7
2.158709 1.6672357 -0.23863243 3
2.183836 1.6848172 -0.14455192 8
2.1588724 1.6637558 -0.047575258 10
2.1274889 1.6520346 0.047016785 9
2.111557 1.6378918 0.14005104 3
2.0993891 1.6266936 0.2323572 6
2.0865512 1.6144164 0.32392874 7
3.1743808 2.4534414 0.63543689 66
3.689199 2.848254 0.90596116 11
3.5450604 2.7330236 1.0334252 18
3.4376953 2.6473835 1.1626152 12
1.7453127 1.3368074 -0.58907217 15
1.8835442 1.4411204 -0.54753089 34
2.0436709 1.5613744 -0.49991959 14
2.1921592 1.6730032 -0.43676507 16
2.2038207 1.680078 -0.34025922 6
2.1924894 1.6690208 -0.24107277 6
2.1955442 1.6695312 -0.14455192 8
2.1688421 1.6474349 -0.047540355 5
2.1342063 1.6334955 0.04691207 5
2.1070735 1.6109796 0.13900432 6
2.1186116 1.6180441 0.23322876 7
2.9880211 2.2787361 0.46139738 18
3.202431 2.4395993 0.63762695 37
3.5793195 2.7237511 0.87428689 36
3.5314701 2.6834486 1.0239773 39
3.4545553 2.6221514 1.1620976 42
1.7530606 1.3234271 -0.58855456 12
1.9075619 1.4384966 -0.55158001 48
2.0419748 1.537621 -0.49686664 22
2.2211506 1.6707202 -0.44020665 7
2.2377145 1.6813457 -0.34367159 7
2.2136505 1.660848 -0.24211864 4
2.1927621 1.6433827 -0.14360988 5
2.1578791 1.6154754 -0.047051687 7
2.1391726 1.6137388 0.04677245 7
2.1086986 1.5890182 0.13837628 2
3.0196836 2.2730172 0.33066887 32
3.021312 2.2709403 0.46407849 18
3.2414999 2.4337873 0.64200711 25
4.0034628 3.0026088 0.97274429 15
3.6717832 2.7498453 1.0590696 14
3.5176373 2.63153 1.1771091 8
1.7452085 1.2984704 -0.58286053 12
1.9050461 1.4158437 -0.54798079 24
2.0368936 1.5116291 -0.49305046 9
2.2486284 1.6669378 -0.44333532 20
2.243016 1.6609582 -0.34269661 6
2.2059672 1.6311387 -0.24002692 3
2.1977556 1.6232878 -0.14319119 5
3.5513453 2.6201923 -0.07703492 17
3.1036177 2.3074718 0.067505911 29
3.0818014 2.2887473 0.20117943 16
3.0130768 2.2352612 0.32822853 23
3.0626142 2.268698 0.46797833 18
3.1853678 2.3570483 0.62761515 24
4.1490512 3.066776 1.0028921 16
3.8178928 2.8178809 1.0955118 40
nan nan nan nan
1.749557 1.2828279 -0.58130759 12
1.9101675 1.3990551 -0.5466311 27
2.0584905 1.5054837 -0.49572179 10
2.242666 1.6383795 -0.43989375 9
2.2513506 1.642917 -0.34220913 5
2.2205205 1.618046 -0.24037553 4
3.3458467 2.4353664 -0.21688022 21
3.8833208 2.8234727 -0.083806455 8
3.5906622 2.6308577 0.077698112 15
3.3555768 2.4559128 0.21792693 13
3.0688171 2.2435699 0.33258632 10
3.0655515 2.2378979 0.46602839 15
3.2623966 2.3789804 0.63950419 18
3.8244171 2.7857468 0.91969937 9
4.3370528 3.1545246 1.2381307 14
3.8541131 2.8001776 1.2764956 24
1.7504195 1.2652316 -0.57871938 11
1.9164859 1.3837399 -0.54573131 34
2.0639119 1.4879936 -0.49457693 10
2.2377357 1.6115335 -0.43676507 9
2.3011558 1.6553771 -0.34805888 3
2.9337778 2.1073565 -0.31602672 9
