# .PCD v0.7 - Point Cloud Data file format
VERSION 0.7
FIELDS x y z intensity
SIZE 4 4 4 4
TYPE F F F F
COUNT 1 1 1 1
WIDTH 1408
HEIGHT 1
VIEWPOINT 0 0 0 1 0 0 0
POINTS 1408
DATA ascii
3.1785667 -2.7330334 -0.36675134 7
3.7353394 -3.2163029 -0.25833032 8
4.9590344 -4.2744856 -0.11427836 10
6.0519557 -5.177999 0.13902587 47
5.98423 -5.125483 0.41293073 30
5.9276361 -5.0823936 0.68312669 1
5.8858228 -5.0536757 0.95253086 10
6.0251598 -5.1787968 1.2583591 100
3.7293971 -3.2089202 0.95633471 12
nan nan nan nan
5.7036242 -4.9197631 2.018271 14
1.6901407 -1.4655957 -0.59942496 12
1.8807371 -1.6325959 -0.57497495 9
2.0776403 -1.8054284 -0.53502846 10
2.3458633 -2.0406661 -0.49245578 6
2.7181954 -2.367893 -0.44262949 8
3.1534028 -2.7499197 -0.36605412 7
3.7554886 -3.2784309 -0.26126111 8
4.9892926 -4.3616471 -0.11567455 10
6.0256333 -5.2269349 0.1392353 50
5.9793644 -5.1922879 0.41502416 30
5.9130583 -5.1419554 0.68556702 1
5.87674 -5.1157799 0.95667446 10
6.0046616 -5.232666 1.2614876 91
3.7424049 -3.2658584 0.96549362 12
8.8687344 -7.7475996 2.7187586 4
7.3568997 -6.4336772 2.618731 2
1.6873802 -1.4834437 -0.60201317 12
1.8549517 -1.6324852 -0.57047588 9
2.073823 -1.8276777 -0.53731817 9
2.3448915 -2.0687551 -0.49527156 8
2.7079661 -2.3915966 -0.44360444 8
3.1490524 -2.7850664 -0.36779723 9
3.7100792 -3.2847102 -0.25969106 19
5.0313225 -4.4591713 -0.11734998 10
6.0100155 -5.2873664 0.13972397 45
5.9594574 -5.2484255 0.41617554 24
5.9197679 -5.2189765 0.69044781 2
5.8617163 -5.1750751 0.96008676 7
5.9961076 -5.2993135 1.2674322 89
3.7377329 -3.3068666 0.97007298 9
3.9061799 -3.4607611 1.2048379 1
8.5157452 -7.5526624 3.0499237 1
1.6827506 -1.5003301 -0.60408366 12
1.8420559 -1.6440977 -0.57002604 10
2.0697954 -1.8499607 -0.53960788 10
2.3377523 -2.0916607 -0.49683592 8
2.6823318 -2.4024968 -0.44214204 8
3.141398 -2.8176258 -0.36919171 7
3.72421 -3.3438897 -0.26230782 6
3.3923726 -3.0491498 -0.07961788 3
6.0102601 -5.3624773 0.1405966 43
5.9390574 -5.3045373 0.41732696 13
5.9084382 -5.2827535 0.69341105 1
5.8328395 -5.2224922 0.9613055 7
5.9986825 -5.3766427 1.2758796 78
3.5581999 -3.1925898 0.92923987 24
3.4557536 -3.1050277 1.0725666 1
7.3396068 -6.6016555 2.6451306 2
1.677967 -1.5172236 -0.6061542 11
1.844981 -1.6699951 -0.57452506 10
2.0582845 -1.865684 -0.53998947 10
2.3260188 -2.110585 -0.49746165 10
2.6537387 -2.4104867 -0.4401921 8
3.1275465 -2.844851 -0.36988899 9
3.6018317 -3.2797134 -0.25529483 2
3.3931708 -3.0929646 -0.080141447 19
5.9978828 -5.427114 0.14118996 47
5.9092817 -5.3525739 0.41785032 2
5.8950295 -5.3452864 0.69620007 1
3.5609241 -3.2333813 0.59057891 11
nan nan nan nan
3.5111394 -3.194891 0.92275238 30
3.3965409 -3.0949516 1.0608692 32
3.5196431 -3.2104976 1.2764956 1
1.6587908 -1.5210674 -0.60304838 12
1.8418911 -1.6907415 -0.57722449 10
2.0524366 -1.886651 -0.54189759 11
2.3228564 -2.1374729 -0.49996459 10
2.6572869 -2.4477832 -0.44360444 6
3.1076097 -2.8666155 -0.36988899 5
3.6228676 -3.345428 -0.25843498 4
3.3656218 -3.1111488 -0.080001831 35
5.9952102 -5.5013022 0.14202769 48
5.9188385 -5.4369345 0.42119983 2
5.8707685 -5.398448 0.69776887 1
5.8294468 -5.3679667 0.97300488 10
3.5555596 -3.2775307 0.76590323 27
nan nan nan nan
3.4578631 -3.1952968 1.0869635 6
3.4659448 -3.2061307 1.2651075 13
1.6568885 -1.5402148 -0.6061542 11
1.837473 -1.7098773 -0.57947397 10
2.0467284 -1.9072698 -0.54380566 12
2.3053646 -2.1505396 -0.49933887 8
2.6430345 -2.4689853 -0.44409195 6
3.0909357 -2.8904231 -0.37023759 5
3.6670837 -3.432797 -0.26324987 2
3.3569503 -3.1468778 -0.080315977 10
5.9781237 -5.5610514 0.14251634 47
5.9313898 -5.5233731 0.42475864 2
5.8455453 -5.449152 0.69916338 1
3.2939873 -3.0749185 0.55328691 12
5.9723234 -5.5809855 1.2946517 84
3.5077603 -3.2825043 0.93381923 22
3.481544 -3.2613921 1.1013604 17
3.4849074 -3.2679706 1.2801191 21
1.6500412 -1.556008 -0.60770714 11
1.8308586 -1.7283329 -0.58127356 11
2.0376444 -1.9255574 -0.54495054 10
2.2870474 -2.1642656 -0.49871314 10
2.6286159 -2.4901073 -0.44457942 5
3.0865841 -2.927012 -0.37215498 5
3.2687693 -3.1041157 -0.23624454 22
3.2812746 -3.1192598 -0.079024501 32
5.9682474 -5.6300945 0.14321445 45
5.8946176 -5.5684195 0.42496803 2
3.4236205 -3.2375567 0.41224664 11
3.2767644 -3.1019337 0.55401808 13
nan nan nan nan
nan nan nan nan
3.3075137 -3.1420062 1.0532209 17
3.4768302 -3.307471 1.2858131 21
1.651704 -1.5795058 -0.6123659 11
1.8243787 -1.7464628 -0.58307314 12
2.0379853 -1.9536753 -0.54876673 10
2.2832842 -2.1911213 -0.50121611 8
2.6140308 -2.511148 -0.44506687 8
3.077564 -2.9595373 -0.37354952 5
3.2067368 -3.0880685 -0.23331371 18
3.242142 -3.125437 -0.078605637 29
5.9552569 -5.6989264 0.14387764 43
5.8873296 -5.6398315 0.4272708 2
3.389431 -3.2503471 0.41085216 25
3.5537305 -3.4126704 0.60495949 31
3.2582884 -3.1322362 0.71584421 19
3.4361246 -3.3066564 0.92695016 30
3.3233914 -3.2015245 1.0653682 9
3.2506623 -3.1358407 1.2102379 40
1.647571 -1.5977228 -0.61495411 12
1.8149385 -1.7618715 -0.58397299 12
2.0218244 -1.9647654 -0.54800349 11
2.2739806 -2.2121217 -0.50246757 8
2.5964363 -2.529336 -0.44506687 8
3.0596805 -2.9837327 -0.37389815 5
3.2585316 -3.1809778 -0.23865199 2
3.2259631 -3.1535864 -0.078745253 37
5.9536457 -5.7755313 0.14478517 42
3.3413548 -3.2447898 0.24409491 9
3.5723414 -3.4739504 0.43595302 11
3.4920139 -3.3993945 0.59837854 7
3.2170861 -3.1350408 0.71146405 22
3.2190545 -3.1413436 0.87428689 11
3.4096909 -3.3308649 1.1004606 6
3.1878059 -3.1173737 1.1947087 24
1.627014 -1.5994203 -0.61133063 11
1.8195717 -1.7905867 -0.5893718 12
2.0052617 -1.9760764 -0.5472402 10
2.2725446 -2.241816 -0.50559622 8
2.5961089 -2.5636883 -0.44799173 6
3.056303 -3.0212979 -0.37598985 6
3.5016735 -3.4664042 -0.25822562 12
3.1973209 -3.1684337 -0.078570738 42
5.9516702 -5.8548188 0.14572759 9
3.3456595 -3.2946639 0.24608369 16
nan nan nan nan
nan nan nan nan
3.2597544 -3.2212946 0.72585601 6
nan nan nan nan
3.27478 -3.2429278 1.0640185 13
nan nan nan nan
1.6212809 -1.6161956 -0.61340117 11
1.8153032 -1.8115052 -0.59207124 10
2.0056543 -2.0035548 -0.55105644 10
2.2516453 -2.2516453 -0.50434476 8
2.5837588 -2.5873685 -0.44896671 8
3.0407641 -3.0482032 -0.37668711 6
3.1311846 -3.1421335 -0.23247635 5
3.208976 -3.2246966 -0.079408452 48
5.9343348 -5.9177856 0.14628607 3
3.3881769 -3.3822687 0.2508986 1
nan nan nan nan
nan nan nan nan
3.1344788 -3.1399543 0.70270365 19
nan nan nan nan
3.2520602 -3.2657108 1.0640185 16
3.2480679 -3.2651191 1.2340492 1
1.6170366 -1.6340593 -0.61598933 11
1.8084109 -1.8293629 -0.59387082 9
1.9929973 -2.0189054 -0.55143803 10
2.2386453 -2.2701228 -0.50497049 8
2.5660872 -2.6048958 -0.44896671 8
3.0138214 -3.0636759 -0.37598985 6
3.1385698 -3.1938319 -0.23467445 56
nan nan nan nan
3.3352196 -3.372684 0.082794219 23
3.4304521 -3.472621 0.25581816 4
3.4706547 -3.516999 0.43229246 36
3.543277 -3.5956085 0.61982757 22
3.1706851 -3.2208858 0.71584421 24
5.8434629 -5.9422002 1.6199685 23
5.7852197 -5.8911948 1.9062352 14
3.1643159 -3.225657 1.2107556 28
1.6204309 -1.6605173 -0.62168342 10
1.7915145 -1.8377571 -0.59252113 10
1.9898098 -2.0440238 -0.55449098 10
2.2254965 -2.2885284 -0.50559622 7
2.5561383 -2.63129 -0.45042911 6
2.9895849 -3.0817819 -0.37564126 4
3.1148069 -3.2142313 -0.23456979 24
3.3074687 -3.416621 -0.08300364 35
3.0937982 -3.1725476 0.077349067 31
3.2890573 -3.376312 0.24702574 28
3.2848322 -3.3755085 0.41207233 31
3.1597776 -3.2515409 0.55669922 8
3.3655186 -3.4668865 0.7652775 37
5.7553673 -5.9349308 1.6069933 30
3.1004055 -3.2016053 1.0289263 16
3.0960507 -3.2004609 1.1931559 44
1.6181757 -1.6815335 -0.62530684 10
1.7894452 -1.8614584 -0.5961203 11
1.9741317 -2.0564489 -0.55410933 10
2.2204034 -2.3154154 -0.5080992 7
2.53496 -2.6462038 -0.44994166 6
2.9161935 -3.0473597 -0.36901742 11
3.0550346 -3.1969111 -0.23174362 46
3.2255428 -3.3788776 -0.081537649 31
3.1381068 -3.2632542 0.079024501 34
3.3166013 -3.4524832 0.2508986 39
3.2239397 -3.359545 0.40736595 15
nan nan nan nan
nan nan nan nan
3.1072402 -3.2492695 0.8739053 33
2.8927786 -3.0281775 0.96683973 22
nan nan nan nan
1.6050674 -1.6913879 -0.62478918 12
1.785791 -1.8838054 -0.59926963 12
1.9587386 -2.0684133 -0.55372775 10
2.2113793 -2.3376505 -0.50966352 5
2.5191507 -2.6667225 -0.45042911 9
2.9604847 -3.1371992 -0.37738436 4
3.2373354 -3.4341755 -0.24733976 22
3.0264301 -3.2149405 -0.077069834 45
3.2149117 -3.3889945 0.081537649 33
3.1927361 -3.369149 0.24325755 31
3.0867431 -3.2618575 0.39289808 30
3.1078277 -3.2875848 0.55548048 41
3.0515726 -3.2314632 0.70395517 28
nan nan nan nan
nan nan nan nan
2.9099708 -3.0923083 1.1377686 23
1.5948375 -1.7036844 -0.62530684 12
1.7782513 -1.9016107 -0.60106927 12
1.9563099 -2.0949514 -0.55716228 10
2.1720991 -2.328476 -0.50434476 8
2.5117671 -2.6954262 -0.45237905 8
2.9276524 -3.1461215 -0.37598985 12
3.1616075 -3.4011045 -0.24336222 38
2.9786227 -3.2076244 -0.076406635 21
3.081887 -3.2945285 0.078745253 34
3.0914092 -3.3081779 0.23729126 37
3.0699072 -3.2886183 0.39359534 36
3.0793862 -3.3033931 0.55450553 7
5.6822882 -6.1020432 1.3206199 5
2.9805765 -3.2041163 0.85062653 3
2.8900056 -3.1111052 0.98033679 43
2.8028977 -3.0205028 1.1041222 44
1.5920774 -1.7247133 -0.62893027 12
1.7675742 -1.9168441 -0.60196906 11
1.941637 -2.1085579 -0.55716228 10
2.1718383 -2.3610291 -0.5080992 8
2.5009477 -2.7216661 -0.45384148 8
2.9190879 -3.1811638 -0.37773296 4
3.1080961 -3.3907032 -0.24105945 30
2.9818161 -3.2563624 -0.077069834 24
3.094064 -3.3541794 0.079652779 37
3.1088414 -3.3737419 0.24043141 10
3.2695196 -3.5518413 0.42235672 10
2.7996585 -3.0456727 0.5079515 12
3.0529189 -3.3246796 0.71490556 6
2.9395559 -3.2045915 0.84528393 17
2.8445225 -3.1053391 0.97223848 33
nan nan nan nan
1.5891007 -1.7457867 -0.63255376 12
1.7541494 -1.9291372 -0.60196906 11
1.9334682 -2.129329 -0.55907035 9
2.1579568 -2.37906 -0.50872493 8
2.4698899 -2.7258203 -0.45164782 11
2.8807669 -3.1837368 -0.37564126 10
2.9852424 -3.3026741 -0.23331371 35
2.8625202 -3.1702378 -0.074556686 22
3.2212753 -3.5413768 0.083562121 37
3.0650654 -3.3731904 0.23886132 1
3.5593324 -3.9212689 0.46331993 1
2.9943016 -3.3034129 0.54743713 7
5.6588531 -6.249608 1.3353248 1
2.8841875 -3.1886356 0.83574343 43
2.8528171 -3.1583834 0.98258621 30
2.8135118 -3.1181486 1.1253452 20
1.5820359 -1.7625887 -0.6346243 12
1.7562499 -1.9587473 -0.60736787 12
1.9172461 -2.1413126 -0.55868876 9
2.1491969 -2.4029016 -0.51060218 8
2.4666712 -2.7607603 -0.45457271 9
2.8505116 -3.1948504 -0.37459537 18
2.9621129 -3.3234341 -0.23331371 35
2.8482966 -3.1991057 -0.074766114 24
3.0522716 -3.403007 0.079792403 46
2.8868372 -3.2219551 0.22671939 15
2.8900747 -3.2289684 0.3791275 51
nan nan nan nan
nan nan nan nan
2.8396411 -3.1837857 0.82925594 12
2.8929117 -3.2480736 1.0041816 16
2.7595718 -3.1016326 1.1124043 16
1.5709726 -1.7750369 -0.63514197 11
1.739951 -1.9680407 -0.60646808 9
1.900951 -2.1531732 -0.55830717 9
2.1402087 -2.4267364 -0.51247936 7
2.4578357 -2.7898295 -0.45652261 9
2.7491763 -3.1249192 -0.36413667 33
3.1774797 -3.615576 -0.25225934 19
2.7506943 -3.1332548 -0.072776534 36
2.8535695 -3.2265079 0.075184964 42
2.9264257 -3.3123786 0.23163895 36
2.8832819 -3.2669916 0.38121921 41
2.828449 -3.2093747 0.52525693 42
2.7907424 -3.1699345 0.66891384 27
2.7201056 -3.0929637 0.80063456 12
2.9306033 -3.3370099 1.025327 13
2.5034335 -2.8536136 1.0171589 23
1.557272 -1.7845055 -0.6346243 11
1.7428162 -1.999236 -0.61231679 13
1.8858728 -2.1663918 -0.55830717 9
2.1141415 -2.4311841 -0.51028925 6
2.4409025 -2.8099177 -0.45701009 9
2.7338214 -3.151561 -0.36500823 35
2.8500242 -3.2889981 -0.22808012 22
2.7248271 -3.1478457 -0.072671816 37
2.8270319 -3.2418296 0.075080253 25
2.7615447 -3.1700826 0.2203344 37
nan nan nan nan
2.7187352 -3.1286495 0.50892639 43
2.614449 -3.0118232 0.63168246 18
2.5775442 -2.9724517 0.76476252 37
2.6240382 -3.0303411 0.92544872 16
2.5529616 -2.9513805 1.0456289 34
1.5510761 -1.8026558 -0.63721251 6
1.7186545 -1.9995316 -0.60871756 14
1.8822107 -2.1929128 -0.56174171 9
2.0996888 -2.4488838 -0.51091504 6
2.4251006 -2.8314128 -0.45774129 4
2.7493081 -3.2144792 -0.37006328 18
2.8062356 -3.2845185 -0.22640537 35
2.7326422 -3.2017756 -0.073474631 39
2.7821677 -3.2357101 0.074486867 27
2.7979071 -3.2574639 0.22504464 27
2.7310011 -3.1829388 0.36692566 36
2.6606631 -3.1053455 0.50210178 35
2.8091509 -3.2821271 0.68424439 9
2.569488 -3.005296 0.76857871 23
2.6382482 -3.0900836 0.93804592 30
2.7855248 -3.2660444 1.1501919 34
1.5447023 -1.820806 -0.63980073 7
1.7046536 -2.011481 -0.60871756 12
1.8681239 -2.2074981 -0.5621233 9
2.090193 -2.4725337 -0.51279223 6
2.4168012 -2.8619239 -0.45993495 9
2.6099186 -3.09499 -0.35420093 21
2.7124658 -3.2200158 -0.22064841 36
2.5904844 -3.0784795 -0.070228487 36
2.7181304 -3.2062438 0.073369913 31
2.7557364 -3.2540553 0.22347455 12
2.6971323 -3.1882377 0.36535689 10
3.4177842 -4.0458331 0.6502949 12
2.6039915 -3.0857751 0.63950419 28
2.4636652 -2.9225891 0.74301028 25
2.5965319 -3.0845728 0.93084747 21
3.3383126 -3.9699953 1.3898584 11
1.5294743 -1.828582 -0.63876545 9
1.7005652 -2.0352964 -0.61231679 12
1.8539249 -2.2219934 -0.56250495 9
2.0728805 -2.4870656 -0.51279223 6
2.3967626 -2.8787265 -0.45993495 9
2.6028059 -3.1295335 -0.35611835 31
2.6490865 -3.1897068 -0.21729892 38
2.5267954 -3.045702 -0.069076627 37
2.5225518 -3.0180087 0.068657771 10
2.9608045 -3.5461102 0.24210617 12
2.6046207 -3.1228364 0.35576975 7
3.2916341 -3.9521441 0.63152701 7
nan nan nan nan
nan nan nan nan
2.472158 -2.9777286 0.89350563 5
2.5127861 -3.0309687 1.0549464 11
1.514213 -1.8362341 -0.63773018 9
1.6875539 -2.0486231 -0.61276674 11
1.8375101 -2.2330453 -0.5621233 10
2.0634301 -2.5102737 -0.51466948 7
2.3904612 -2.9122672 -0.46261609 9
2.5897374 -3.1584132 -0.35733855 29
2.7260273 -3.3281834 -0.22546332 46
2.5700383 -3.14221 -0.070856772 30
2.666034 -3.2341578 0.073160492 32
2.6306236 -3.194608 0.21688022 39
3.9279149 -4.7768197 0.54106283 1
4.2411556 -5.1632671 0.8204245 12
2.3619666 -2.8785763 0.58975804 28
2.4263523 -2.9612579 0.74415511 6
3.3918419 -4.1440215 1.2363311 14
nan nan nan nan
1.4992414 -1.8435009 -0.63669485 7
1.6784854 -2.0661125 -0.61456633 12
1.8268231 -2.2519176 -0.56364983 10
2.0495861 -2.529222 -0.51560807 7
2.3755789 -2.9346426 -0.46359101 8
2.5876644 -3.2012072 -0.36012751 26
2.6713576 -3.3082857 -0.22284654 28
2.6703703 -3.3106084 -0.07424254 31
2.5412369 -3.1269908 0.070333198 11
nan nan nan nan
3.9103682 -4.8220158 0.5431546 1
2.3735924 -2.9311426 0.46310353 13
2.3691442 -2.9287837 0.59664112 9
2.3888648 -2.9563267 0.73881245 4
3.3799613 -4.1888318 1.2426296 12
4.0674152 -5.046206 1.7366759 17
1.4875432 -1.8554298 -0.63721251 3
1.667675 -2.0823431 -0.61591601 11
1.8196408 -2.2753489 -0.56632113 13
2.0318789 -2.5434692 -0.51560807 7
2.3550332 -2.9511557 -0.46359101 8
2.5751863 -3.2316599 -0.36152202 26
2.6195872 -3.2909141 -0.22043908 38
2.6285245 -3.305692 -0.073718965 36
2.4630811 -3.0744278 0.068762481 29
2.5820193 -3.2263474 0.21656621 35
2.4745107 -3.0953314 0.34670553 46
2.3567867 -2.9522955 0.46383476 15
2.3683453 -2.9699628 0.60164702 20
3.9351215 -4.9400425 1.2276652 12
3.4307015 -4.3129826 1.2723233 26
4.0453067 -5.0911169 1.7423699 40
1.481741 -1.8748635 -0.64031839 5
1.6494744 -2.0893462 -0.61456633 11
1.8073578 -2.2926223 -0.56746602 11
2.028738 -2.5762153 -0.51936251 7
2.3392828 -2.9737656 -0.46456599 8
2.5722544 -3.2746282 -0.36431101 30
2.629838 -3.3515463 -0.22326522 28
2.6349893 -3.3617349 -0.074556686 27
2.4936113 -3.1574593 0.070228487 10
2.4010918 -3.0435843 0.2031682 27
2.4220111 -3.0734096 0.34234774 29
2.3938158 -3.0419967 0.47529048 9
2.3243589 -2.9569175 0.59570253 31
2.7814214 -3.5421827 0.87543172 1
3.3896861 -4.3230267 1.2682742 28
2.5111036 -3.2059848 1.0911812 2
1.4828628 -1.9034498 -0.64653003 12
1.6408319 -2.1085005 -0.61681581 10
1.76842 -2.2757297 -0.56021523 21
2.004647 -2.5825136 -0.51779813 6
2.325763 -2.9994366 -0.46602839 5
2.5529897 -3.2972322 -0.36483395 22
2.585603 -3.342967 -0.22148579 40
2.6603599 -3.4433448 -0.075952873 37
2.4297423 -3.1211412 0.069041722 41
2.5820854 -3.3204198 0.22043908 30
2.3699396 -3.0509071 0.33798996 43
2.3615706 -3.044518 0.47309685 11
nan nan nan nan
nan nan nan nan
3.1723254 -4.1045089 1.1976395 26
3.8864665 -5.0339451 1.7040646 6
1.4660083 -1.9091592 -0.64497709 23
1.628444 -2.1229966 -0.6177156 10
1.7357764 -2.2661998 -0.55487263 4
1.9865693 -2.5964458 -0.51779813 3
2.3047664 -3.0156002 -0.46602839 4
2.5250738 -3.3086393 -0.36413667 26
2.5428278 -3.3355229 -0.21981104 26
2.5647767 -3.3679698 -0.073893487 27
2.5734515 -3.3537872 0.073788777 33
2.5466917 -3.3225136 0.21939236 34
2.4200459 -3.1607125 0.34827435 20
nan nan nan nan
2.2420821 -2.9357059 0.58506501 55
2.1994066 -2.8829563 0.70484847 7
2.6889415 -3.5297399 1.0244272 49
2.1642687 -2.8440967 0.95763052 8
1.4596397 -1.9285897 -0.64808291 27
1.6241602 -2.148304 -0.62176478 10
1.7270104 -2.2876637 -0.55716228 7
1.7114922 -2.2695777 -0.45021844 4
nan nan nan nan
2.4827511 -3.3007114 -0.36134771 29
2.5458744 -3.3883221 -0.22211383 29
2.5351994 -3.3777962 -0.073718965 34
2.6078746 -3.4482276 0.075464211 31
2.5005593 -3.3099329 0.21740359 12
2.5119364 -3.3286142 0.36483395 56
2.3463092 -3.1136575 0.47870281 28
2.2571721 -2.9986339 0.59445107 57
2.2181623 -2.9500229 0.71744186 6
2.1599364 -2.876765 0.83051932 9
nan nan nan nan
1.4438298 -1.9356354 -0.64704764 25
1.5998081 -2.147089 -0.61816555 10
1.7156854 -2.3059654 -0.55868876 12
1.7026758 -2.2909834 -0.45209566 6
1.6968284 -2.2856145 -0.34952128 3
nan nan nan nan
2.5471175 -3.4397199 -0.22431193 24
2.6340425 -3.5610034 -0.077314161 11
2.6052489 -3.4952097 0.076092489 16
2.4201379 -3.2504144 0.21237932 34
2.8560467 -3.8400664 0.41869619 42
2.4831121 -3.343513 0.5113638 31
2.5009937 -3.3712773 0.66484654 31
2.1741352 -2.9338894 0.70980954 33
2.1316862 -2.8808086 0.82737005 11
nan nan nan nan
1.444012 -1.9643466 -0.65325934 24
1.5905466 -2.166059 -0.62041503 10
1.7018666 -2.321053 -0.559452 7
1.6971456 -2.3171575 -0.4549115 7
1.692552 -2.3134255 -0.35195872 7
1.6630681 -2.2764599 -0.24665076 4
1.6718243 -2.2909629 -0.14863414 4
2.5137053 -3.4484146 -0.074486867 6
2.2386532 -3.0475564 0.066004999 16
2.5143614 -3.4266472 0.22274184 12
2.4404817 -3.3296156 0.36117339 10
2.4843302 -3.3944066 0.51648235 42
2.2349036 -3.0569656 0.59976977 9
2.1628628 -2.9616797 0.71286243 31
2.2068224 -3.0263088 0.86471188 42
2.1201558 -2.9106593 0.96487743 12
1.4325302 -1.9775088 -0.65429455 58
1.5605346 -2.1565864 -0.61456633 9
1.6718236 -2.313782 -0.55487263 6
1.6705225 -2.3145332 -0.45209566 4
1.6717161 -2.3187444 -0.35098374 7
1.6611036 -2.3074183 -0.24874248 5
1.6511256 -2.2960925 -0.14821544 5
1.6297702 -2.2689004 -0.048762023 6
2.2407742 -3.0955079 0.066703096 13
2.4868667 -3.4392612 0.22242783 42
nan nan nan nan
2.7926745 -3.872138 0.58619159 16
nan nan nan nan
nan nan nan nan
2.1219597 -2.9530194 0.83951735 28
3.3152704 -4.6187882 1.5234089 13
1.4153223 -1.9827443 -0.65274167 39
1.5386528 -2.157908 -0.61186689 9
1.6852351 -2.3669791 -0.56479466 12
1.6463096 -2.3148708 -0.44990557 6
1.6462904 -2.3174124 -0.34903383 3
1.6495655 -2.3254588 -0.24943975 4
1.6419839 -2.3173413 -0.14884347 6
1.6069589 -2.2704294 -0.048552595 5
nan nan nan nan
2.4697495 -3.4662986 0.22305585 27
2.2585866 -3.1734457 0.34077895 29
5.6518893 -7.952981 1.1979758 13
nan nan nan nan
3.314816 -4.6747589 1.113943 12
2.0675094 -2.920048 0.8260203 9
2.1005046 -2.9699452 0.97471261 20
1.4047801 -1.9973173 -0.65429455 42
1.5302718 -2.1781647 -0.61456633 12
1.6754346 -2.3883295 -0.56708437 22
1.8999041 -2.7113297 -0.52436841 8
1.630072 -2.3288491 -0.34903383 6
1.6177154 -2.3137729 -0.24699937 3
1.6326258 -2.3385739 -0.14947151 5
1.6105144 -2.3094771 -0.049145978 7
1.5936719 -2.2675655 0.048378069 7
1.5974296 -2.275444 0.14570332 4
2.3519135 -3.3538945 0.3583844 10
2.0654244 -2.9497318 0.44214204 6
2.5960939 -3.711741 0.7174086 15
nan nan nan nan
2.0788121 -2.9787993 0.83861756 8
2.3503149 -3.3728595 1.1015339 16
1.3952031 -2.013427 -0.6563651 34
1.5117011 -2.1839879 -0.61321658 10
1.6613721 -2.4029083 -0.56784761 27
1.8881402 -2.7339511 -0.52624559 8
2.205416 -3.1981266 -0.47699666 13
1.597002 -2.3184474 -0.24630213 5
1.5996879 -2.3249514 -0.14790143 5
1.5886905 -2.3124235 -0.048971456 6
1.5873098 -2.2915113 0.048657309 7
1.5682672 -2.2665555 0.14444725 3
1.5719247 -2.2752347 0.24194433 7
2.035151 -2.949018 0.43994835 2
3.1470339 -4.5652933 0.87822318 12
nan nan nan nan
2.2920265 -3.3336723 0.93399692 22
5.3906355 -7.8492928 2.5514383 5
1.3847345 -2.0276632 -0.65791804 33
1.4957021 -2.1926172 -0.61276674 10
1.6600292 -2.4371648 -0.57319027 10
1.877897 -2.7601321 -0.52874857 8
2.1824801 -3.211422 -0.47675291 17
2.2956512 -3.3830259 -0.35768715 43
1.5845386 -2.3377159 -0.1480061 5
1.5661869 -2.3132482 -0.048762023 6
1.5746548 -2.3074923 0.048762023 8
1.5636549 -2.2939517 0.14549398 6
1.5642507 -2.2974098 0.24316452 6
1.5424144 -2.2687418 0.33684689 8
1.555878 -2.2911251 0.43864229 1
2.2449682 -3.3095789 0.77735591 2
2.281811 -3.3689542 0.93939567 39
3.0332012 -4.4833894 1.4504219 6
1.3813281 -2.0533099 -0.6630944 27
1.4901406 -2.2175627 -0.61681581 11
1.6484435 -2.456846 -0.57509834 10
1.8673804 -2.7863023 -0.53125149 8
2.1732588 -3.2463753 -0.47967777 15
2.3660896 -3.5397654 -0.37250364 16
2.3844316 -3.5712519 -0.22504464 39
1.5466708 -2.319135 -0.048657309 5
1.5573915 -2.3167698 0.048727117 4
1.5487154 -2.3064704 0.14559864 5
1.553723 -2.3165479 0.24403608 7
1.5309563 -2.286052 0.33782184 7
1.5200756 -2.272377 0.43301064 9
1.5313789 -2.2918704 0.5357917 6
nan nan nan nan
nan nan nan nan
1.365893 -2.0612929 -0.66257679 31
1.4800006 -2.236037 -0.61906534 10
1.6388286 -2.4797597 -0.57776964 11
1.8522359 -2.8058653 -0.53250295 8
2.147264 -3.2564964 -0.47894657 11
2.2898264 -3.4779847 -0.36431101 43
2.4165075 -3.6745861 -0.23048759 28
2.5822103 -3.9310391 -0.082096115 7
1.5345558 -2.3175819 0.048517693 7
1.525965 -2.3072309 0.14497061 4
1.5364144 -2.3256757 0.24386176 6
1.526983 -2.3149121 0.34050298 9
1.5161295 -2.3010786 0.43645221 7
1.5077864 -2.2910259 0.53312039 4
1.48649 -2.2621043 0.62491405 9
nan nan nan nan
1.3535808 -2.0740142 -0.66361207 14
1.4696753 -2.254477 -0.62131482 7
1.6236188 -2.494431 -0.57853287 10
1.8390629 -2.8286645 -0.5343802 8
2.1688044 -3.3396664 -0.48893982 13
2.3272758 -3.5891733 -0.37424675 52
2.4689682 -3.8120656 -0.23802395 24
2.9946079 -4.6289592 -0.096232571 10
2.3397713 -3.5878325 0.074766114 27
1.5141808 -2.324522 0.1453893 6
1.5136212 -2.3263249 0.24281588 6
1.5021333 -2.3121984 0.33855307 6
1.5064799 -2.3215492 0.4383294 8
1.5002981 -2.314676 0.53617334 7
1.4738379 -2.2773347 0.6262638 4
1.4567363 -2.2534959 0.71899933 5
1.3495138 -2.0996644 -0.66878843 13
1.4581114 -2.2712421 -0.62311447 6
1.6051055 -2.5040522 -0.57815129 10
1.8256613 -2.8514161 -0.53625745 8
2.1454368 -3.3547256 -0.48893982 16
2.3242426 -3.6385126 -0.37773296 32
2.5454001 -3.9908648 -0.24807246 20
2.5174024 -3.9515307 -0.081781976 42
2.3092632 -3.5956664 0.074591585 15
2.5957406 -4.0463872 0.25194532 56
1.4994934 -2.3401904 0.24316452 6
1.4763262 -2.3075798 0.33635944 8
1.485981 -2.3253515 0.43707794 5
1.4809333 -2.3201287 0.53502846 6
1.4708741 -2.3070319 0.63166261 7
1.4451182 -2.2701294 0.72106987 5
1.3317231 -2.1041374 -0.66723549 22
1.4422201 -2.2813661 -0.62311447 6
1.5953612 -2.52654 -0.58082259 10
1.8062099 -2.8637772 -0.53625745 9
2.1357157 -3.3914585 -0.49210843 12
2.2871158 -3.6360984 -0.37581557 38
2.2907965 -3.6461856 -0.22567266 22
2.5131326 -4.0062761 -0.082549877 19
2.2355549 -3.5335665 0.072985962 23
2.5617359 -4.0538316 0.25131726 16
2.0551038 -3.2571423 0.3369441 33
1.4722273 -2.3360484 0.33904055 1
1.4638046 -2.325382 0.43520072 7
1.4615655 -2.3254247 0.53388357 4
1.4568043 -2.3205452 0.6325624 5
1.4378431 -2.2930069 0.72521096 9
1.308172 -2.0983992 -0.66257679 24
1.4318082 -2.2994015 -0.62536401 12
1.5807937 -2.5426178 -0.58196747 11
1.792426 -2.8863854 -0.53813463 9
2.1052568 -3.394109 -0.49040228 16
2.2742636 -3.6723034 -0.37790731 22
2.27159 -3.6722803 -0.2263007 26
2.156817 -3.4908204 -0.071624674 13
2.1896853 -3.5151412 0.072287865 35
2.4099224 -3.8732085 0.23907068 13
2.0412991 -3.2845929 0.33833858 50
nan nan nan nan
2.1666191 -3.4957609 0.65139318 13
1.4415697 -2.3286421 0.53235716 7
1.4262245 -2.307452 0.6262638 5
1.4217999 -2.3029888 0.72521096 4
1.3046064 -2.1255918 -0.66827077 14
1.4228503 -2.320971 -0.62851328 12
1.5609547 -2.5502429 -0.58120424 11
1.7742922 -2.9021995 -0.53876036 9
2.0659926 -3.3833108 -0.48674619 9
2.2402735 -3.6744814 -0.3765128 38
2.3352346 -3.8347528 -0.23530249 22
2.5335169 -4.1652651 -0.085097939 11
2.1650922 -3.5303421 0.072287865 52
2.1783433 -3.5561259 0.21855497 4
1.9985621 -3.2664728 0.33502665 20
2.0396769 -3.3389056 0.480409 25
2.1370173 -3.5023704 0.64982885 66
2.7432761 -4.5012712 1.0246444 1
1.4161587 -2.3273413 0.62896323 7
1.3936474 -2.2930484 0.71899933 4
1.2907344 -2.1363013 -0.66878843 25
1.4086257 -2.3341844 -0.62941307 11
1.548179 -2.5694861 -0.58311236 10
1.7509327 -2.9094379 -0.53782177 4
2.0382316 -3.3908463 -0.48577127 16
2.2593093 -3.7630968 -0.3840082 24
2.1851819 -3.6453946 -0.22274184 39
nan nan nan nan
2.1300585 -3.5282521 0.07193882 40
2.2772262 -3.7764912 0.23111561 15
2.4259489 -4.0278959 0.41137511 12
2.0132482 -3.3479602 0.47967777 34
2.0016503 -3.332623 0.61572611 4
2.0896397 -3.4832501 0.78956765 10
5.1383824 -8.5754175 2.3079979 2
1.3776051 -2.302722 0.71899933 4
1.2866509 -2.1635249 -0.67448246 27
1.3992624 -2.3556898 -0.6325624 16
1.5406704 -2.5968494 -0.58692849 11
1.7351162 -2.9280865 -0.53907323 6
2.026639 -3.4254944 -0.48869613 12
2.2187929 -3.7547638 -0.38156784 26
2.2770648 -3.8579853 -0.23477912 28
2.4121697 -4.0934172 -0.082933836 29
2.1948922 -3.692214 0.074975535 31
2.1240072 -3.5772355 0.21803163 1
2.3886254 -4.0293093 0.40980628 16
1.8761262 -3.1685684 0.45213532 24
1.9145648 -3.2373517 0.59570253 38
1.8137254 -3.0717344 0.69339991 25
2.5669131 -4.3525405 1.1665963 4
1.9060705 -3.2358654 1.0062885 10
1.2699425 -2.1688986 -0.67344719 11
1.3782766 -2.3567486 -0.63031286 10
1.5284433 -2.6177142 -0.5892182 10
1.7156272 -2.9418349 -0.53938609 15
2.0232582 -3.4735162 -0.49357089 24
2.1785033 -3.7460501 -0.3791275 44
2.2560945 -3.8841505 -0.23540714 35
2.3742166 -4.0924449 -0.082584791 35
2.3397193 -3.9991415 0.080874451 8
2.0939431 -3.5833545 0.21750826 33
2.3521054 -4.0299878 0.40823749 13
1.8629547 -3.1970253 0.45432895 43
2.2188292 -3.8123305 0.69863641 27
2.0197086 -3.4743903 0.7811721 48
1.7196703 -2.9630096 0.79092801 6
3.0935199 -5.3366017 1.6528184 20
1.2595919 -2.1860807 -0.6760354 23
1.3637341 -2.3696914 -0.63121271 12
1.5120872 -2.6317258 -0.58998144 12
1.7137287 -2.9862928 -0.54533058 26
1.9930366 -3.4772227 -0.49210843 24
2.1582351 -3.7715425 -0.38017333 40
2.2755034 -3.9813051 -0.24032672 16
2.279166 -3.9925644 -0.080246165 10
2.3496571 -4.0812321 0.082200833 12
2.0808234 -3.6186621 0.21876432 27
2.3149829 -4.0307612 0.40666869 16
1.8781129 -3.2753921 0.46359101 34
1.8200922 -3.1780596 0.58005905 4
1.9749328 -3.4526179 0.77315807 16
1.7018417 -2.9800193 0.79227763 30
2.3277957 -4.0810599 1.2588959 4
1.2423943 -2.1914597 -0.67500007 11
1.3548387 -2.3927202 -0.63481188 9
1.489813 -2.6353812 -0.58845496 13
1.6879829 -2.9895835 -0.54376626 38
1.9882143 -3.5256341 -0.4969832 15
2.1647794 -3.8434324 -0.38592559 28
2.2554853 -4.0110216 -0.24116412 42
2.502898 -4.4564662 -0.089216709 24
2.3437765 -4.1375546 0.08300364 1
2.0319057 -3.5913808 0.21625218 28
2.2809057 -4.0364165 0.40562281 7
1.949814 -3.45613 0.48723367 34
1.7707086 -3.1425014 0.57129872 35
1.7687984 -3.1429577 0.70103228 37
1.9269183 -3.4281185 0.90790254 12
1.8615211 -3.3171909 1.0192294 22
1.2308289 -2.2068286 -0.67707068 14
1.3428433 -2.4106326 -0.63706142 5
1.4756581 -2.6523237 -0.58998144 11
1.6637564 -2.9940972 -0.5425148 19
1.9722198 -3.5550511 -0.49917686 13
2.1639671 -3.9055066 -0.39063203 27
2.2349002 -4.0385137 -0.24189681 26
2.3634181 -4.2777944 -0.08530736 11
2.3019269 -4.1289601 0.082514979 33
2.0112996 -3.6121087 0.21667089 16
1.9612851 -3.52808 0.35315505 3
1.8077207 -3.2558515 0.45725381 16
1.7569414 -3.1683013 0.5738017 50
1.7230405 -3.1122897 0.69149184 22
2.6139479 -4.727355 1.2471287 36
1.9519035 -3.5344086 1.0818636 41
1.2250741 -2.2320907 -0.68224704 20
1.3235935 -2.4145906 -0.63571173 6
1.4674731 -2.681505 -0.59417921 11
1.6494451 -3.0177729 -0.54470485 17
1.9708035 -3.6102104 -0.50502658 13
2.0905998 -3.8344309 -0.38209078 40
2.12549 -3.9049079 -0.2329997 39
2.4431264 -4.4940648 -0.089286514 26
2.1788158 -3.9731011 0.079094306 15
1.9390213 -3.5402277 0.21154197 15
2.0318873 -3.714395 0.37041187 36
1.8458406 -3.379894 0.47285309 9
1.9315268 -3.5411999 0.63887841 22
1.6501608 -3.029124 0.67050284 11
2.241766 -4.1202402 1.0829145 26
1.8294389 -3.3680055 1.026994 28
1.2030377 -2.228689 -0.67862362 14
1.3067045 -2.4237723 -0.63571173 7
1.4529101 -2.6983461 -0.59570575 10
1.6447709 -3.0585063 -0.55002367 16
1.9446129 -3.6221321 -0.50478286 12
2.0901413 -3.8980978 -0.38697147 34
2.1167758 -3.9527385 -0.23498847 30
2.1712775 -4.0613217 -0.080385789 21
2.2286367 -4.1303883 0.0819216 37
2.5705421 -4.7700257 0.28397492 5
1.9587086 -3.6407607 0.3616963 12
2.1027875 -3.9134777 0.54548723 3
1.7242998 -3.2131116 0.57755613 15
1.6438074 -3.0682592 0.67660874 24
nan nan nan nan
nan nan nan nan
1.1974127 -2.2558031 -0.68431759 20
1.2970538 -2.4466095 -0.63931096 7
1.4326456 -2.7069385 -0.5953241 10
1.6099188 -3.0457478 -0.54564345 17
1.9211317 -3.6391308 -0.50527036 12
2.0464025 -3.8829901 -0.3840082 40
2.1479735 -4.0808969 -0.24168746 14
2.3736274 -4.5153484 -0.089042179 18
2.2027709 -4.1532965 0.082061216 11
2.229701 -4.2093959 0.24964255 13
1.9136788 -3.6173625 0.3580358 45
2.10903 -3.9933717 0.55450553 11
1.7528723 -3.3232121 0.5950768 31
1.6479679 -3.1282954 0.68729407 25
1.7606051 -3.3477771 0.87326008 12
2.1819813 -4.1543002 1.2573429 6
1.1816351 -2.2641077 -0.68431759 24
1.2754381 -2.4469645 -0.63706142 10
1.4082752 -2.7064247 -0.59303439 16
1.6077458 -3.0937219 -0.55221373 16
1.908482 -3.6771207 -0.50868267 27
2.072407 -3.9997859 -0.39411828 40
2.1240208 -4.1046629 -0.24221084 24
2.2263677 -4.3079724 -0.084644176 19
2.471442 -4.7395139 0.093300566 13
1.9853083 -3.8121161 0.22525398 13
1.8892974 -3.6324017 0.35821009 45
2.2073383 -4.2511206 0.5881415 6
1.7050762 -3.2880213 0.58662933 27
1.8102759 -3.495362 0.76514411 15
1.7586704 -3.4015324 0.8840577 24
1.9224772 -3.7231364 1.1227571 5
1.1693274 -2.2791774 -0.68638813 28
1.2680992 -2.4748867 -0.64201033 7
1.3893468 -2.7161903 -0.59303439 20
1.5807164 -3.094316 -0.55033648 13
1.8800577 -3.68505 -0.5079515 13
2.0534749 -4.0319109 -0.39586139 19
2.0464168 -4.0232596 -0.23655853 34
2.0051427 -3.9472287 -0.077279255 27
1.9575676 -3.818846 0.074905731 13
1.909498 -3.7298803 0.21960169 1
1.8675208 -3.6525984 0.35890734 45
2.4041202 -4.7102199 0.64931989 18
1.7027138 -3.3403225 0.59382528 22
1.5711741 -3.0862651 0.67317414 4
1.5600682 -3.0697484 0.79497707 53
1.7285651 -3.4057148 1.0233705 23
1.1577365 -2.2959101 -0.68897635 21
1.2499138 -2.4819391 -0.64156049 16
1.378287 -2.7416103 -0.59646893 11
1.583007 -3.1529408 -0.55878401 16
1.862294 -3.714056 -0.51014513 15
1.9762279 -3.9481571 -0.38627425 50
1.9575524 -3.9159677 -0.22944085 26
1.9811105 -3.9682875 -0.077418879 19
1.8678776 -3.7074103 0.072462395 27
1.9148326 -3.8055651 0.22326522 42
1.8947567 -3.7705827 0.36919171 28
2.1584494 -4.3028173 0.59106636 25
nan nan nan nan
nan nan nan nan
1.751931 -3.5076947 0.9052031 33
1.5995477 -3.2067943 0.96021873 6
1.1451108 -2.3108604 -0.69104689 25
1.2377424 -2.5010836 -0.64425987 19
1.3799829 -2.7934101 -0.60562783 15
1.5600833 -3.1621437 -0.55847108 13
1.8319325 -3.7180631 -0.50892639 18
1.96954 -4.0026336 -0.39028341 53
1.9143161 -3.89727 -0.22755675 41
1.951597 -3.9784312 -0.077349067 39
2.2598481 -4.5644302 0.088902563 36
1.8235956 -3.6881444 0.21562417 28
2.5167654 -5.0967655 0.49731067 8
nan nan nan nan
1.8365066 -3.7306304 0.65858912 9
1.6604545 -3.3774643 0.73156172 9
nan nan nan nan
1.560117 -3.1831887 0.94986594 5
1.1357155 -2.3326938 -0.69518799 27
1.2262163 -2.5219316 -0.64740914 21
1.3566488 -2.7939079 -0.60371965 25
1.5445564 -3.1851315 -0.5606612 23
1.7955526 -3.7093205 -0.50600159 4
1.9493533 -4.0324302 -0.39185223 53
2.0075741 -4.1584201 -0.24200147 16
1.8855776 -3.9126961 -0.075813256 40
1.9767157 -4.0618596 0.078849971 12
1.8342431 -3.7741215 0.2199157 27
2.327194 -4.7969255 0.46645752 33
1.7302006 -3.5711362 0.48723367 13
1.7895614 -3.6985908 0.65076745 1
1.6103654 -3.3341706 0.71973157 10
3.0876267 -6.4013124 1.6407931 2
1.5903931 -3.3016424 0.98195946 23
1.1114731 -2.3229439 -0.69001162 21
1.218264 -2.5495613 -0.65235811 27
1.3278139 -2.7838192 -0.59952188 20
1.5392721 -3.2315044 -0.56691855 22
1.7873169 -3.757309 -0.51087636 16
1.9032073 -4.0081449 -0.38819164 40
1.9408408 -4.0929303 -0.23739593 28
1.962459 -4.1441221 -0.080036737 35
1.882763 -3.9384458 0.076197207 16
1.9618751 -4.1094642 0.23865199 22
1.9686635 -4.1292439 0.40021914 12
1.8092992 -3.8018081 0.5169698 12
1.7297801 -3.6396289 0.63825274 13
1.5808988 -3.3308661 0.71667862 2
1.8105321 -3.8215756 0.9762876 13
1.6110932 -3.4052169 1.0093943 31
1.0944071 -2.3288984 -0.68949395 20
1.1996071 -2.5562401 -0.65190822 34
1.3058484 -2.7876875 -0.59837705 23
1.5158378 -3.2403824 -0.56660569 26
1.7660841 -3.7804859 -0.51233876 16
1.9433825 -4.1675973 -0.40231091 22
1.8607886 -3.995935 -0.23101093 18
1.9520302 -4.1976123 -0.080804639 21
1.9308587 -4.1125946 0.079303734 19
1.8915929 -4.0344505 0.23352307 10
1.7505409 -3.7387028 0.36117339 11
1.9609008 -4.1956019 0.56864244 10
1.704329 -3.6516161 0.63825274 16
nan nan nan nan
1.6572158 -3.5620227 0.90700269 7
1.6206546 -3.4882131 1.0306175 6
1.0789317 -2.3382359 -0.69001162 27
1.1735765 -2.5468538 -0.64740914 18
1.3183498 -2.8662977 -0.61326015 30
1.4956523 -3.2562716 -0.56754434 20
1.7619939 -3.8414404 -0.51891971 4
1.9615151 -4.2843213 -0.41224664 18
2.0753434 -4.5392218 -0.26157513 14
1.8919482 -4.1438327 -0.079513162 3
1.9171697 -4.1586623 0.079932027 27
1.6921602 -3.6756396 0.21206531 15
1.7210686 -3.7435918 0.36047614 27
1.6525494 -3.6011748 0.48650244 23
1.6993678 -3.7083204 0.64607441 16
nan nan nan nan
1.9893756 -4.3552094 1.1054095 4
2.3154237 -5.0760369 1.494939 1
1.0673642 -2.3562696 -0.69311744 16
1.1541617 -2.5514336 -0.64650935 18
1.2886124 -2.8539598 -0.60868073 11
1.4607038 -3.2396219 -0.56285131 27
1.7155726 -3.8102059 -0.51306999 15
1.8474354 -4.1107287 -0.39429256 23
1.8661478 -4.1581883 -0.23886132 24
1.8850535 -4.2062101 -0.080455594 21
1.9111757 -4.2229557 0.080909356 31
2.0604529 -4.559154 0.26220316 16
1.6998088 -3.7664118 0.36152202 20
1.6232917 -3.6035745 0.48528376 27
1.7269225 -3.8389926 0.66672373 7
1.6909972 -3.7643964 0.80216104 7
1.5985507 -3.5652542 0.90205377 9
2.2886143 -5.1114726 1.5006329 6
1.0642304 -2.3936729 -0.70191729 13
1.1434381 -2.575459 -0.65055853 19
1.2758154 -2.8790405 -0.61211532 20
1.4396505 -3.2533529 -0.56347704 34
1.7113966 -3.8729303 -0.51989466 12
1.7880427 -4.0521193 -0.38749442 28
1.8330482 -4.1619763 -0.23833798 22
1.8797948 -4.2741818 -0.081502736 22
1.7030619 -3.8341405 0.073230296 27
1.7912996 -4.0384917 0.2315343 3
1.6065017 -3.6269863 0.34705415 22
1.6021081 -3.6238971 0.48650244 33
1.5548829 -3.5220606 0.60978162 1
1.6599246 -3.765332 0.79987139 40
1.7045821 -3.8721244 0.9767375 4
2.0383883 -4.6391773 1.3577647 9
1.0444036 -2.3939617 -0.69984674 13
1.1339915 -2.6030309 -0.65550739 7
1.2804668 -2.9434671 -0.62394547 22
1.4237688 -3.2775717 -0.56597996 44
1.6708933 -3.853822 -0.51575112 18
1.8388698 -4.2473421 -0.40492558 18
1.8466827 -4.2715206 -0.24388559 8
1.7485015 -4.0521851 -0.07703492 29
1.6201746 -3.7155008 0.070752062 23
1.7406459 -3.9974866 0.2284988 4
1.5795532 -3.634459 0.34670553 25
1.5750332 -3.6292555 0.48577127 38
4.8588915 -11.212126 1.9354074 1
1.6499641 -3.8146684 0.80788535 16
1.6381016 -3.7926912 0.95379257 1
1.8866484 -4.3744416 1.2764956 18
1.0303657 -2.4063427 -0.70139962 13
1.1292714 -2.6411505 -0.66315573 20
1.2668219 -2.9685857 -0.62738001 15
1.4109191 -3.3110559 -0.57004726 24
1.6492858 -3.8760655 -0.51721358 18
1.7048123 -4.0143375 -0.38156784 16
1.6671046 -3.9312663 -0.22378856 20
1.6772139 -3.9608738 -0.075080253 21
1.7491328 -4.0889134 0.077628307 10
1.8531327 -4.3383126 0.24723509 3
1.5837004 -3.712934 0.35315505 42
1.5675421 -3.6821711 0.4913772 27
nan nan nan nan
nan nan nan nan
1.6245066 -3.8345387 0.96144086 33
1.9222975 -4.5440764 1.3220477 13
1.0142891 -2.4152586 -0.70191729 21
1.109298 -2.6453757 -0.66225594 11
1.2437924 -2.9719243 -0.62623513 18
1.3877696 -3.3208253 -0.57004726 15
1.6313595 -3.9094687 -0.52013838 16
1.771728 -4.25421 -0.40318248 20
1.6426864 -3.9501863 -0.22420727 26
1.6978333 -4.0888352 -0.077279255 19
1.6354458 -3.8981867 0.073788777 15
1.6707722 -3.9882412 0.22661473 15
1.5638921 -3.7386043 0.35454956 35
1.515795 -3.6307418 0.48309013 29
nan nan nan nan
4.8731189 -11.706915 2.4648707 22
1.6739562 -4.0293474 1.0073309 37
1.5019104 -3.6205697 1.0502877 24
0.99887437 -2.4258533 -0.70295256 25
1.0841334 -2.6368344 -0.65820682 10
1.2237598 -2.9823513 -0.62661678 23
1.3930115 -3.399893 -0.5819363 13
1.6122947 -3.940973 -0.52281958 16
1.6742033 -4.1004648 -0.38749442 12
1.6331648 -4.0059452 -0.22671939 16
1.5998832 -3.9301946 -0.074068017 34
1.6021056 -3.8947146 0.073509537 30
1.7734087 -4.3175755 0.24461828 27
1.5430465 -3.7623351 0.35576975 28
1.5325212 -3.7441161 0.49673948 37
nan nan nan nan
2.0911279 -5.1241512 1.0757812 12
1.6847438 -4.1365895 1.0311757 13
nan nan nan nan
0.98625278 -2.4435163 -0.70605838 28
1.0737119 -2.6642208 -0.66315573 16
1.2043744 -2.9944651 -0.62738001 27
1.3677698 -3.4058685 -0.58131051 19
1.5906527 -3.9668725 -0.52476943 13
1.5966814 -3.9899671 -0.37598985 26
1.6933454 -4.2379565 -0.23917533 22
1.5635141 -3.9189796 -0.073649161 18
nan nan nan nan
1.4955766 -3.7147422 0.20986721 27
1.8422366 -4.5827074 0.43211815 7
1.5477364 -3.8578959 0.51038885 13
1.4573504 -3.6381104 0.62073201 24
4.8229275 -12.058178 2.5244031 13
nan nan nan nan
1.5148695 -3.8009036 1.0963575 12
0.96774882 -2.4467492 -0.70502311 20
1.0608122 -2.686152 -0.66675496 15
1.1762416 -2.984535 -0.62356383 23
1.3468529 -3.4226871 -0.58256203 12
1.5643723 -3.9815762 -0.52525693 17
1.5811272 -4.0304198 -0.37877885 34
1.643332 -4.1976004 -0.23624454 22
1.5302926 -3.9148993 -0.073369913 34
1.6012139 -4.0524678 0.076057591 16
1.5245793 -3.8644354 0.2177176 8
1.5465915 -3.9262516 0.36919171 32
1.5258497 -3.8815391 0.51209503 10
1.4174819 -3.6114197 0.61447465 50
4.8066826 -12.265204 2.560657 2
1.4791383 -3.7801411 0.93714619 16
1.4735408 -3.773597 1.0854871 6
0.94994569 -2.4516444 -0.70450544 10
1.0420336 -2.6934924 -0.66675496 32
1.1672177 -3.0217743 -0.62966973 15
1.3249457 -3.4354618 -0.58318776 18
1.5472331 -4.0201893 -0.52891296 14
1.5651011 -4.0729761 -0.38174215 38
1.5775189 -4.1117229 -0.2308016 22
1.5093597 -3.9422951 -0.073684059 31
1.5764812 -4.0707321 0.076197207 13
1.4816728 -3.8318777 0.21531016 16
1.4868671 -3.8533068 0.36134771 30
1.5322217 -3.9770448 0.52330703 1
nan nan nan nan
4.7603378 -12.401103 2.5820274 24
1.479214 -3.8595223 0.95424241 12
1.792343 -4.6838665 1.3437886 18
0.94009304 -2.476114 -0.70968187 13
1.0153868 -2.6786561 -0.66135615 37
1.148177 -3.0353582 -0.63081461 21
1.3134921 -3.4778914 -0.58881938 19
1.5359415 -4.073349 -0.53451896 13
1.6018822 -4.2572246 -0.39795309 19
1.5136567 -4.0291519 -0.22556801 24
1.4895134 -3.9712005 -0.074033104 24
1.530296 -4.0348949 0.07532458 26
1.4753964 -3.8962953 0.21834564 4
1.4465127 -3.8260653 0.35786149 27
1.5002155 -3.9765003 0.52184457 5
1.5109941 -4.0114288 0.67892563 1
nan nan nan nan
1.4939997 -3.9810498 0.98168647 15
nan nan nan nan
0.92614895 -2.4916708 -0.71227002 15
1.0061536 -2.7112575 -0.66765475 22
1.137867 -3.072757 -0.63692045 24
1.2884952 -3.4851236 -0.58850652 16
1.5170907 -4.110044 -0.53793132 13
1.5039486 -4.0832138 -0.38069627 48
1.5992292 -4.3489194 -0.24283887 12
1.545144 -4.2086415 -0.078256592 16
1.5160115 -4.0829735 0.076022685 12
1.4037293 -3.7866457 0.21164663 9
1.4508868 -3.9201536 0.36570549 18
nan nan nan nan
1.74674 -4.7372923 0.79969311 27
nan nan nan nan
2.6111536 -7.1083927 1.7483197 55
1.3429699 -3.6619146 1.0451113 22
0.91929829 -2.5271232 -0.72055227 12
0.98520517 -2.7127206 -0.66630507 16
1.1217386 -3.0953925 -0.6399734 28
1.27623 -3.5274696 -0.59413815 16
1.4795932 -4.0962634 -0.53476268 17
1.4997765 -4.1589551 -0.38679719 26
1.5336657 -4.2622542 -0.23739593 16
1.4988229 -4.1722775 -0.077383965 14
1.6841602 -4.6347408 0.086075269 6
1.6381351 -4.5154452 0.25173599 4
1.4309477 -3.9507935 0.36762294 16
1.4351028 -3.9709225 0.5184322 8
1.7022281 -4.7177825 0.79437429 33
2.7705224 -7.6912079 1.5890573 3
nan nan nan nan
1.3323795 -3.7130225 1.057017 34
0.89386082 -2.5116394 -0.71434063 9
0.97863966 -2.7544217 -0.67485321 16
1.0993305 -3.0992553 -0.63921016 28
1.2535088 -3.5397992 -0.59476393 19
1.4562505 -4.1214671 -0.53671265 6
1.4726933 -4.1749606 -0.38732013 40
1.4840523 -4.2141948 -0.23415108 28
1.4232552 -4.0505762 -0.074940629 60
1.5138543 -4.2560959 0.078849971 8
1.4603263 -4.1124253 0.22870816 5
1.4020002 -3.9569309 0.36727428 27
nan nan nan nan
1.6338991 -4.6268148 0.77716655 16
2.5856199 -7.3381767 1.5123522 11
4.4638543 -12.689935 3.1056745 3
1.3307588 -3.7894466 1.0761696 12
0.87356758 -2.5085433 -0.71175241 18
0.97138625 -2.7941518 -0.68295145 30
1.078954 -3.1105642 -0.6399734 24
1.2300587 -3.5521972 -0.59538966 40
1.4443777 -4.1781874 -0.54280609 16
1.4442416 -4.1848884 -0.38732013 44
1.4702015 -4.2697754 -0.23666322 14
1.4873079 -4.3268137 -0.079862215 14
1.4670229 -4.2174549 0.077942446 26
1.4263394 -4.1074257 0.22787078 39
1.3534983 -3.9042606 0.36152202 36
1.4691164 -4.2473488 0.55182445 35
1.613808 -4.6735849 0.78311098 37
nan nan nan nan
2.5047984 -7.2785892 1.7771134 42
1.2478095 -3.634201 1.0295821 13
0.86723953 -2.5474987 -0.72106987 19
0.95185637 -2.8008649 -0.68295145 12
1.060279 -3.125273 -0.64149988 39
1.2286627 -3.6278434 -0.60665292 10
1.4189861 -4.1994534 -0.54426849 11
1.4404627 -4.2703838 -0.39429256 36
1.499743 -4.453824 -0.24629304 18
1.3672718 -4.0698147 -0.074940629 39
1.50398 -4.4204416 0.081502736 16
1.5801268 -4.6522355 0.25749293 4
1.3281268 -3.9192758 0.36204496 30
1.4388996 -4.2534895 0.55133694 43
1.3803431 -4.0874405 0.6833058 37
nan nan nan nan
1.6351211 -4.8614697 1.1841425 4
nan nan nan nan
0.85248256 -2.5626569 -0.72365808 11
0.93289357 -2.8092911 -0.68340135 13
1.045297 -3.155144 -0.6460793 37
1.1977094 -3.6215384 -0.60415 13
1.3964798 -4.2299924 -0.54694968 21
1.3931535 -4.2273526 -0.38941187 36
1.5183631 -4.6181264 -0.25477144 12
1.3506743 -4.1153603 -0.075603828 39
1.4634825 -4.4045224 0.081014074 17
1.3122612 -3.9563272 0.21845031 28
1.3207729 -3.9889774 0.36762294 27
1.4800298 -4.480442 0.57936692 8
1.3770406 -4.1760063 0.6964463 7
1.3516841 -4.1063395 0.84032285 2
1.5944499 -4.8524013 1.1791935 4
1.2938335 -3.9468215 1.112922 24
0.83994377 -2.5850813 -0.72831684 14
0.92107415 -2.8398335 -0.68925005 25
1.0237968 -3.1621859 -0.6460793 27
1.1797131 -3.6502833 -0.60759157 12
1.3541234 -4.1999626 -0.54183114 11
1.4063348 -4.3697362 -0.40161365 29
1.3854866 -4.3126984 -0.23739593 34
1.3335071 -4.1608706 -0.076267019 16
1.3519437 -4.1633277 0.076406635 22
1.3807598 -4.2596579 0.23467445 18
1.3235443 -4.0928874 0.37633851 10
1.3366851 -4.1409278 0.53427523 26
1.4358234 -4.4560289 0.74149948 24
1.5272595 -4.7511568 0.97007298 41
2.4018316 -7.4853163 1.8149053 21
1.2068325 -3.767879 1.0601228 28
0.82349735 -2.5944211 -0.72935206 14
0.89995718 -2.8404639 -0.68790036 31
0.99992055 -3.16364 -0.64493442 34
1.1690592 -3.7055266 -0.61541325 16
1.3420514 -4.264226 -0.54889959 14
1.4247594 -4.5353136 -0.4159072 26
1.3236725 -4.2212605 -0.23184831 48
1.3987509 -4.4716225 -0.081781976 8
1.4279968 -4.504343 0.082480073 17
1.3280905 -4.1968341 0.2306969 10
1.2956545 -4.1018014 0.37633851 3
nan nan nan nan
1.3460031 -4.2793922 0.71052545 42
1.4864122 -4.7373519 0.96511191 12
1.2795949 -4.0856905 0.98843497 4
1.2260355 -3.9218767 1.1010163 33
0.80548269 -2.6020932 -0.72986972 10
0.88766229 -2.8728976 -0.69419903 31
0.97665304 -3.1667917 -0.64417118 42
1.1407706 -3.708133 -0.61447465 21
1.3326434 -4.3399096 -0.55743045 12
1.37905 -4.4994316 -0.41172373 33
1.2940154 -4.2325344 -0.23195298 33
1.3908451 -4.5577836 -0.08317817 5
1.3255965 -4.2849574 0.078291491 6
1.2461979 -4.0382872 0.22148579 27
1.2621645 -4.0976391 0.37511832 36
1.3125739 -4.269238 0.54841208 11
nan nan nan nan
1.415951 -4.6255913 0.94030684 2
1.244207 -4.0721607 0.98303622 33
1.1979403 -3.9305491 1.1010163 44
0.7895304 -2.6150506 -0.73194027 7
0.86139935 -2.8585 -0.68925005 22
0.95679307 -3.1831 -0.6460793 52
1.1023673 -3.6743813 -0.60759157 18
1.304021 -4.3548121 -0.55816168 26
1.3841187 -4.6311226 -0.42287967 33
1.2724239 -4.268261 -0.23341838 43
1.3527193 -4.5462995 -0.082794219 21
1.2770035 -4.234983 0.07720945 8
1.2231554 -4.0641007 0.22242783 35
1.2243556 -4.07582 0.37232932 41
1.2238734 -4.0845613 0.52355075 7
1.2672608 -4.2374306 0.7005136 6
1.2202173 -4.087924 0.82925594 15
1.2296584 -4.1274376 0.99428368 4
1.1479089 -3.8628924 1.0797932 19
0.77943635 -2.6482975 -0.73970485 13
0.84252071 -2.8681836 -0.69014984 27
0.94946492 -3.2385216 -0.65600139 15
1.0756671 -3.6761119 -0.60665292 12
1.2719195 -4.3580928 -0.55743045 14
1.2637169 -4.3384361 -0.39533845 34
1.2567226 -4.3228521 -0.23593052 34
nan nan nan nan
1.4134766 -4.8056779 0.087436557 19
1.1965891 -4.0761652 0.22263718 15
1.20147 -4.1033897 0.37407246 12
1.2010537 -4.1099463 0.52574438 2
1.3368396 -4.5835109 0.75620425 31
1.1861649 -4.0774922 0.82543975 22
1.2029873 -4.1434073 0.99608326 10
1.134493 -3.915149 1.0922165 28
0.76245779 -2.6572556 -0.74074018 13
0.81654048 -2.8513706 -0.68475103 28
0.92683268 -3.2450714 -0.65600139 27
1.0678465 -3.7462223 -0.61697763 16
1.2487432 -4.3895612 -0.56035525 14
1.2823434 -4.5196581 -0.41102645 15
1.2471914 -4.4045448 -0.23990804 16
1.2186693 -4.3124304 -0.078221686 8
nan nan nan nan
1.2021523 -4.2034769 0.22912684 16
1.2538967 -4.3931069 0.39969626 12
1.3016855 -4.5726304 0.58375424 7
1.2643197 -4.4502187 0.73273909 10
1.1878376 -4.1893554 0.84642875 25
1.3564467 -4.7967758 1.1508497 17
1.0672547 -3.7816725 1.052876 37
0.7412889 -2.6532109 -0.73815197 11
0.80603546 -2.8907902 -0.69284928 13
0.90678549 -3.2609203 -0.65790945 22
1.0495908 -3.7821374 -0.62167066 19
1.2233666 -4.4173026 -0.56279266 14
1.2672025 -4.5880356 -0.41643015 16
1.202082 -4.3611569 -0.2370819 38
1.1826996 -4.299624 -0.077837728 14
1.2290838 -4.4050493 0.079827309 2
1.1567054 -4.1540451 0.22598669 20
1.2717401 -4.5764413 0.41555858 15
1.0984894 -3.9637115 0.50502658 13
nan nan nan nan
1.1690087 -4.2353959 0.85406113 30
nan nan nan nan
nan nan nan nan
0.72376198 -2.6620495 -0.73918724 25
0.79808116 -2.9414849 -0.70364696 10
0.89117646 -3.2937026 -0.66325212 17
1.0329446 -3.8256073 -0.62761515 19
1.1992122 -4.4506536 -0.56596124 17
1.3323394 -4.958509 -0.44920069 10
1.1783305 -4.3945212 -0.23844264 12
1.1578225 -4.3270931 -0.07818678 19
1.1406648 -4.201241 0.075987779 11
1.1146185 -4.1138248 0.22336988 31
1.2095987 -4.4736552 0.40544853 30
1.1276381 -4.1821141 0.53183788 23
1.0783659 -4.0077229 0.65733767 12
1.2111976 -4.5108023 0.90786928 31
nan nan nan nan
1.0532482 -3.9417818 1.0932516 12
0.70516002 -2.6670375 -0.73918724 15
0.77802372 -2.948869 -0.70409685 7
0.86466414 -3.2865536 -0.66058075 19
1.0001923 -3.809798 -0.62386072 19
1.179682 -4.5030837 -0.57156724 21
1.3807789 -5.2857599 -0.47796208 20
1.1405694 -4.3755836 -0.23697723 28
1.1472176 -4.4105473 -0.079548068 11
1.1439774 -4.3328428 0.078221686 10
1.090451 -4.1388884 0.22431193 34
1.187456 -4.516675 0.40858611 13
1.1537877 -4.4011068 0.55864912 33
1.1058531 -4.227282 0.69206619 43
1.096867 -4.2019153 0.84413904 11
1.0838825 -4.1640663 0.99338394 25
1.0145345 -3.906033 1.0813459 17
0.69133091 -2.6906059 -0.74436361 13
0.75741816 -2.9542286 -0.70409685 10
0.84802026 -3.3172369 -0.66554183 17
0.97698885 -3.8300865 -0.62605083 21
1.1487055 -4.5131335 -0.57181102 29
