# .PCD v0.7 - Point Cloud Data file format
VERSION 0.7
FIELDS x y z intensity
SIZE 4 4 4 4
TYPE F F F F
COUNT 1 1 1 1
WIDTH 1431
HEIGHT 1
VIEWPOINT 0 0 0 1 0 0 0
POINTS 1431
DATA ascii
8.4625311 30.025972 3.830354 36
8.4705782 29.994368 4.9364467 27
8.4823132 29.975904 6.0555148 24
10.816679 38.149143 9.1546087 36
8.4862213 29.850422 8.3153391 18
0.72293568 2.5178604 -0.70191729 31
0.80170429 2.7866964 -0.6694544 24
0.88744956 3.0786767 -0.62280059 33
0.99376279 3.440721 -0.56723142 35
1.1551162 3.98893 -0.50990134 18
1.3618821 4.6937499 -0.42758605 14
1.7189314 5.9127569 -0.32270354 2
2.3317406 7.9998369 -0.14544836 6
3.3849666 11.781504 0.2139665 18
3.3963959 11.798007 0.64341831 11
3.9400148 13.65049 1.2430152 18
8.672245 29.986736 3.8327911 24
8.685008 29.972061 4.9423909 14
8.6957598 29.931038 6.0585675 37
11.198215 38.469368 9.2499886 37
8.6978502 29.821642 8.3236208 18
0.74114895 2.5165873 -0.70295256 24
0.81403601 2.7587461 -0.66405559 24
0.91003495 3.0761712 -0.62356383 32
1.0160751 3.4280179 -0.56629282 22
1.1788526 3.9695573 -0.50843894 16
1.3949387 4.6881895 -0.42793471 19
1.7310511 5.8030019 -0.31736526 11
2.3981612 8.0240154 -0.14618136 12
4.1045671 13.919216 0.25330424 18
3.4566083 11.699306 0.63933611 14
4.0288749 13.609984 1.2417951 15
8.8892736 29.95211 3.8362033 24
8.9019089 29.937208 4.9467711 14
8.9133062 29.918192 6.0681081 37
11.556794 38.717171 9.3282709 38
8.9097233 29.773144 8.3272438 55
0.75590658 2.5021055 -0.70036435 33
0.82932407 2.7399397 -0.66090626 27
0.92753434 3.0586329 -0.62127411 31
1.033643 3.4021213 -0.56316411 24
1.1978587 3.9327464 -0.50478286 18
1.42298 4.6630926 -0.4265402 23
1.7559124 5.7433357 -0.31474847 5
2.424825 7.9114809 -0.14443611 12
3.5754395 11.827507 0.21567684 20
3.5564258 11.74241 0.64299959 8
3.6635993 12.065901 1.1032174 2
9.1045008 29.928892 3.8410783 12
9.1141176 29.904266 4.9514642 28
9.1299896 29.881525 6.0734506 25
9.161869 29.929781 7.2263279 18
9.1257572 29.756138 8.3396673 55
0.75863761 2.4507661 -0.68742341 34
0.85661221 2.762151 -0.66765475 14
0.94944781 3.0539575 -0.62165576 27
1.054432 3.3853924 -0.56159979 26
1.2263741 3.9301867 -0.50551409 18
1.4447933 4.6188173 -0.42340261 19
1.7822286 5.6871023 -0.31234103 2
2.4295003 7.738349 -0.14157392 18
3.6472678 11.767876 0.21504855 22
3.6596382 11.785963 0.6467678 17
3.6545036 11.747704 1.0763733 14
9.3226776 29.894922 3.8449781 12
9.3350372 29.879505 4.9580345 14
9.3460913 29.859903 6.0818462 50
9.3828468 29.904135 7.2357759 18
9.3448572 29.728563 8.3500204 55
0.78273952 2.4675066 -0.69363505 37
0.85875988 2.7022438 -0.65460759 11
0.96538073 3.0304198 -0.61822122 32
1.0660276 3.3403115 -0.55534244 26
1.246526 3.89884 -0.50258923 19
1.4751793 4.6029258 -0.42287967 19
1.8041826 5.6193733 -0.30930555 2
2.4534621 7.6279197 -0.13986358 18
3.7995508 11.963208 0.21909751 25
3.7672646 11.840062 0.651164 17
3.7128303 11.647871 1.0695752 18
9.5420322 29.863146 3.8493655 73
9.5578604 29.858755 4.9655433 28
9.5686979 29.838795 6.0910048 37
12.708624 39.535267 9.5874147 41
9.5652161 29.703047 8.3614082 56
0.79994684 2.461982 -0.69363505 30
0.86071557 2.6442974 -0.64201033 37
0.98407906 3.01614 -0.61669469 31
1.0893229 3.3327875 -0.55534244 27
1.2663041 3.8674035 -0.49966437 16
1.5060329 4.5887299 -0.42253101 16
1.8221569 5.5421319 -0.3057467 7
2.4547298 7.4529629 -0.1369665 17
3.9027667 11.997245 0.22021447 25
3.7990813 11.65776 0.64258093 8
3.8033268 11.650079 1.0721899 18
9.7576914 29.818441 3.8522902 61
9.7845411 29.847616 4.9749293 14
9.7902546 29.812304 6.0994005 25
13.006238 39.512218 9.603611 41
9.7820158 29.664907 8.3696909 56
0.81345534 2.4453392 -0.69052929 34
0.88100231 2.6437707 -0.64336008 41
0.99578214 2.9812644 -0.61097044 33
1.1044153 3.3007483 -0.55127513 37
1.2812862 3.8227074 -0.49503332 16
1.5145571 4.5082226 -0.41608149 23
1.8487028 5.4933095 -0.30375794 2
2.4862628 7.3750052 -0.13584954 20
3.9794776 11.948836 0.21983051 25
3.8829033 11.638531 0.64299959 8
3.8883562 11.634581 1.0732358 20
9.9769611 29.78348 3.8566775 61
9.9995775 29.799183 4.9783711 14
10.008765 29.774868 6.1058879 38
13.296701 39.464775 9.6144085 42
10.006793 29.648975 8.3847017 38
0.83486515 2.4524021 -0.69415271 18
0.89692193 2.630178 -0.64156049 29
1.0191094 2.9816711 -0.61249691 28
1.1344689 3.3135159 -0.55471671 33
1.2911971 3.7648489 -0.48869613 24
1.541972 4.4883876 -0.41520998 20
1.8688015 5.4273925 -0.30082709 2
2.5129123 7.2856326 -0.13452315 17
4.0686107 11.937796 0.22014466 38
3.9847162 11.671622 0.64634913 8
3.9720705 11.614691 1.073933 16
10.202668 29.765682 3.8635023 49
10.223409 29.775356 4.9861927 28
10.236183 29.76182 6.1177182 25
10.26611 29.798098 7.2762671 57
10.238759 29.651434 8.4054079 19
0.84180069 2.4173236 -0.68587047 29
0.91782945 2.6312122 -0.64336008 27
1.0225441 2.9264779 -0.60257488 35
1.1445998 3.2702913 -0.54877216 22
1.324677 3.7763479 -0.4913772 19
1.5600575 4.4399195 -0.41172373 15
1.8904477 5.3712158 -0.29841965 2
2.4858851 7.0472722 -0.13043928 8
4.1596384 11.938152 0.22066824 27
4.064723 11.646116 0.6464538 17
4.0563436 11.596082 1.0748047 20
10.424748 29.751741 3.8708143 49
10.443524 29.755398 4.9946404 28
10.456755 29.726667 6.1253505 38
10.455772 29.674232 7.26367 18
10.486004 29.710396 8.4421597 58
0.85888314 2.4133577 -0.68638813 42
0.94684225 2.6561089 -0.65100837 30
1.0469142 2.9303598 -0.60486454 35
1.1740586 3.2808194 -0.55190086 22
1.3490136 3.7635059 -0.49088979 16
1.5768704 4.3895431 -0.40806317 18
1.8913865 5.2564039 -0.29276738 2
2.5107439 6.9662256 -0.12925252 19
4.2395258 11.899404 0.2204937 29
4.1680818 11.679531 0.64990795 31
4.1459117 11.598221 1.0775936 18
10.669678 29.782896 3.8844638 24
10.662329 29.713377 4.999959 14
10.674779 29.699148 6.1345096 39
10.697025 29.695852 7.287065 57
10.715459 29.69825 8.4597597 78
0.87505025 2.4054875 -0.68587047 40
0.95402086 2.6183074 -0.64336008 23
1.072059 2.9358895 -0.6075359 26
1.1745412 3.2113228 -0.54157621 17
1.3656931 3.7279015 -0.48747739 16
1.5765791 4.2942624 -0.40021914 14
1.9170079 5.213079 -0.2910926 2
2.5206115 6.8434458 -0.12729785 16
nan nan nan nan
4.2597904 11.67829 0.65147805 14
4.2835364 11.724319 1.0920614 12
10.919658 29.823254 3.8995755 25
10.890593 29.695707 5.0096579 29
10.896749 29.664444 6.1429048 26
14.514519 39.428104 9.6998901 43
10.939224 29.668037 8.4727001 39
0.89384043 2.4047525 -0.68742341 30
0.96343672 2.587842 -0.63751131 34
1.0836079 2.9044213 -0.60257488 30
1.204538 3.2233992 -0.54501772 22
1.3770728 3.6792343 -0.4823589 22
1.6198126 4.3185959 -0.40353107 22
1.9421145 5.1696544 -0.28941786 2
2.5626895 6.8107109 -0.12701862 19
4.4205971 11.88028 0.22126161 31
4.3174958 11.584638 0.64791918 17
4.329742 11.598934 1.0831715 16
11.127583 29.746298 3.8995755 75
11.117064 29.670744 5.0184183 29
11.118082 29.626242 6.150919 26
nan nan nan nan
8.1041975 21.515265 6.1604114 24
0.90580833 2.3858109 -0.68379998 31
0.9911781 2.6065533 -0.64380997 38
1.1052549 2.900455 -0.60333806 23
1.2192641 3.1946106 -0.54157621 19
1.3956372 3.6509886 -0.47992152 22
1.6449337 4.2941585 -0.40231091 24
1.9466795 5.0739222 -0.2848123 4
2.574311 6.6993227 -0.12527338 21
nan nan nan nan
4.4146094 11.597145 0.65032667 23
4.4155812 11.581456 1.0843917 25
11.351997 29.712387 3.9054253 75
11.347922 29.655142 5.0290561 14
11.354839 29.626736 6.1673288 39
4.0712271 10.600384 2.6215796 20
8.0731916 20.98756 6.0253077 23
0.91336459 2.3560131 -0.67707068 37
1.0008869 2.5777707 -0.6384111 33
1.1190701 2.8762012 -0.59990352 28
1.2408198 3.18418 -0.54126334 13
1.4210918 3.6411562 -0.47992152 22
1.6835809 4.3048368 -0.40440264 20
1.9718565 5.0341721 -0.28334689 14
2.5669768 6.5434303 -0.12269042 18
nan nan nan nan
4.6351118 11.925329 0.67052829 6
4.5021091 11.565201 1.0857862 23
11.576468 29.676798 3.9112751 37
11.569054 29.61199 5.0353127 29
4.3374014 11.084827 2.31375 34
4.1415758 10.562634 2.6193304 38
8.0316715 20.452377 5.8876157 22
0.93121088 2.3531721 -0.67810595 37
1.0210128 2.5761552 -0.63976085 41
1.1253558 2.8336504 -0.5926528 26
1.2418473 3.12221 -0.53219014 17
1.4354579 3.6034839 -0.47626543 20
1.6995574 4.2578206 -0.40109071 14
1.973591 4.9368286 -0.27863666 7
2.5642831 6.4046822 -0.1204216 28
4.0586362 10.245729 0.19236042 3
4.6549058 11.733024 0.66152656 3
4.5945058 11.563115 1.0885752 19
13.876866 34.853313 4.606174 15
8.7149258 21.855215 3.7265823 16
4.4001193 11.017812 2.3061175 14
4.1160259 10.285594 2.5576937 46
8.0010586 19.963648 5.7628651 28
0.94255286 2.3340745 -0.67448246 28
1.0316652 2.5508993 -0.63526183 23
1.132576 2.7947927 -0.58616525 32
1.2762429 3.1445804 -0.5375089 16
1.4523576 3.5731459 -0.47358429 27
1.7104552 4.1997204 -0.39673293 14
2.0525136 5.0320411 -0.2848123 7
2.6074216 6.3829222 -0.1203518 18
3.70964 9.1770763 0.17277883 1
4.732213 11.68913 0.66089851 3
4.7372603 11.684007 1.103043 14
14.122075 34.761108 4.6069055 15
4.5002699 11.060682 1.8912928 15
nan nan nan nan
4.164897 10.200679 2.5437467 30
4.2167196 10.312173 2.985219 28
0.96323991 2.3381546 -0.67758828 68
1.0323544 2.5022013 -0.62491405 21
1.1520584 2.7868183 -0.58616525 26
1.291363 3.1191685 -0.53469306 15
1.4666215 3.5372481 -0.47017199 23
1.7091577 4.1140795 -0.38976046 19
2.0937314 5.032341 -0.28564969 16
2.6457663 6.3497958 -0.12007255 15
4.1906261 10.162179 0.19187176 10
4.9029021 11.871794 0.67314512 15
4.806531 11.621192 1.1002541 19
8.9024229 21.481764 2.8551552 64
8.9207859 21.494221 3.6859093 47
4.2799969 10.297222 2.1675904 35
nan nan nan nan
4.2603464 10.214731 2.9655488 38
0.97954094 2.3313725 -0.67758828 65
1.0467759 2.4877481 -0.62311447 34
1.1626163 2.7590103 -0.58196747 33
1.3092657 3.1009777 -0.53312874 17
1.4928267 3.5305798 -0.47065943 16
1.7371199 4.1023512 -0.38976046 25
2.1092207 4.9738436 -0.28313756 21
2.6459322 6.2304087 -0.1181528 20
4.2451849 10.093967 0.19113876 8
5.0848908 12.072883 0.68654317 12
4.8828936 11.576341 1.0992082 23
9.069294 21.470041 2.8617361 96
4.5284357 10.704678 1.840921 33
4.3908548 10.359279 2.187053 5
4.2221498 9.9467583 2.4947073 16
3.9927106 9.3925581 2.7346823 11
0.98626137 2.3033407 -0.67137665 31
1.0729001 2.5020578 -0.62851328 25
1.1798186 2.7474253 -0.58120424 33
1.3243406 3.0795231 -0.53093863 20
1.5193504 3.527894 -0.47163439 15
1.7776333 4.1197019 -0.39254946 19
2.1255984 4.9190364 -0.28083476 21
2.6660433 6.1608677 -0.11717546 5
4.3750334 10.212642 0.19393115 8
5.2711544 12.286682 0.70067382 6
5.0544209 11.758828 1.119777 14
nan nan nan nan
4.5746131 10.611927 1.8302835 18
4.4423447 10.290275 2.1786571 1
4.4287696 10.244086 2.5765896 4
4.0995464 9.4644356 2.76367 31
0.99533862 2.2825825 -0.66723549 46
1.0832319 2.4806001 -0.62491405 25
1.1937709 2.728539 -0.57891452 30
1.3397224 3.0577722 -0.52874857 19
1.5335699 3.493571 -0.46846578 15
1.8048325 4.1056824 -0.39237517 17
2.1405237 4.8624105 -0.2784273 33
2.6710618 6.0561118 -0.11553493 15
4.1692686 9.5521669 0.1819239 7
5.1930809 11.880841 0.67953008 3
5.1019382 11.65569 1.1131531 14
4.7509241 10.833184 1.452439 6
4.6761246 10.647464 1.8418596 13
4.4112816 10.025405 2.1290469 9
4.5905395 10.417999 2.6283283 40
4.102262 9.2966843 2.7227764 11
1.0092924 2.2701056 -0.66568261 34
1.1001623 2.4710047 -0.62446415 29
1.2167881 2.729104 -0.58082259 30
1.3253144 2.9669445 -0.51466948 30
1.5595435 3.4864039 -0.46895328 23
1.8334515 4.0929823 -0.39237517 21
2.1760812 4.8487911 -0.27853197 28
2.7058985 6.0209002 -0.11522079 20
4.332562 9.7402534 0.18607756 10
5.3356881 11.972902 0.68696183 18
5.2972651 11.869965 1.1372081 13
4.702517 10.522464 1.4151469 24
4.6997266 10.496542 1.8215232 24
nan nan nan nan
4.4835606 9.9857006 2.5271003 58
4.5483022 10.110995 2.9707251 20
1.0322905 2.278842 -0.67034137 48
1.107726 2.4419677 -0.61906534 29
1.2305999 2.7078156 -0.57815129 25
1.3762697 3.0241435 -0.52624559 15
1.5770383 3.4588997 -0.46675962 16
1.8511081 4.0543833 -0.38993478 21
2.1965919 4.8044186 -0.27685726 28
2.7139382 5.925025 -0.11375479 20
4.2997556 9.4831686 0.18174936 10
5.3481278 11.778965 0.67796004 15
5.3024817 11.662208 1.1208228 10
4.6904674 10.297054 1.3893106 35
4.8556919 10.644996 1.8531229 13
4.7092433 10.304883 2.2023175 18
4.3213592 9.4430237 2.3975286 12
4.6195841 10.080752 2.9712427 32
1.0420933 2.2573645 -0.66620022 46
1.127625 2.439285 -0.62041503 38
1.2486494 2.697377 -0.57776964 23
1.3937194 3.0052576 -0.52468127 28
1.5961325 3.4370022 -0.46529719 22
1.89197 4.0684609 -0.39254946 19
2.212357 4.7487483 -0.27455446 22
2.7332528 5.8588185 -0.11284725 15
4.307168 9.3258371 0.17930602 10
5.5824075 12.064854 0.69669628 12
4.9242783 10.627883 1.0247772 22
4.7797804 10.301875 1.3944291 35
4.6844463 10.077955 1.7602009 34
4.7313623 10.164962 2.1794205 33
4.8523226 10.410584 2.6517231 20
4.3810077 9.3822756 2.7745402 4
1.0553603 2.2447901 -0.66464734 37
1.1421356 2.4260645 -0.61906534 39
1.2612196 2.6741672 -0.57471669 33
1.4121352 2.9900956 -0.52374262 33
1.6294237 3.4455152 -0.46797833 15
1.9073861 4.0260091 -0.38976046 19
2.2351849 4.7115326 -0.27329838 20
2.7294726 5.7456679 -0.11103221 16
4.3550563 9.2549725 0.17853811 5
5.6409597 11.971386 0.69355619 9
5.0400152 10.681539 1.0333185 31
4.8907037 10.346375 1.4051536 13
nan nan nan nan
4.7870708 10.099751 2.1725514 13
4.7578468 10.020002 2.560843 12
4.4173675 9.2903986 2.756423 31
1.0693381 2.2338827 -0.66361207 34
1.1674683 2.4356046 -0.62356436 31
1.2705086 2.6458302 -0.57051897 36
1.4184221 2.9499004 -0.51842386 25
1.649992 3.4269023 -0.46700338 15
1.9129413 3.9659367 -0.38522837 20
2.2419641 4.6418591 -0.27015823 20
2.7242448 5.6328616 -0.10921716 16
4.3824124 9.1467943 0.17703721 12
5.7883348 12.064964 0.70130187 9
nan nan nan nan
4.9309645 10.245796 1.3961353 27
3.5006061 7.2639933 1.2771312 15
3.4538932 7.1574764 1.5447898 13
3.5953145 7.437274 1.9071352 17
5.0856218 10.506085 3.1275694 11
1.0798298 2.2159431 -0.66050619 45
1.1699158 2.3976216 -0.61591601 30
1.2906734 2.6404235 -0.57128215 22
1.4337711 2.9292805 -0.51654667 35
1.6564034 3.3796494 -0.46212861 17
1.9319906 3.9367278 -0.3836596 20
2.2522843 4.5812864 -0.26754144 22
2.6645861 5.4127679 -0.10530782 7
4.4856057 9.1968584 0.17860793 10
5.7707458 11.816081 0.68915993 12
3.3365693 6.8228416 0.66447538 6
4.9115529 10.025722 1.3707864 6
4.7587614 9.7009764 1.7113932 16
nan nan nan nan
3.6045747 7.3286901 1.8855398 21
4.4638267 9.0597248 2.706212 15
1.1004241 2.2187345 -0.66361207 60
1.1805583 2.3771782 -0.61276674 28
1.3147354 2.643882 -0.57395351 30
1.4536769 2.9194534 -0.51654667 25
1.6772993 3.362674 -0.46139738 22
1.9478557 3.8999712 -0.38139355 30
2.2834182 4.5658484 -0.26754144 22
2.7470913 5.4834285 -0.10705306 19
4.4823298 9.033556 0.17602497 14
5.1365466 10.338447 0.60500371 25
5.1436496 10.334631 1.0099607 9
5.1355138 10.304756 1.4136845 65
3.7697766 7.5544019 1.337202 17
3.6000204 7.2016244 1.5650156 11
3.6181443 7.228415 1.8661941 21
5.384943 10.74411 3.2202265 6
1.1137607 2.2077432 -0.66257679 67
1.2002265 2.376045 -0.61456633 27
1.3216377 2.6118662 -0.56899244 33
1.4686663 2.8986611 -0.51466948 31
1.6875758 3.3263948 -0.45798501 22
1.9671361 3.8724124 -0.37999901 18
2.3125207 4.5444555 -0.26722744 27
2.7988803 5.4931092 -0.10761154 16
4.4046831 8.7235737 0.17057982 14
5.1410117 10.168653 0.59715331 23
5.2201753 10.311824 1.0111809 5
nan nan nan nan
5.1344261 10.111763 1.7961807 13
3.5137081 6.9109468 1.5070095 9
3.6725638 7.2140412 1.8688935 12
4.9156766 9.639246 2.899291 16
1.1229703 2.1878834 -0.65895331 46
1.2203472 2.3745415 -0.61636597 46
1.3330961 2.5905905 -0.56632113 29
1.4937901 2.8991337 -0.51654667 23
1.7089363 3.3110044 -0.45749757 22
1.9794868 3.8302646 -0.37721002 28
2.3287117 4.5002289 -0.26555267 18
2.8123119 5.4255023 -0.10666911 14
4.5187664 8.8001232 0.1726741 13
5.2146745 10.142305 0.59767663 20
6.3995256 12.425449 1.222795 5
3.5047259 6.796103 0.93888152 18
3.5110517 6.7996283 1.2120544 5
nan nan nan nan
4.9031444 9.467206 2.4614146 36
nan nan nan nan
1.1235367 2.1527863 -0.65067112 32
1.2310678 2.3558164 -0.61366653 24
1.3465983 2.5725234 -0.56441307 37
1.5084929 2.8781359 -0.51466948 22
1.7222096 3.2817178 -0.45506018 27
1.990417 3.7863727 -0.37424675 15
2.3433256 4.4520497 -0.26366857 13
2.8146834 5.3407774 -0.10537763 19
4.5421295 8.695693 0.17124301 11
5.2585058 10.05433 0.59464121 2
5.4699941 10.445378 1.0315753 18
3.5732954 6.811902 0.94448751 31
5.1098566 9.7287178 1.7404901 1
3.6552653 6.9504619 1.526472 12
3.6494062 6.9275775 1.8077067 17
5.0886712 9.6474457 2.9225848 16
1.1367261 2.1414778 -0.64963585 33
1.2419958 2.3368404 -0.6109671 37
1.3617572 2.5578606 -0.56326818 33
1.518328 2.8483596 -0.51122791 15
1.7506865 3.2801223 -0.45652261 34
2.011168 3.7618415 -0.37320086 15
2.3696389 4.4267769 -0.26314521 9
2.8348942 5.2892733 -0.10474934 16
4.4526176 8.3812189 0.16565825 9
5.2610369 9.8904161 0.5871048 14
5.4444456 10.222289 1.0132726 5
nan nan nan nan
5.114357 9.5743294 1.719215 30
3.5592554 6.6547079 1.4669396 31
3.5936894 6.7078252 1.7568679 23
5.6088433 10.456068 3.1793332 11
1.1452252 2.1215899 -0.64601237 33
1.2573532 2.3263984 -0.6105172 30
1.3739719 2.5379331 -0.56097847 24
1.5297027 2.8220611 -0.50841206 33
1.7517648 3.2276921 -0.45091662 20
2.0392849 3.7512102 -0.37354952 18
2.3890276 4.3890748 -0.26188916 9
2.8727081 5.2711086 -0.10478425 23
4.4416394 8.2214947 0.1631102 13
5.573226 10.303164 0.61390084 17
3.7213984 6.8711109 0.68364966 1
3.7248492 6.8660398 0.95911181 55
nan nan nan nan
3.5549757 6.5365644 1.4463322 24
3.6460247 6.6928406 1.7595673 42
5.3015051 9.719614 2.9665842 26
1.1702332 2.1321721 -0.6517064 31
1.2651184 2.3021922 -0.60646808 36
1.3802961 2.5076401 -0.55639905 30
1.540786 2.7957425 -0.50559622 26
1.7848035 3.2345028 -0.45359772 19
2.0548217 3.7177002 -0.3716321 16
2.4176767 4.368794 -0.2616798 14
2.8803627 5.198451 -0.1037371 15
4.0541339 7.3805475 0.14698416 4
5.5641656 10.117003 0.60510838 14
5.3300343 9.6792908 0.96673149 7
3.776531 6.8468194 0.96008676 25
5.2771468 9.5555906 1.728914 57
nan nan nan nan
3.7870746 6.8376989 1.8045574 25
5.0122781 9.0386791 2.7693639 24
1.1926204 2.1374464 -0.65584749 33
1.2868613 2.3035121 -0.60916752 31
1.3881823 2.4808102 -0.55258286 24
1.559301 2.7831945 -0.50528342 22
1.8147037 3.2337663 -0.45530388 28
2.0660851 3.6772106 -0.36901742 18
2.4324479 4.3239589 -0.26000506 8
2.9322128 5.2038388 -0.10426068 22
3.9973407 7.1582685 0.14310974 8
5.6765714 10.152872 0.60960931 2
5.7663283 10.300743 1.0327955 16
3.84851 6.863574 0.96618026 33
4.0024781 7.1294136 1.2949647 14
nan nan nan nan
3.6807976 6.5376973 1.7321233 12
5.180562 9.1902647 2.8268218 19
1.2002594 2.1154151 -0.6517064 48
1.2956125 2.2806888 -0.60556829 31
1.4103221 2.4795904 -0.55449098 21
1.5811327 2.7753978 -0.50590914 23
1.8274002 3.2037754 -0.45286649 26
2.0877542 3.6557763 -0.36832017 20
2.4583685 4.2977734 -0.2594817 8
2.9485927 5.1485376 -0.10356259 18
4.0985479 7.2206187 0.14492479 16
5.5911365 9.8341894 0.59286177 8
4.0184369 7.0593805 0.71066791 30
5.6076093 9.8391695 1.3905294 11
3.8829911 6.8020864 1.2405255 19
3.6990356 6.4719677 1.4490036 15
3.7931335 6.6285467 1.7631664 38
5.2490749 9.1579847 2.8283746 12
1.2169275 2.1103318 -0.65274167 49
1.3105276 2.2699008 -0.60511833 34
1.4290123 2.4711344 -0.55487263 30
1.6073998 2.7762575 -0.5080992 18
1.8298128 3.1565907 -0.44799173 28
2.1002259 3.6187096 -0.36605412 20
2.4501705 4.2148914 -0.25550416 17
2.9754117 5.1122727 -0.10324844 27
4.0931382 7.0923834 0.14293522 29
4.0858645 7.0712247 0.42800349 2
5.4404573 9.4041901 0.95052046 10
2.5649688 4.4283671 0.62835836 12
3.8907301 6.7064681 1.2280107 17
nan nan nan nan
3.7873917 6.5126224 1.7393217 10
5.4250154 9.3173761 2.8889384 27
1.2312629 2.102 -0.65274167 45
1.3289045 2.2659714 -0.60646808 27
1.452759 2.4732003 -0.55754393 24
1.6052295 2.7294953 -0.50152892 23
1.840176 3.125247 -0.44531062 16
2.1096301 3.5785854 -0.36343944 24
2.4757571 4.1929564 -0.25519016 8
2.9989469 5.0729651 -0.10286448 20
4.1291842 7.0436563 0.14251634 19
4.1288471 7.0346365 0.42748013 2
2.5689631 4.3716965 0.44362271 4
2.5759268 4.3782973 0.62372732 12
3.9252577 6.661109 1.2245692 26
nan nan nan nan
3.8455126 6.51018 1.7456203 40
5.3191724 8.9942245 2.7999046 6
1.2504821 2.101871 -0.65532982 52
1.3442987 2.2568727 -0.60646808 21
1.4745893 2.4716845 -0.559452 34
1.6257974 2.7218974 -0.50215465 23
1.8563122 3.1041303 -0.44409195 19
2.1263719 3.5500965 -0.36204496 33
2.4826694 4.1400361 -0.25299203 4
3.0025282 5.0010018 -0.10181734 22
4.1442928 6.9604058 0.1413994 29
4.2564039 7.1401839 0.43564454 2
2.5363746 4.2497473 0.43298975 11
2.5259662 4.2256017 0.60447198 18
4.0080419 6.6969514 1.2361453 15
4.0727029 6.7969136 1.5402104 29
3.8447368 6.4063144 1.7249248 44
5.9569263 9.9139948 3.0990994 5
1.2491363 2.0666368 -0.64704764 33
1.3549774 2.2390966 -0.60421854 24
1.4745097 2.4327877 -0.55296451 30
1.6396362 2.7020369 -0.50059032 27
1.8738149 3.0843089 -0.44311696 19
2.1397119 3.5164423 -0.36012751 28
2.4928083 4.0919013 -0.25110796 12
3.0050895 4.9269948 -0.10073529 20
4.165875 6.8868179 0.14049187 29
2.6393499 4.3580885 0.26701808 24
2.4430521 4.0291996 0.41224664 15
2.5389185 4.180717 0.60057223 17
3.7919788 6.2367101 1.1560508 10
4.1088257 6.7498679 1.5360124 18
3.9532769 6.4841409 1.7532686 19
4.2112508 6.8991385 2.1657977 27
1.2564571 2.0463424 -0.64342415 25
1.3848625 2.2528253 -0.6105172 28
1.4873407 2.4157472 -0.55143803 24
1.6501678 2.6770716 -0.49808741 27
1.9203223 3.1116955 -0.44896671 28
2.1579239 3.4912503 -0.35908166 29
2.5171103 4.0676055 -0.25068927 12
3.048892 4.9211946 -0.10104944 18
4.2054801 6.8439345 0.14021264 19
2.5786645 4.1915579 0.25791162 9
2.3248415 3.7745454 0.38784304 22
2.5346904 4.1088281 0.59277254 11
4.2610049 6.8991623 1.284327 17
4.0753098 6.5907745 1.5062463 29
3.9933186 6.4481006 1.7510191 36
5.7975116 9.3504305 2.9479489 10
1.2799134 2.0522738 -0.64808291 42
1.3830107 2.2150013 -0.60286885 40
1.4916768 2.3853307 -0.54685861 21
1.6541404 2.6420465 -0.49370724 27
1.913532 3.0528007 -0.44238573 16
2.1854229 3.4811621 -0.3596046 21
2.511436 3.9958217 -0.24733976 18
3.0884988 4.9082513 -0.10122395 24
2.6332095 4.2189279 0.086808272 5
2.440639 3.9058371 0.24137343 13
2.3553629 3.7649794 0.3885403 16
2.5590997 4.0843024 0.59179759 15
4.2261424 6.7370472 1.2596104 29
3.9646046 6.3127756 1.4490036 24
4.0755873 6.4794507 1.7672156 17
5.5311651 8.7833519 2.7812696 22
1.2890421 2.0351274 -0.64549476 26
1.3848747 2.1838968 -0.59702015 24
1.5051357 2.3698869 -0.54571378 20
1.6704252 2.6271002 -0.49308151 22
1.9422599 3.0510893 -0.44409195 17
2.18765 3.4326031 -0.35611835 22
2.5177774 3.9445217 -0.24524632 18
3.119457 4.8815165 -0.10111924 22
2.5480423 4.0197244 0.083073452 9
2.4646354 3.8836455 0.24105945 12
2.3580821 3.711448 0.38470542 21
2.5875511 4.0663371 0.59179759 26
nan nan nan nan
4.0265269 6.3130827 1.4554911 28
4.0839415 6.3957133 1.751919 19
6.0138884 9.4036551 2.9909132 14
1.3021725 2.0244544 -0.64497709 31
1.3990314 2.1725376 -0.59657025 41
1.5201683 2.3579366 -0.54533213 23
1.7011235 2.6355853 -0.49683592 22
1.9419611 3.0041122 -0.43921715 15
2.1985724 3.3971739 -0.35402662 21
2.5445702 3.9272912 -0.24524632 18
3.0968566 4.7723913 -0.099304192 4
2.5179944 3.9131608 0.081223503 15
2.4109719 3.7425318 0.23331371 16
2.3299267 3.6111867 0.37598985 16
2.572084 3.9819317 0.582048 13
4.1974134 6.4907012 1.2242563 14
4.1302652 6.3770986 1.4768617 7
4.111526 6.3408871 1.7447206 51
5.9357495 9.143754 2.9210317 16
1.3169785 2.0171616 -0.64549476 36
1.4105884 2.158071 -0.59522051 18
1.5451952 2.3604071 -0.54838508 23
1.7422205 2.6583405 -0.50340617 22
1.9765201 3.0124016 -0.44238573 20
2.2101982 3.3634274 -0.35210916 19
2.5510676 3.8777292 -0.24325755 16
2.6442053 4.0147233 -0.083911166 1
2.5441582 3.8938122 0.081188597 9
2.4392278 3.7289519 0.23352307 18
2.3358974 3.5669086 0.37302658 28
2.5932887 3.9539189 0.5805856 28
6.3178568 9.6216812 1.8230875 10
4.1045604 6.2438416 1.4524381 16
4.1149726 6.2501779 1.7276242 25
5.7985029 8.7972383 2.8231983 25
1.3224888 1.9950371 -0.64135361 36
1.4417838 2.1725261 -0.60196906 40
1.5540291 2.3381169 -0.54571378 27
1.7574538 2.6411791 -0.50246757 18
2.0019047 3.0051377 -0.44336072 15
2.2402599 3.3578598 -0.35315505 15
2.5569997 3.8282685 -0.24126878 16
2.5865798 3.8681686 -0.081223503 17
2.3988297 3.6160035 0.075743444 11
2.3944829 3.6053517 0.22682405 12
2.371774 3.5671053 0.37476969 26
2.5482113 3.8266678 0.5644989 17
6.2709179 9.4064045 1.790549 1
4.2112598 6.3097477 1.4745719 22
4.1541748 6.2148166 1.7258246 46
6.8396311 10.220782 3.2952843 12
1.3309926 1.9777418 -0.63876545 31
1.4373158 2.133317 -0.59387082 27
1.5692152 2.3255839 -0.54533213 23
1.7482048 2.587924 -0.49464583 23
2.0317323 3.0042436 -0.44531062 13
2.2446535 3.3140941 -0.35019177 29
2.5377073 3.7425487 -0.23697723 14
2.5506263 3.7573645 -0.079268835 6
2.4363034 3.6174128 0.076127395 22
2.3872137 3.5405231 0.22378856 26
2.3564897 3.4910107 0.36849448 13
2.5192757 3.7265565 0.5523119 26
6.3696499 9.4114742 1.7999352 15
4.2519035 6.2753177 1.4734272 11
4.1679201 6.1421237 1.7136773 25
6.1889105 9.1101198 2.9510548 32
1.345857 1.9699966 -0.63928306 35
1.4576749 2.1312733 -0.5961203 30
1.5854137 2.3145714 -0.54533213 33
1.7628789 2.5707681 -0.49370724 26
2.0290623 2.9556186 -0.4401921 23
2.2824082 3.3196874 -0.35245782 14
2.5592418 3.7181609 -0.23655853 14
2.5904131 3.7592244 -0.079687685 8
2.4840686 3.633333 0.0768255 15
2.3836694 3.482568 0.22117178 30
2.4022005 3.5057027 0.37180638 26
2.5362446 3.6957841 0.55036199 13
6.5437021 9.5247078 1.8302835 4
4.2800341 6.2228346 1.4680845 32
4.2504921 6.1706529 1.7298738 44
6.1986175 8.9887657 2.9256907 18
1.3617783 1.9637283 -0.64031839 41
1.4669608 2.1130416 -0.59387082 41
1.5813603 2.2744319 -0.538463 41
1.781912 2.5600195 -0.4940201 22
2.0451074 2.9348662 -0.43921715 15
2.2838657 3.2726276 -0.34914589 10
2.5748444 3.6854672 -0.23561651 24
2.5799165 3.6886125 -0.078570738 4
2.491132 3.5896165 0.076267019 16
2.3748765 3.4182751 0.2181363 26
2.3515327 3.380893 0.36030185 21
2.5619826 3.6779888 0.55036199 13
3.1999338 4.5887084 0.88604486 3
4.5447645 6.5099306 1.5432632 29
4.5223784 6.4682326 1.8221036 40
6.2490339 8.9278622 2.9199965 28
1.3654472 1.9399556 -0.63565958 31
1.4895343 2.1138995 -0.59702015 30
1.6005954 2.2681496 -0.53960788 27
1.8020191 2.5507445 -0.49464583 25
2.0449131 2.8913455 -0.43482983 17
2.2997477 3.2468483 -0.34810004 8
2.5727842 3.6283 -0.23310436 22
2.9690702 4.1825242 -0.089530841 5
2.4746776 3.5132821 0.075010449 37
2.3756645 3.3689661 0.21604285 16
2.3520975 3.3318403 0.35681561 20
2.5555103 3.6146278 0.54353732 13
2.9751203 4.2034721 0.81564939 30
4.5662694 6.4444017 1.5352492 12
4.5200562 6.3697567 1.8032079 25
nan nan nan nan
1.3767114 1.9272317 -0.6346243 31
1.5019896 2.1002784 -0.5961203 33
1.6266793 2.2712853 -0.54304242 41
1.8105745 2.525259 -0.49214289 25
2.0569458 2.8657103 -0.43312368 22
2.304914 3.2064486 -0.34548536 13
2.6027186 3.6167347 -0.23352307 22
2.5785668 3.5792193 -0.077000014 6
2.4200635 3.3853011 0.072636917 25
2.3793643 3.3246884 0.21426344 26
2.3915443 3.3380136 0.35925597 23
2.5887854 3.6079876 0.54524344 12
3.0320535 4.2211022 0.8231582 13
4.287921 5.9628792 1.4276329 36
7.6756883 10.65829 3.0323403 16
6.3075466 8.7488556 2.8899736 27
1.3742582 1.8956761 -0.62737739 40
1.5166148 2.0897419 -0.5961203 38
1.6424962 2.2598736 -0.54304242 24
1.8246733 2.5077651 -0.49120426 20
2.0862536 2.8641155 -0.43507358 19
2.3166749 3.1757922 -0.34391654 16
2.6326146 3.6049292 -0.23394175 18
2.8159232 3.8517046 -0.083282888 14
2.5035257 3.4508724 0.074417062 13
2.4001696 3.3047645 0.21405408 30
2.3925285 3.2906184 0.35594404 13
2.5624959 3.5192192 0.53451896 10
2.9241431 4.0114698 0.78623968 13
4.5504889 6.2357025 1.500522 28
7.6613774 10.483292 2.9976978 38
nan nan nan nan
1.387459 1.8860358 -0.62737739 26
1.5253888 2.0712574 -0.59387082 28
1.6617289 2.2530916 -0.54418731 24
1.8433098 2.4965546 -0.49151716 23
2.0802393 2.8143613 -0.42971134 13
2.3346846 3.1551437 -0.34339362 17
2.6517715 3.5784383 -0.23341838 22
2.8761065 3.8769186 -0.084260218 15
2.469465 3.3544021 0.072706729 15
2.3994842 3.2557719 0.21196064 15
2.4059801 3.2610092 0.35454956 42
2.5929005 3.5092266 0.53573769 12
2.8510492 3.8543806 0.75933295 19
4.7387829 6.3994279 1.5478426 27
nan nan nan nan
3.5628879 4.7991815 1.6015723 16
1.3763245 1.8437934 -0.61650699 48
1.5386453 2.0589964 -0.59342092 38
1.6770267 2.2417283 -0.54418731 30
1.8389463 2.4554894 -0.4858855 31
2.0891156 2.7854784 -0.42751768 17
2.3375127 3.113276 -0.34060463 14
2.629267 3.4980404 -0.2293362 18
2.589221 3.4397566 -0.075150065 6
2.526938 3.3839808 0.073718965 15
2.3617976 3.159379 0.20672706 26
2.5767505 3.4419055 0.37616417 6
2.5762513 3.4374859 0.52745056 23
2.9993281 3.9976332 0.7915585 10
4.7137628 6.2735834 1.5253272 12
4.6423459 6.171803 1.7829622 12
3.5757151 4.7485847 1.5927725 5
1.3771819 1.8189805 -0.61133063 56
1.5549791 2.0515819 -0.59432071 23
1.6831392 2.2174563 -0.54113436 45
1.8572379 2.444165 -0.48619837 27
2.0984116 2.7585552 -0.42556778 15
2.3374581 3.0683534 -0.33746704 14
2.6439345 3.4668944 -0.2284988 22
2.5798099 3.3791394 -0.074207634 13
2.3995483 3.1670232 0.069355868 20
2.3837967 3.1428137 0.20672706 20
2.4205914 3.1878562 0.35019177 35
2.5389056 3.3388309 0.51501989 25
3.1432228 4.1290603 0.82190675 13
4.54811 5.9680886 1.458544 27
4.7006927 6.159379 1.7888108 2
nan nan nan nan
1.3957314 1.8169817 -0.61391884 33
1.5609484 2.0298624 -0.59117138 49
1.7009757 2.2087619 -0.54189759 39
1.8609905 2.4139299 -0.48275682 25
2.1236842 2.7516947 -0.42678648 27
2.3490751 3.0393486 -0.33607253 14
2.6986289 3.4878428 -0.23111561 18
2.5812964 3.3325896 -0.073579341 15
2.4971588 3.2484901 0.071519956 21
2.438566 3.1688325 0.20955318 20
2.4002292 3.1156392 0.34409088 25
2.5221384 3.2691581 0.50697654 21
2.951009 3.8209159 0.76465172 28
4.9751391 6.4347572 1.5810434 24
4.7614713 6.1495271 1.7955594 6
7.2572985 9.3628025 3.1741569 1
1.4297566 1.834622 -0.6232363 23
1.5666896 2.0081608 -0.58802211 43
1.7163543 2.1968331 -0.54189759 37
1.8826655 2.4071028 -0.48400828 25
2.1403954 2.7336755 -0.42629901 16
2.3537304 3.0029032 -0.33380648 17
2.7068813 3.448494 -0.22975488 16
2.5365453 3.2280095 -0.071659587 28
2.4927223 3.1962867 0.070752062 21
2.4421928 3.1281166 0.20798311 8
2.3863416 3.053282 0.33903584 18
2.5400059 3.2452178 0.50600159 21
2.9788308 3.8017759 0.76496464 18
4.9145255 6.2654748 1.5478426 13
7.3775334 9.395402 2.7579 2
7.2460604 9.2147198 3.1410282 1
1.4401335 1.8215644 -0.62220097 44
1.5830898 2.0002306 -0.5889219 31
1.7410206 2.1974106 -0.54495054 28
1.8634069 2.3493509 -0.47493511 18
2.1470811 2.7031221 -0.42386162 34
2.3709173 2.9817193 -0.33328354 19
2.6506836 3.3299797 -0.22305585 11
2.8693919 3.5995767 -0.080350876 17
2.4871306 3.1447392 0.069984153 20
2.4535103 3.0988934 0.20714574 3
2.3890331 3.0131283 0.33642116 16
2.5793142 3.2496212 0.5094139 23
2.9812906 3.7520261 0.75902009 10
4.966701 6.2417684 1.550514 16
7.3652339 9.2461205 2.7291064 2
7.2532101 9.0957041 3.1172168 5
1.4537075 1.8132269 -0.62271863 48
1.5930101 1.9848485 -0.58757222 39
1.7391002 2.1637788 -0.53960788 39
1.8995769 2.3609083 -0.47994098 18
2.1467528 2.6652551 -0.42020553 35
2.4091868 2.9868069 -0.33572391 14
2.7052341 3.3502426 -0.22567266 22
2.8334849 3.5053158 -0.078675449 14
2.4777398 3.0883055 0.069111533 9
2.5363684 3.1579921 0.21227466 9
2.4269645 3.0185366 0.33886153 24
2.578284 3.2021573 0.50478286 26
2.9801393 3.6972859 0.75213701 16
5.1422229 6.3728261 1.5917287 10
7.3536716 9.1004972 2.7012124 2
7.3456931 9.0808935 3.1296401 1
1.4663308 1.8030339 -0.62271863 41
1.6055968 1.9721683 -0.58712232 38
1.759127 2.1576705 -0.54113436 39
1.916013 2.3475895 -0.47994098 25
2.1615393 2.6455913 -0.4194743 17
2.4034846 2.9375322 -0.33206338 16
2.7348864 3.338999 -0.22619602 22
2.6677012 3.2534966 -0.073439725 18
2.5333207 3.1128087 0.070053965 22
2.4422936 2.9977529 0.20264484 8
2.5084224 3.0756314 0.34722847 11
2.5980635 3.1810055 0.50429535 18
2.8795903 3.521935 0.72053725 63
5.3345609 6.5175643 1.6371413 7
7.4528513 9.0926447 2.7142596 6
7.4236155 9.0473099 3.1358516 15
1.4678187 1.7793409 -0.61805987 49
1.6143626 1.9549006 -0.58532268 30
1.7829045 2.1559281 -0.54380566 41
1.9247965 2.3250272 -0.47806379 26
2.1715469 2.6193585 -0.41776815 12
2.401032 2.8930833 -0.32892576 16
2.7415383 3.2998533 -0.22483528 13
2.6806815 3.2220275 -0.073160492 18
2.5218897 3.0549526 0.069146432 13
2.4224505 2.9313612 0.19929534 22
2.5526946 3.0856757 0.35036606 8
2.6278062 3.1719623 0.50575781 13
2.8637555 3.4530892 0.71052545 13
7.554811 9.0965881 2.2984853 6
7.5248652 9.0508852 2.7174089 18
7.4136796 8.9076605 3.1053109 33
1.4829937 1.7717547 -0.61909521 26
1.6195489 1.9328425 -0.58217335 31
1.7815105 2.1238747 -0.53884465 47
1.9337614 2.3021188 -0.47618657 22
2.1833913 2.5965385 -0.41654944 15
2.4134712 2.8671062 -0.32787988 16
2.7393358 3.2496095 -0.22274184 9
2.8024149 3.320909 -0.075848162 22
2.6420078 3.1553273 0.071834102 16
2.483145 2.9613965 0.20254017 10
2.5247514 3.0078161 0.34356794 3
2.6562719 3.1611383 0.50697654 12
3.0257525 3.5957451 0.74431533 15
7.6371055 9.0661469 2.3042095 42
7.6418877 9.062191 2.7367547 36
7.4024458 8.7658224 3.0742526 22
1.5115803 1.7805036 -0.62582451 26
1.6241695 1.9110943 -0.57902408 30
1.7788491 2.0901408 -0.53350198 22
1.9395376 2.2765334 -0.47368363 26
2.2053299 2.5857637 -0.41728067 6
2.4230793 2.8380649 -0.32648543 15
2.7437832 3.2091548 -0.22127645 19
2.6590924 3.1068048 -0.07138034 19
2.4495971 2.8833611 0.066039905 24
2.4416502 2.8709595 0.19751592 8
2.528898 2.9703951 0.34130189 13
2.6569304 3.1163695 0.50283301 33
2.9943571 3.5084221 0.73054904 18
7.7410221 9.0603733 2.3164213 17
3.6909871 4.3154883 1.3110148 10
7.3993721 8.639102 3.0478532 31
1.5176704 1.7625885 -0.6232363 13
1.6361986 1.8982337 -0.57857412 36
1.7917515 2.0764985 -0.53312039 23
1.9627361 2.272248 -0.47556084 48
2.216835 2.5627978 -0.416062 11
2.4376166 2.8150549 -0.32578817 19
2.7616389 3.1858764 -0.22096242 15
2.5981326 2.9930284 -0.069181338 20
2.4952679 2.8969228 0.066738002 18
2.527653 2.9314158 0.20285419 15
2.5092075 2.9059193 0.33589822 12
2.6819756 3.1027172 0.50356412 12
3.2482479 3.7538505 0.78623968 16
2.9827814 3.4422038 0.8853538 2
3.6393003 4.1954031 1.2822211 17
7.390873 8.5112267 3.0204184 45
1.5105766 1.7303864 -0.61547172 13
1.6503648 1.8885189 -0.57902408 34
1.8010336 2.0580285 -0.53159386 30
2.00068 2.2837493 -0.4808796 21
2.2224481 2.5342164 -0.41386834 12
2.4422626 2.7819273 -0.32387072 13
2.795682 3.1800194 -0.22190447 17
2.6924276 3.0593383 -0.071136013 13
2.4996428 2.8613615 0.066319145 22
2.561203 2.9287336 0.2039009 12
2.4580603 2.8078222 0.32648543 22
2.7990994 3.1928852 0.52135712 5
3.1349571 3.5722177 0.75276273 15
8.0181074 9.1268215 2.3614521 2
3.8852656 4.4178386 1.3582546 15
2.8485348 3.2344422 1.1548507 12
1.5187777 1.7154601 -0.61391884 18
1.6777261 1.8929944 -0.58397299 27
1.8097879 2.0398483 -0.53006744 41
2.0017483 2.2538328 -0.47743803 15
2.2163398 2.4919398 -0.40948102 12
2.4523504 2.7543929 -0.32265055 13
2.8371961 3.1832805 -0.22347455 22
2.5938797 2.9061971 -0.067994572 19
2.4898951 2.8113456 0.065551244 25
2.4432814 2.755806 0.19301502 12
2.5093513 2.8263497 0.33066887 15
2.6664762 3.0001585 0.49283966 21
2.9871902 3.3574648 0.71177691 7
3.7286747 4.1849766 1.0895194 3
8.6271591 9.67272 2.9922993 5
nan nan nan nan
1.5381625 1.7137074 -0.6170246 18
1.6801538 1.8699334 -0.58037376 31
1.827924 2.0315423 -0.53121227 28
1.9976035 2.2177866 -0.472745 40
2.2212858 2.4635286 -0.40728739 19
2.4808652 2.7475576 -0.32387072 16
2.8272064 3.1278367 -0.22096242 15
2.5787165 2.8499227 -0.067087047 22
2.5682545 2.8593543 0.067087047 15
2.5038567 2.7847235 0.19625986 3
2.5405266 2.8225327 0.33223769 11
2.7192535 3.0168579 0.49868938 16
3.1389194 3.4787893 0.74212521 27
8.773531 9.7132654 2.5442474 2
3.0314994 3.3514972 1.043323 4
7.5375142 8.3243914 3.0090303 30
1.5513886 1.7043568 -0.61754227 23
1.689229 1.8538375 -0.57902408 48
1.8460332 2.0230813 -0.53235716 30
2.0130391 2.2037857 -0.472745 26
2.2491479 2.4596796 -0.4092373 13
2.4999864 2.730171 -0.32387072 13
2.8530228 3.1124396 -0.22127645 12
2.5890858 2.8215365 -0.06684272 23
2.545063 2.7940483 0.0659701 24
2.4828649 2.7229004 0.19311969 8
2.5534532 2.79737 0.33136615 10
2.7188189 2.9743593 0.4947896 23
5.0340667 5.5014296 1.1810803 3
3.0500352 3.3296983 0.87772143 1
nan nan nan nan
nan nan nan nan
1.5711114 1.7020013 -0.62064809 30
1.7060978 1.8462931 -0.58037376 24
1.8521107 2.0014994 -0.53006744 38
2.0015261 2.160696 -0.46648762 18
2.246017 2.4220848 -0.40558121 12
2.5076683 2.7014091 -0.32247624 18
2.8978007 3.1173127 -0.22305585 16
2.5855639 2.7785048 -0.066249333 33
2.6228528 2.8393748 0.067471005 10
2.5872419 2.7978833 0.19971403 6
2.4808853 2.6800518 0.31951293 29
2.7165751 2.9305565 0.490646 20
3.144186 3.3882897 0.73211342 15
3.1921265 3.436342 0.91168547 11
3.2578976 3.5034645 1.1045097 27
3.3163452 3.5613289 1.3039304 40
1.5631518 1.6698364 -0.61288351 31
1.7082856 1.8229614 -0.57677454 22
1.8562893 1.9788231 -0.52739608 34
1.9756203 2.1038225 -0.45710155 10
2.2655916 2.4092381 -0.40606871 12
2.5196381 2.6765828 -0.32160467 31
2.8162193 2.9885011 -0.21520546 21
2.8189995 2.9872675 -0.071694486 18
2.6052141 2.7820458 0.066528574 12
2.5570524 2.727751 0.19594584 5
2.5895348 2.7585399 0.33101749 14
2.6413026 2.8107357 0.47358429 11
4.971384 5.28474 1.1491677 14
nan nan nan nan
3.3103552 3.5104063 1.1139576 4
3.0103059 3.1888781 1.1750386 11
1.5704926 1.654954 -0.61133063 41
1.715286 1.8056399 -0.57497495 24
1.8632929 1.9587032 -0.52548802 46
2.0038822 2.1042838 -0.46023026 13
2.2805686 2.3923242 -0.40582496 16
2.5217538 2.6416333 -0.31951293 13
2.8797905 3.0135298 -0.21845031 26
2.6761539 2.7975025 -0.067575715 12
2.5502148 2.6854877 0.064643718 15
2.5182376 2.6490352 0.19154961 36
2.5533121 2.6831172 0.32404503 23
2.6088214 2.7376189 0.46432224 20
4.9481635 5.1870136 1.1354015 10
nan nan nan nan
3.2984171 3.4491832 1.1018103 13
3.240896 3.3854825 1.2557901 4
1.5900453 1.6523014 -0.61443645 24
1.7264979 1.7922174 -0.57452506 31
1.8851002 1.954125 -0.52777767 15
2.0198963 2.0916641 -0.46054313 10
2.2930753 2.3720624 -0.40509373 17
2.5387502 2.6225312 -0.31933865 15
2.850723 2.941716 -0.21468212 35
2.9713087 3.0629404 -0.074486867 9
2.8158023 2.9240108 0.070856772 45
2.565778 2.6615877 0.19374773 11
2.5470767 2.639421 0.32090744 10
2.5906246 2.6807973 0.45774129 12
3.182287 3.2896054 0.72491741 16
3.1453488 3.2480168 0.87886631 12
3.1948903 3.2945704 1.0595195 4
3.1554556 3.2504981 1.2138613 28
1.5907472 1.6301005 -0.6102953 36
1.7090083 1.7494537 -0.56462723 48
1.8671203 1.9086384 -0.51900047 29
2.0164821 2.0591636 -0.45647582 9
2.3002615 2.3456719 -0.40338758 11
2.5430381 2.5905266 -0.31759554 18
2.8571904 2.9074986 -0.2136354 28
2.7953811 2.8406346 -0.069565296 20
2.6014328 2.6639259 0.064992763 28
2.601052 2.6607475 0.19500379 23
2.7995512 2.8608046 0.35019177 7
2.7898967 2.8469627 0.48942733 12
3.1152573 3.1756508 0.7045809 12
nan nan nan nan
3.2123475 3.2666278 1.0577199 35
3.084559 3.1333969 1.1781443 12
1.6037303 1.6200485 -0.61081296 26
1.7502888 1.7662477 -0.5740751 25
1.8942252 1.9094958 -0.52281672 29
2.0325577 2.0460827 -0.45678869 10
2.2983847 2.3112571 -0.40021896 8
2.5484109 2.5600014 -0.31602672 21
2.8595922 2.8685904 -0.21227466 15
2.8617585 2.867759 -0.070717148 18
2.6115248 2.6371739 0.064783335 21
2.5567384 2.5782499 0.19029355 25
2.6613367 2.6809192 0.33049458 15
2.8083062 2.8260069 0.4891836 37
nan nan nan nan
3.2713118 3.2839003 0.90100008 56
3.2736042 3.282759 1.0703173 13
3.0946169 3.0989413 1.1734856 15
1.6122639 1.6060861 -0.60977769 25
1.766721 1.7581092 -0.57542485 27
1.9022703 1.8903568 -0.52129018 28
2.055203 2.040194 -0.45866591 9
2.306006 2.2867694 -0.3987565 5
2.578959 2.5547686 -0.31759554 10
2.8852286 2.8541751 -0.21269335 43
2.7636535 2.7310472 -0.06782005 17
2.6232431 2.6113648 0.064608812 13
2.5959201 2.5814612 0.19186363 21
2.7662127 2.7479262 0.34112757 10
2.7453067 2.7233562 0.474803 12
3.2664769 3.2369676 0.72835892 28
3.2034674 3.1712048 0.87619489 13
nan nan nan nan
3.6453898 3.5998664 1.3727763 21
1.6179248 1.589376 -0.60770714 38
1.7747792 1.7416376 -0.5740751 29
1.9193003 1.8814867 -0.52243507 31
2.059164 2.0164819 -0.45647582 9
2.3247528 2.2733908 -0.39924401 4
2.566802 2.5074644 -0.31393498 16
3.0017891 2.9293256 -0.21981104 21
2.7053165 2.636323 -0.065935194 26
2.6480899 2.6004555 0.064783335 7
2.6362426 2.5861113 0.19353838 17
2.6543877 2.6002777 0.32509091 12
2.7737119 2.7143252 0.47650915 14
3.0553639 2.986814 0.67673558 13
3.2536273 3.1761904 0.88382733 15
nan nan nan nan
3.119061 3.0384545 1.1667564 20
1.6328677 1.5823594 -0.60926002 43
1.7725916 1.7159624 -0.56957608 29
1.9450917 1.8803233 -0.52586961 32
2.066087 1.995196 -0.4549115 7
2.3330314 2.2506218 -0.39802533 9
2.0027766 1.9300092 -0.24333882 10
2.9415767 2.8307419 -0.21394941 15
2.7462647 2.6400208 -0.066493668 15
2.663307 2.5791228 0.064713523 27
2.6527972 2.5662551 0.1934337 12
2.5874953 2.5004623 0.31480655 16
2.7783098 2.6811101 0.47407177 12
3.4601245 3.3355746 0.7612102 31
3.2214322 3.102222 0.86932582 7
3.6345932 3.4964283 1.1643467 39
3.6264124 3.4836838 1.347412 33
1.6340983 1.5615785 -0.6056366 26
1.7718419 1.6914351 -0.56552702 30
1.9450586 1.8548459 -0.52243507 23
2.0738978 1.9756372 -0.45366001 13
2.3314266 2.2178619 -0.39510044 13
2.5794666 2.4512484 -0.3113203 22
2.9289076 2.7804031 -0.21164663 21
2.8821797 2.732219 -0.069320954 9
2.6750171 2.5554092 0.064573906 24
2.636971 2.5164249 0.19102626 23
2.6423912 2.5180731 0.31933865 16
2.7332337 2.6019125 0.46334729 20
3.3639388 3.1989589 0.73524207 18
3.2159626 3.0539706 0.86207509 5
3.7536387 3.5608275 1.1944902 13
nan nan nan nan
1.653124 1.5583702 -0.60874242 26
1.7918262 1.6873512 -0.5682264 30
1.9479482 1.831808 -0.51976377 21
2.091958 1.9651688 -0.45459861 9
2.3551555 2.2100902 -0.39656287 13
2.6023316 2.4386299 -0.31201756 24
2.9249179 2.7380486 -0.20997187 49
2.9839621 2.7903907 -0.071310528 22
2.7655702 2.6052306 0.066319145 7
2.6719286 2.5143793 0.19228233 3
2.7117288 2.5491567 0.32561383 22
2.800539 2.6289623 0.47163439 11
3.242095 3.0402744 0.70395517 34
3.7295563 3.4937234 0.9933517 11
3.5222449 3.2949042 1.1135077 9
3.1123281 2.9083912 1.1413921 24
1.6455692 1.5296924 -0.60201317 30
1.8092746 1.6801051 -0.57002604 51
1.9347777 1.7941345 -0.51289463 41
1.9911439 1.8444655 -0.42988196 23
2.3821824 2.2043812 -0.39851278 15
2.6163666 2.4176984 -0.31166893 22
2.9454296 2.7189171 -0.21007656 35
2.9048762 2.6786642 -0.06897191 16
2.7910147 2.5926659 0.066493668 46
2.7230887 2.5269122 0.19468978 10
2.7893658 2.5856981 0.3327606 6
2.796973 2.5891192 0.46797833 18
3.2994995 3.0510948 0.71177691 13
3.6269488 3.3503709 0.95976931 30
3.1569831 2.9121614 0.99158424 12
3.3200824 3.0593965 1.2097203 9
1.6547835 1.5168623 -0.6014955 27
1.8108985 1.6582217 -0.56687671 28
1.9530514 1.7858828 -0.51442105 27
2.1133595 1.9304389 -0.45334715 9
2.4019127 2.1917109 -0.39924401 13
2.6523266 2.4168191 -0.31393498 16
2.9717243 2.7050099 -0.21059991 38
3.0655377 2.7874699 -0.072322771 10
3.3030264 3.0256081 0.07818678 6
2.6861448 2.4579527 0.19081691 35
2.9029388 2.6535361 0.34409088 33
2.7827256 2.5400872 0.46261609 12
3.6374652 3.3168089 0.77966946 21
3.6575079 3.331579 0.96167743 24
3.8547785 3.5063498 1.2030382 12
3.1469126 2.8594577 1.1393216 13
1.6581671 1.4987957 -0.59890729 30
1.8108599 1.6350909 -0.56327748 39
1.9523492 1.7603723 -0.51098651 23
2.1179783 1.9077055 -0.45146993 9
2.4112525 2.1695778 -0.39826906 12
2.6958113 2.4222126 -0.3170726 4
2.9979684 2.6908681 -0.21112327 22
2.9449699 2.6405158 -0.069041722 13
2.920433 2.6378875 0.068692669 10
2.6839633 2.4217448 0.18945618 25
2.6712842 2.4077687 0.31463224 14
2.7738316 2.496695 0.45822877 16
3.0935307 2.781522 0.65890205 16
3.4966431 3.1406648 0.91359347 41
3.2379556 2.9042318 1.0041816 25
3.1725535 2.8425748 1.1413921 11
1.6570529 1.4769 -0.5947662 30
1.8149544 1.6159288 -0.561028 31
1.9572545 1.7401781 -0.50907844 28
2.1371517 1.8981206 -0.45272139 9
2.4129751 2.1408358 -0.3960754 16
2.7047799 2.3972001 -0.31620103 3
3.0421066 2.6923754 -0.21290269 14
3.0127711 2.6636007 -0.070193581 16
2.8357413 2.5256648 0.066284239 12
2.7127419 2.4135692 0.19029355 8
2.7461078 2.4406805 0.32143039 11
2.8030729 2.4878094 0.4601787 13
3.2326009 2.8660038 0.68424439 22
3.3230131 2.9430566 0.86283833 36
nan nan nan nan
3.7583954 3.3204761 1.3437886 3
1.6847372 1.4805981 -0.60097784 36
1.8203336 1.5980757 -0.55922836 31
1.9646267 1.7229308 -0.50793356 24
2.124764 1.8614 -0.44740263 11
2.4203928 2.1174014 -0.39485672 17
2.7259512 2.3821907 -0.31672394 9
3.066381 2.6768599 -0.21332137 43
3.1006303 2.7029493 -0.071799204 19
3.2389572 2.8454947 0.075254776 15
2.7966588 2.4543328 0.19500379 10
2.7690723 2.4267032 0.32212761 9
2.7587028 2.4150634 0.45018539 10
3.3962705 2.9700727 0.71459275 46
nan nan nan nan
3.2336357 2.8208799 0.99068451 1
1.9399748 1.6905597 0.68949395 6
1.691856 1.4665661 -0.59994256 26
1.835588 1.5894761 -0.56057805 37
1.9573008 1.6924803 -0.50297254 10
2.1317267 1.841357 -0.44615117 11
2.4392571 2.1047685 -0.39558792 12
2.7183659 2.342293 -0.31393498 13
3.1122415 2.6788402 -0.21520546 21
3.1098607 2.6739576 -0.071589775 13
2.9700527 2.5727389 0.068587959 25
2.8363814 2.4543507 0.19657388 10
2.7749763 2.3986766 0.32090744 18
2.8641555 2.4722741 0.46456599 11
3.2254314 2.7811737 0.67454553 16
3.3037732 2.8457105 0.84757364 2
1.9664279 1.6913962 0.59881973 9
1.9326806 1.6606091 0.68276465 4
1.6903043 1.4446787 -0.59580147 26
1.843675 1.5740927 -0.55967826 28
1.9780327 1.686417 -0.50526226 10
2.1219716 1.8072176 -0.44145811 13
2.4569159 2.0902607 -0.3960754 11
2.7255404 2.3155198 -0.3128891 12
3.2176654 2.7307122 -0.22117178 19
3.477752 2.9483068 -0.079582974 11
2.9879403 2.5519428 0.068587959 13
2.8154602 2.4020827 0.19395708 2
2.7507112 2.344353 0.31620103 38
3.2774181 2.7893 0.52842557 25
nan nan nan nan
1.9962317 1.6953243 0.50907844 7
1.9826471 1.681408 0.60016948 5
1.9648629 1.6645582 0.69001162 9
1.6988723 1.4315974 -0.59528387 27
1.8561108 1.5624371 -0.56012815 50
1.9762322 1.6611971 -0.50182766 11
2.1542027 1.8088732 -0.44552541 11
2.1931252 1.8395993 -0.35147122 23
2.7477489 2.301553 -0.31358635 18
3.166189 2.6492248 -0.21635687 22
2.8952622 2.4199579 -0.065865383 8
2.8267188 2.3803186 0.064504094 7
2.8749571 2.4183674 0.19688788 32
2.7822645 2.3379097 0.31794414 24
nan nan nan nan
2.0134747 1.6877108 0.41611573 7
2.0004914 1.6750455 0.50717038 5
2.0092881 1.6800247 0.6046685 7
1.9838501 1.6569915 0.69259977 7
1.7177409 1.4271091 -0.59838963 27
1.8534774 1.5382402 -0.55607903 34
1.9892931 1.6486127 -0.50220931 10
2.134825 1.7673367 -0.43895519 36
2.4644444 2.0380418 -0.39266306 9
2.7606771 2.2797766 -0.31323773 19
3.2000141 2.6397657 -0.21740359 17
2.9522102 2.4327502 -0.066772908 16
3.097131 2.5712876 0.070263386 22
2.8072157 2.3281138 0.19113094 30
nan nan nan nan
2.0220516 1.672787 0.32222256 8
2.0389125 1.6849383 0.41893157 6
2.0272768 1.673537 0.51098651 7
2.0134485 1.6597595 0.60241896 6
1.9819473 1.6320499 0.68794107 5
1.7186952 1.4077376 -0.59528387 33
1.8686957 1.5289651 -0.55742878 27
1.9901117 1.6259894 -0.49953794 10
2.159354 1.7623817 -0.44145811 31
2.2616763 1.8439212 -0.35829589 11
2.7518044 2.2403216 -0.31044877 6
3.2028699 2.6047592 -0.21635687 21
2.9504972 2.39695 -0.066354051 23
2.9277647 2.3963494 0.066039905 22
nan nan nan nan
2.0615966 1.6837969 0.23288015 8
2.0506024 1.6724306 0.3249037 6
2.0628777 1.6806444 0.42143452 7
2.0419564 1.6618217 0.51174974 5
2.0113759 1.6346014 0.59836984 5
1.9932929 1.6181735 0.68794107 5
1.7149529 1.3847822 -0.59062505 35
1.8717397 1.5097655 -0.55517924 13
1.9952989 1.6071302 -0.4980115 10
2.1669881 1.7435489 -0.44051951 28
2.2218869 1.7858045 -0.35000879 16
2.7984543 2.2459974 -0.31393498 13
3.2381175 2.5960779 -0.21750826 12
nan nan nan nan
2.0947118 1.6902188 0.046981879 7
2.055723 1.6569827 0.13837628 6
2.0748539 1.6706115 0.23305444 7
2.0715098 1.6655383 0.32636613 9
2.0591583 1.6538332 0.41830578 5
2.0412569 1.6376981 0.50869679 5
2.0242593 1.6217378 0.59881973 6
3.3740847 2.700253 1.1579564 1
1.7167836 1.367059 -0.58803689 27
1.888074 1.5018414 -0.55697882 35
