# .PCD v0.7 - Point Cloud Data file format
VERSION 0.7
FIELDS x y z intensity
SIZE 4 4 4 4
TYPE F F F F
COUNT 1 1 1 1
WIDTH 1436
HEIGHT 1
VIEWPOINT 0 0 0 1 0 0 0
POINTS 1436
DATA ascii
2.4765723 7.0208712 -0.12995063 8
4.1530585 11.919269 0.22031918 29
4.0634069 11.642345 0.64624447 17
4.0576591 11.599843 1.0751532 22
10.419497 29.736755 3.8688645 49
10.440907 29.747942 4.9933887 28
10.454149 29.719261 6.1238241 38
10.460953 29.688936 7.2672687 18
10.484718 29.706755 8.4411249 58
0.85953081 2.4151776 -0.68690574 40
0.9409532 2.6395886 -0.6469593 31
1.0449327 2.9248133 -0.60371965 32
1.1687341 3.2659407 -0.54939789 22
1.3449945 3.7522938 -0.48942733 18
1.5809121 4.400794 -0.40910906 18
1.8913865 5.2564039 -0.29276738 2
2.5161681 6.9812756 -0.12953176 19
4.2381835 11.895636 0.22042391 27
4.1647253 11.670126 0.64938462 28
4.1512766 11.613229 1.0789881 18
10.665661 29.771683 3.8830013 24
10.662995 29.715235 5.0002718 14
10.677435 29.706539 6.1360359 39
10.694383 29.688519 7.2852654 57
10.721359 29.714605 8.4644184 58
0.87769192 2.4127493 -0.68794107 40
0.95535517 2.6219692 -0.64425987 23
1.0700388 2.9303567 -0.60639101 27
1.1786124 3.2224538 -0.5434534 20
1.3588648 3.7092621 -0.48504004 15
1.5827591 4.3110952 -0.40178797 14
1.910804 5.196208 -0.29015055 2
2.5240674 6.8528285 -0.12747237 16
4.3163309 11.852606 0.22017956 21
4.2584214 11.674538 0.65126866 14
4.2896895 11.741161 1.0936302 17
10.919658 29.823254 3.8995755 12
10.889913 29.693853 5.0093455 29
10.898781 29.669971 6.1440496 26
14.514519 39.428104 9.6998901 43
10.944571 29.682541 8.4768419 39
0.89316732 2.4029417 -0.68690574 31
0.96887606 2.6024523 -0.64111054 34
1.0801766 2.8952241 -0.60066676 26
1.2073038 3.2308004 -0.54626918 20
1.376377 3.6773751 -0.48211515 23
1.6177136 4.3129992 -0.40300813 22
1.9393049 5.1621761 -0.28899917 2
2.5535345 6.7863798 -0.12656485 16
4.4240842 11.889652 0.22143614 29
4.3140087 11.575281 0.64739585 17
4.3290453 11.597068 1.0829972 16
11.134538 29.764891 3.9020131 75
11.10944 29.650396 5.014977 29
11.127739 29.651974 6.1562614 26
nan nan nan nan
8.100111 21.504417 6.1573052 24
0.90169412 2.3749745 -0.6806941 29
0.9918707 2.6083748 -0.64425987 36
1.1024586 2.8931167 -0.60181159 26
1.2192641 3.1946106 -0.54157621 17
1.3998899 3.6621141 -0.48138395 23
1.6392322 4.2792745 -0.40091643 25
1.9495412 5.0813808 -0.28523099 4
2.5721591 6.6937222 -0.12516867 23
nan nan nan nan
4.4160304 11.600878 0.650536 20
4.4148712 11.579595 1.0842174 24
11.357666 29.727222 3.9073751 62
11.343686 29.644072 5.0271788 14
11.350623 29.615736 6.1650391 39
4.0740218 10.607661 2.6233795 32
8.0648689 20.965923 6.0190959 23
0.91336459 2.3560131 -0.67707068 37
1.0001816 2.5759542 -0.63796127 31
1.1240532 2.889009 -0.60257488 30
1.2379508 3.1768177 -0.54001182 15
1.4283091 3.6596487 -0.4823589 22
1.6814038 4.2992702 -0.4038797 18
1.9718565 5.0341721 -0.28334689 14
2.5742795 6.5620456 -0.12303946 18
4.1707683 10.747331 0.20122625 3
4.634388 11.923468 0.67042363 6
4.5042772 11.570771 1.0863092 23
11.577188 29.678646 3.9115186 37
11.571211 29.617512 5.0362515 14
4.3323941 11.07203 2.3110785 36
4.1465554 10.575333 2.6224797 38
8.0316715 20.452377 5.8876157 22
0.93405432 2.3603573 -0.68017644 34
1.0138327 2.5580387 -0.63526183 41
1.1311529 2.8482473 -0.59570575 26
1.239657 3.1167035 -0.53125149 17
1.4310501 3.5924189 -0.474803 20
1.706205 4.2744746 -0.40265954 15
1.973591 4.9368286 -0.27863666 7
2.5724592 6.4251032 -0.12080556 28
4.0542173 10.234574 0.192151 3
4.6482768 11.716315 0.66058451 3
4.5996556 11.576077 1.0897954 19
13.868789 34.833027 4.6034932 15
8.7149258 21.855215 3.7265823 8
4.3993917 11.015988 2.3057361 17
4.1131296 10.278358 2.5558941 46
8.003933 19.970819 5.7649355 28
0.94761646 2.3466136 -0.67810595 30
1.0309346 2.5490925 -0.63481188 24
1.1296265 2.7875147 -0.58463877 31
1.2792144 3.151902 -0.53876036 16
1.4426404 3.5492392 -0.47041571 27
1.7104552 4.1997204 -0.39673293 14
2.0479877 5.0209451 -0.28418428 7
2.6043966 6.3755169 -0.12021218 18
3.7171342 9.1956158 0.17312786 1
4.7217202 11.663212 0.65943313 3
4.7387576 11.6877 1.1033916 12
14.114605 34.742718 4.6044679 15
4.4950585 11.047874 1.8891028 13
4.3376474 10.645023 2.2343736 82
4.163424 10.197071 2.5428469 26
4.2240319 10.330054 2.9903955 28
0.96397579 2.3399408 -0.67810595 73
1.0375569 2.5148115 -0.62806338 22
1.1460582 2.7723038 -0.58311236 26
1.2943854 3.1264689 -0.53594452 15
1.465101 3.5335805 -0.46968448 23
1.7083935 4.1122398 -0.38958618 21
2.099102 5.0452495 -0.28638238 16
2.6396134 6.3350291 -0.11979332 15
4.1830034 10.143693 0.19152272 10
4.8990903 11.862563 0.67262173 9
4.8111 11.632239 1.1013 19
8.9069824 21.492767 2.8566177 64
8.9162426 21.483274 3.6840322 47
4.2890391 10.318977 2.1721697 37
nan nan nan nan
4.2581153 10.209382 2.9639959 40
0.97205776 2.3135619 -0.67241186 65
1.0520664 2.5003214 -0.6262638 37
1.1623336 2.7569988 -0.58158582 32
1.3108025 3.1046174 -0.53375447 17
1.5005575 3.5488636 -0.47309685 16
1.7316183 4.0873723 -0.38836598 22
2.113209 4.9808302 -0.28355622 19
2.6485834 6.2336273 -0.1182226 22
4.2289052 10.055259 0.19040576 10
5.0763626 12.052635 0.68539172 12
4.879796 11.568997 1.098511 23
9.0769148 21.477596 2.8629549 88
4.5303092 10.703885 1.840921 33
nan nan nan nan
4.2223573 9.9424353 2.4938076 18
nan nan nan nan
0.98742408 2.3049443 -0.67189431 30
1.0702634 2.4947069 -0.62671363 24
1.1846541 2.7560318 -0.58311236 30
1.3238548 3.0754313 -0.5303129 20
1.5252984 3.5383003 -0.47309685 13
1.7806512 4.1227393 -0.39289808 19
2.1257296 4.914628 -0.28062543 19
2.6602452 6.1415868 -0.11682641 5
4.3344646 10.108193 0.19197647 8
5.278595 12.292182 0.70109254 6
5.069067 11.787232 1.122566 14
nan nan nan nan
4.5806594 10.615772 1.8312221 19
4.3298969 10.0202 2.1217961 3
4.4356813 10.245342 2.5774894 4
4.0890217 9.431098 2.7543523 24
1.0027184 2.2962244 -0.67137665 48
1.082188 2.4746759 -0.62356436 27
1.1983508 2.7351067 -0.580441 30
1.342117 3.0588794 -0.52906144 20
1.5347893 3.4930356 -0.46846578 16
1.8142896 4.1232891 -0.39411828 17
2.1390433 4.8521504 -0.27790397 35
2.6812544 6.0734711 -0.11588398 15
4.1982961 9.6049519 0.18297103 7
5.2393446 11.969604 0.68476373 3
5.1136389 11.665791 1.1143733 14
4.751008 10.817972 1.4507327 4
4.6880612 10.659481 1.8443626 12
4.4084496 10.00949 2.125994 7
4.1805267 9.478529 2.3916798 20
4.1188407 9.3210411 2.730541 24
1.012441 2.2750483 -0.66723549 31
1.0994382 2.4670606 -0.62356436 28
1.21374 2.7197151 -0.57891452 27
1.3338919 2.9847479 -0.51779813 30
1.5502146 3.4623065 -0.46578467 22
1.8389556 4.1014318 -0.39324668 19
2.1703827 4.8338351 -0.27769461 30
2.7030778 6.0090137 -0.11501136 20
4.3416595 9.7515259 0.1863219 10
5.3345246 11.964675 0.68654317 21
5.3062835 11.879029 1.1382539 13
4.7029476 10.513574 1.4141719 21
4.7064033 10.506537 1.8234003 27
nan nan nan nan
nan nan nan nan
4.546895 10.103155 2.9686544 18
1.0326881 2.2786615 -0.67034137 48
1.1105682 2.447098 -0.62041503 30
1.2310711 2.7076015 -0.57815129 27
1.3800703 3.0310953 -0.52749711 15
1.5762147 3.4570932 -0.46651587 17
1.8469708 4.0453215 -0.38906324 19
2.1941071 4.7967696 -0.27643853 26
2.7131057 5.9232073 -0.11371988 17
4.2873716 9.4514561 0.18115598 8
5.3551455 11.788939 0.67858809 15
5.3045225 11.661279 1.1208228 10
4.6955576 10.303462 1.3902856 37
4.854269 10.636959 1.8518714 13
4.7125072 10.312025 2.2038438 18
nan nan nan nan
4.6181278 10.072919 2.969172 34
1.037235 2.2468407 -0.6630944 46
1.1300782 2.4445918 -0.62176478 39
1.2469999 2.6938138 -0.57700646 22
1.3923643 3.0037086 -0.52436841 26
1.6019853 3.4496052 -0.46700338 20
1.8852491 4.0540085 -0.39115497 19
2.2140598 4.7545652 -0.27486849 26
2.7324076 5.8570065 -0.11281236 15
4.3088455 9.3294687 0.17937584 10
5.5870152 12.080328 0.69753373 9
4.9159026 10.609806 1.0230341 22
4.7889709 10.321683 1.3971103 35
4.6851797 10.084149 1.7611394 31
4.7305336 10.16318 2.1790388 35
4.9255934 10.567785 2.6917646 16
nan nan nan nan
1.0582552 2.2519679 -0.66671789 33
1.1408826 2.4245007 -0.61861545 38
1.2624259 2.6779394 -0.57547992 35
1.4065527 2.9796247 -0.52186543 30
1.6356075 3.4601579 -0.46992823 16
1.908389 4.0299435 -0.39010909 19
2.2292283 4.7010946 -0.27267036 20
2.7344739 5.7587891 -0.11127654 14
4.3934474 9.3407784 0.18017864 7
5.6388764 11.972366 0.69355619 9
5.0398555 10.686019 1.0336671 31
4.8948393 10.35979 1.4068599 13
nan nan nan nan
4.7819505 10.093487 2.1710248 13
4.7619424 10.033158 2.5639923 12
4.4198885 9.2998962 2.7590113 29
1.0731182 2.2427819 -0.66620022 33
1.1628342 2.4270205 -0.62131482 34
1.2725953 2.6513612 -0.57166374 33
1.4179072 2.9501479 -0.51842386 25
1.6493938 3.4271901 -0.46700338 15
1.9183042 3.9788349 -0.38644853 20
2.2342052 4.6278629 -0.26932088 20
2.723259 5.6333385 -0.10921716 16
4.3678565 9.1205091 0.17651364 12
5.7844963 12.062376 0.70109254 9
nan nan nan nan
4.9205761 10.228765 1.393698 24
3.5053427 7.2770605 1.2793212 15
3.4509416 7.1545401 1.5440264 14
3.5940201 7.4378991 1.9071352 17
5.0720139 10.482625 3.1203225 9
1.082827 2.2230787 -0.66257679 45
1.1694974 2.3978257 -0.61591601 30
1.2893519 2.6388841 -0.57090056 24
1.4376019 2.9384022 -0.51811105 33
1.6488286 3.3656764 -0.4601787 17
1.9383249 3.9513738 -0.38505405 20
2.2523656 4.5834718 -0.2676461 20
2.65481 5.3952913 -0.10495877 7
4.5348253 9.3018942 0.18063241 10
5.7634263 11.80632 0.68853194 12
3.3388784 6.8305836 0.66517264 7
4.9063034 10.023872 1.370299 6
4.7553244 9.6982622 1.7107675 15
nan nan nan nan
3.5964143 7.3153305 1.8819406 21
7.7063417 15.654453 4.6753073 12
1.0979339 2.2156565 -0.66257679 58
1.1831932 2.3845727 -0.61456633 27
1.3072832 2.6300471 -0.57090056 28
1.4584484 2.9303176 -0.51842386 25
1.6752399 3.3614826 -0.46115363 23
1.9447131 3.8970861 -0.38104489 30
2.2853003 4.5716057 -0.26785544 22
2.7407043 5.4754443 -0.10687853 16
4.4825306 9.037921 0.17609477 14
5.1320767 10.333976 0.60468972 25
5.1347189 10.325722 1.0089148 7
5.1389952 10.320764 1.4156344 65
3.7614048 7.5409188 1.334699 17
3.6045241 7.2169318 1.5680684 11
3.6121342 7.2227054 1.8643944 21
5.3716774 10.726989 3.2145329 4
1.1069032 2.1960559 -0.65895331 63
1.2029092 2.3834229 -0.61636597 27
1.3154112 2.601815 -0.56670272 38
1.4640857 2.8921239 -0.51341796 31
1.6977688 3.3479347 -0.46090987 26
1.9583418 3.8567674 -0.37843022 20
2.3189695 4.5591016 -0.2680648 27
2.796104 5.4900351 -0.10754173 16
4.3953328 8.7126131 0.17033549 14
5.1293569 10.154403 0.59621125 25
5.214777 10.305623 1.0104837 5
nan nan nan nan
5.1317902 10.115315 1.7964935 13
3.5107265 6.9080582 1.5062463 7
3.6766112 7.225101 1.871593 12
4.9192581 9.6504297 2.9023969 18
1.1217078 2.1863604 -0.6584357 47
1.2181528 2.3712871 -0.61546612 46
1.3375878 2.599319 -0.5682292 30
1.4847424 2.8815739 -0.51341796 22
1.7143991 3.3215883 -0.45896 24
1.9813166 3.8338051 -0.37755868 28
2.3313334 4.5033698 -0.265762 18
2.8196738 5.4397049 -0.10694835 14
4.5087194 8.7805567 0.17229016 11
5.2165012 10.145858 0.59788603 20
6.4624715 12.547666 1.2348225 2
3.5047259 6.796103 0.93888152 18
4.9611511 9.6079426 1.7126448 4
nan nan nan nan
4.9040408 9.4689369 2.4618645 26
nan nan nan nan
1.1328536 2.1697149 -0.65584749 32
1.2260618 2.3452394 -0.6109671 24
1.3525106 2.5827239 -0.56670272 37
1.5080764 2.8761237 -0.51435655 22
1.7144759 3.2655995 -0.45286649 27
2.0012805 3.8054216 -0.37616417 18
2.3385212 4.4410362 -0.26304054 15
2.8221414 5.3526697 -0.10562197 19
4.5473566 8.7019882 0.17138264 11
5.2500801 10.033944 0.59348977 5
5.4801435 10.460304 1.0331441 16
3.5671046 6.7972159 0.94253755 30
5.1207433 9.7453136 1.7436188 1
3.6363676 6.9116001 1.5180764 12
3.6551614 6.9355588 1.8099563 17
5.0831466 9.6328869 2.9184437 18
1.139819 2.1463974 -0.65118873 34
1.2424048 2.336623 -0.6109671 37
1.3603578 2.5541573 -0.56250495 32
1.5188251 2.8480945 -0.51122791 13
1.7456489 3.26931 -0.45506018 34
2.0184021 3.7737885 -0.37442106 16
2.3666401 4.4193206 -0.26272655 9
2.8377073 5.2923031 -0.10481916 16
4.4606495 8.3928022 0.16590258 9
5.2730842 9.9088917 0.58825624 17
5.4527826 10.233649 1.0144928 7
nan nan nan nan
5.1067224 9.5560112 1.7160863 31
3.565974 6.6644726 1.4692293 31
3.5746071 6.6694107 1.7469699 23
5.6170621 10.467006 3.1829567 3
1.1437596 2.1179903 -0.64497709 31
1.2586861 2.327893 -0.6109671 29
1.3697413 2.5290611 -0.55907035 22
1.5358465 2.832212 -0.51028925 33
1.757064 3.2361088 -0.45213532 22
2.0354784 3.7442083 -0.37285227 18
2.3993452 4.406198 -0.26293588 9
2.8659704 5.2565618 -0.10450501 24
4.4354634 8.2066479 0.16283096 13
5.5740685 10.300437 0.61379617 17
3.7292383 6.8827252 0.68486983 1
nan nan nan nan
nan nan nan nan
3.5589316 6.5411177 1.4474771 25
3.6460247 6.6928406 1.7595673 42
5.2865448 9.6881628 2.9572666 32
1.1687456 2.1285808 -0.65067112 33
1.2711519 2.3122182 -0.60916752 36
1.3784028 2.5042005 -0.55563581 30
1.538879 2.7922823 -0.50497049 26
1.7834508 3.230715 -0.45311025 17
2.0471113 3.7037501 -0.37023759 16
2.4215453 4.3757844 -0.26209849 15
2.8870866 5.2084422 -0.10394654 18
4.0387297 7.3525047 0.14642569 4
5.5776401 10.141503 0.60657376 11
5.3788342 9.7638664 0.97527272 5
3.7851598 6.8624635 0.96228039 21
5.2733269 9.5486727 1.7276624 60
nan nan nan nan
3.7870746 6.8376989 1.8045574 27
4.9954143 9.0082674 2.7600465 24
1.1945029 2.1408203 -0.65688276 33
1.2859108 2.3018107 -0.60871756 33
1.3958519 2.4945164 -0.55563581 24
1.5573698 2.7797475 -0.50465763 22
1.8180257 3.2410076 -0.45627886 26
2.068037 3.6806846 -0.36936605 18
2.4363649 4.3309216 -0.26042375 8
2.9352274 5.2113209 -0.1044003 22
3.9895403 7.1443 0.14283049 8
5.68047 10.159845 0.61002797 2
5.7595158 10.288574 1.0315753 16
3.8494809 6.8653054 0.96642399 36
4.0005436 7.1259675 1.2943389 14
nan nan nan nan
3.6827099 6.5410933 1.733023 12
5.1928945 9.212142 2.8335512 17
1.2046545 2.1240273 -0.65429455 45
1.2875152 2.2673588 -0.60196906 31
1.4142046 2.4864163 -0.5560174 22
1.5826048 2.7791061 -0.50653487 23
1.8209432 3.1937466 -0.45140409 26
2.0917068 3.6626971 -0.36901742 18
2.4506791 4.2860656 -0.25874901 8
2.942729 5.1403732 -0.10338806 15
4.0985479 7.2206187 0.14492479 14
5.5943546 9.8438482 0.5933851 8
4.0241017 7.0722032 0.71188807 27
5.6095748 9.8426189 1.3910168 11
3.8857167 6.809629 1.2417769 17
3.6930337 6.4640918 1.4470955 18
3.7902298 6.6234727 1.7618167 40
5.2666841 9.1924257 2.8387275 6
1.221383 2.1189125 -0.65532982 45
1.3062352 2.2633784 -0.60331875 34
1.4246498 2.4645853 -0.5533461 30
1.6108718 2.7833774 -0.50935066 18
1.8203033 3.1414528 -0.4457981 30
2.1042261 3.6256022 -0.36675134 20
2.4474297 4.211864 -0.25529483 17
2.9715047 5.1076045 -0.10314372 27
4.0978923 7.1034918 0.14314464 34
4.0876231 7.0771275 0.42831749 2
5.4527841 9.4292831 0.95296091 10
2.5679536 4.4335203 0.62908959 12
3.8875775 6.7037292 1.2273849 19
nan nan nan nan
3.7736764 6.4890385 1.733023 8
5.4308476 9.3273935 2.8920441 29
1.2322394 2.103667 -0.65325934 42
1.331862 2.2710145 -0.60781777 25
1.4487816 2.466429 -0.5560174 24
1.6112378 2.7397118 -0.50340617 23
1.8421904 3.1286681 -0.4457981 17
2.1062062 3.5713527 -0.36274219 24
2.4757571 4.1929564 -0.25519016 8
2.9989469 5.0729651 -0.10286448 20
4.135252 7.0540071 0.14272578 21
4.1652427 7.0966468 0.43124834 2
2.5750196 4.3820033 0.44466859 2
2.585753 4.3932452 0.62592101 12
3.9172347 6.6474938 1.2220662 28
nan nan nan nan
3.8387144 6.4960895 1.7420211 31
5.309917 8.975009 2.7942104 6
1.2415924 2.0869288 -0.65067112 46
1.3542712 2.2736151 -0.6109671 20
1.4725777 2.4683125 -0.55868876 34
1.6217456 2.7151139 -0.50090319 25
1.8624251 3.1143525 -0.44555435 20
2.1202292 3.5398412 -0.36099908 31
2.4826694 4.1400361 -0.25299203 6
3.0107629 5.0147176 -0.10209658 22
4.1442928 6.9604058 0.1413994 30
4.264585 7.1539083 0.43648189 2
2.5261638 4.2326393 0.43124664 11
2.5280032 4.2290096 0.60495949 18
4.011085 6.7020364 1.2370839 15
4.0727029 6.7969136 1.5402104 30
3.8517561 6.4180107 1.7280741 46
6.0245848 10.026598 3.1342988 1
1.2441398 2.0583701 -0.64445943 35
1.3509418 2.2324276 -0.60241896 24
1.486721 2.452935 -0.55754393 31
1.6334877 2.6919043 -0.49871314 30
1.8810298 3.0961847 -0.44482315 20
2.1376407 3.5130384 -0.35977891 29
2.4844952 4.0782557 -0.25027055 12
3.0071721 4.930409 -0.1008051 20
4.1575947 6.8731298 0.14021264 26
2.6434884 4.364922 0.26743674 24
2.4399533 4.0240889 0.41172373 13
2.5358272 4.1756268 0.599841 20
3.793005 6.2383976 1.1563637 10
4.1006589 6.7364521 1.5329596 18
3.9593635 6.4941244 1.755968 19
4.213264 6.9024367 2.1668332 27
1.2635328 2.0578663 -0.64704764 27
1.3746572 2.2362237 -0.60601819 28
1.4924871 2.4241061 -0.5533461 23
1.6553504 2.6854796 -0.49965176 30
1.9151098 3.1032491 -0.44774801 27
2.1642091 3.5014188 -0.36012751 29
2.5055492 4.048923 -0.24953786 10
3.0552106 4.9313936 -0.10125886 18
4.2054801 6.8439345 0.14021264 19
2.5828507 4.1983624 0.25833032 9
2.3363349 3.7932057 0.38976046 21
2.5326056 4.1054487 0.59228504 11
4.2672334 6.9092469 1.2862043 17
4.0763421 6.5924444 1.5066279 33
3.9789541 6.4249063 1.7447206 36
5.8137999 9.3767014 2.9562314 8
1.2819579 2.055552 -0.64911819 42
1.385075 2.2183073 -0.60376865 40
1.4937587 2.3886597 -0.54762185 20
1.6583333 2.6487436 -0.4949587 27
1.9072063 3.0427089 -0.44092333 16
2.1896603 3.4879122 -0.36030185 21
2.5135615 3.9992032 -0.24754909 18
3.0853038 4.9031739 -0.10111924 24
2.6395621 4.2291059 0.087017693 4
2.4374642 3.9007561 0.24105945 15
2.3574765 3.7683575 0.38888893 16
2.5601535 4.0859842 0.59204131 20
4.2145963 6.7186408 1.256169 24
3.9719138 6.3244138 1.4516749 24
4.0714369 6.4728527 1.765416 17
5.5167537 8.7604656 2.7740226 29
1.2890421 2.0351274 -0.64549476 25
1.3911364 2.1937714 -0.59971952 24
1.4998729 2.3616004 -0.54380566 23
1.6767845 2.6371019 -0.4949587 17
1.9390618 3.0460656 -0.44336072 16
2.184438 3.427563 -0.35559544 19
2.5156279 3.9411542 -0.24503697 18
3.1108427 4.8680367 -0.10084001 22
2.5641012 4.0450587 0.083597034 9
2.4667754 3.887018 0.24126878 12
2.3591506 3.71313 0.38487977 30
2.595011 4.0780602 0.59350377 23
nan nan nan nan
4.0328612 6.3230143 1.4577808 27
4.0839415 6.3957133 1.751919 19
6.0326238 9.43295 3.0002306 16
1.2979922 2.0179555 -0.64290655 33
1.4053618 2.182368 -0.59926963 39
1.5137856 2.3480365 -0.54304242 23
1.7011235 2.6355853 -0.49683592 21
1.9505825 3.0174491 -0.44116706 15
2.1920774 3.3871379 -0.35298076 21
2.5489144 3.9339957 -0.245665 16
3.1033878 4.7824559 -0.09951362 4
2.5179944 3.9131608 0.081223503 15
2.4196248 3.7559636 0.23415108 18
2.3180451 3.5927711 0.37407246 17
2.5807009 3.9952717 0.58399796 13
4.1984863 6.4923601 1.2245692 12
4.1345344 6.3836899 1.4783882 7
4.1210675 6.3556023 1.7487695 61
5.9914989 9.2296343 2.9484665 12
1.311698 2.0090735 -0.64290655 33
1.4095222 2.1564398 -0.59477061 20
1.5537976 2.3735478 -0.55143803 23
1.7313926 2.641819 -0.50027746 23
1.983054 3.0223598 -0.44384819 20
2.2101982 3.3634274 -0.35210916 19
2.5444815 3.867718 -0.24262951 14
2.6574047 4.0347638 -0.08433003 1
2.5375955 3.8837681 0.080979168 9
2.4436011 3.7356377 0.23394175 16
2.3380806 3.5702424 0.37337521 31
2.5878448 3.9456189 0.57936692 30
6.3178568 9.6216812 1.8230875 10
4.0948539 6.2290764 1.4490036 15
4.1192589 6.2566881 1.7294238 25
5.8016925 8.8020773 2.8247511 34
1.331028 2.0079188 -0.64549476 36
1.4299304 2.1546652 -0.59702015 38
1.5605495 2.3479273 -0.54800349 29
1.7596424 2.6444683 -0.5030933 18
1.9953014 2.9952254 -0.44189829 15
2.244683 3.3644896 -0.35385233 15
2.5514534 3.8199646 -0.24074543 14
2.5910258 3.8748176 -0.081363119 17
2.3966188 3.6126709 0.07567364 11
2.3922729 3.6020241 0.22661473 12
2.3783927 3.57706 0.37581557 26
2.54161 3.8167543 0.56303644 17
6.2950249 9.442565 1.7974323 1
4.2090802 6.3064818 1.4738088 21
4.152009 6.2115765 1.7249248 46
6.854672 10.243259 3.302531 12
1.3363855 1.9857552 -0.64135361 30
1.4394935 2.1365492 -0.59477061 27
1.5681171 2.3239565 -0.54495054 27
1.7548395 2.5977454 -0.49652308 23
2.0183876 2.9845114 -0.44238573 13
2.2513576 3.3239923 -0.35123762 29
2.5399489 3.7458544 -0.23718657 14
2.5337794 3.732547 -0.078745253 6
2.44524 3.6306818 0.076406635 26
2.3793979 3.5289309 0.22305585 24
2.3564897 3.4910107 0.36849448 13
2.5214994 3.729846 0.5527994 25
6.3718638 9.4147453 1.8005608 12
4.244195 6.2639403 1.4707558 11
4.1591663 6.1292233 1.710078 27
6.193253 9.1165123 2.9531255 32
1.3436774 1.9668062 -0.63824779 36
1.4642757 2.1409242 -0.59881973 33
1.5798664 2.306473 -0.54342401 33
1.7651132 2.5740263 -0.49433297 27
2.0279388 2.9539821 -0.43994835 22
2.2801507 3.3164036 -0.35210916 12
2.5615065 3.7214513 -0.23676789 14
2.5836055 3.7493451 -0.079478264 8
2.4908402 3.6432371 0.07703492 15
2.3825412 3.4809198 0.22106709 28
2.3965693 3.4974849 0.37093481 23
2.5351217 3.6941478 0.55011827 12
6.5213304 9.4921446 1.8240261 6
4.2867093 6.2325406 1.4703742 32
4.2571249 6.1802816 1.732573 48
6.2249379 9.0269346 2.9381139 18
1.3529713 1.9510285 -0.63617724 41
1.4736288 2.1226463 -0.59657025 41
1.5824811 2.2760439 -0.53884465 39
1.7841688 2.563262 -0.49464583 22
2.0473773 2.9381237 -0.43970463 15
2.2724636 3.256289 -0.34740278 9
2.5839951 3.6985652 -0.23645388 24
2.5776241 3.6853349 -0.078500926 3
2.4854314 3.5814025 0.076092489 16
2.3794348 3.4248359 0.21855497 26
2.346982 3.3743501 0.3596046 22
2.5642519 3.6812465 0.55084944 13
3.185245 4.5676451 0.88197768 3
4.5492601 6.5163698 1.5447898 29
4.5313115 6.4810095 1.8257028 40
6.2446022 8.9215317 2.9179258 32
1.3632232 1.9367959 -0.6346243 31
1.4850444 2.1075277 -0.59522051 30
1.6085192 2.2793782 -0.54227924 24
1.7974598 2.5442908 -0.49339435 25
2.0540831 2.9043112 -0.43677977 17
2.3020511 3.2501001 -0.34844866 9
2.5646973 3.6168952 -0.23237166 20
3.0315771 4.2705774 -0.091415711 6
2.4666169 3.5018384 0.074766114 35
2.3837211 3.3803914 0.21677555 16
2.3543954 3.3350954 0.3571642 20
2.5520725 3.6097651 0.54280609 13
2.9819674 4.2131462 0.81752664 28
4.552649 6.425179 1.5306698 11
4.526823 6.379292 1.8059072 23
nan nan nan nan
1.3879408 1.9429514 -0.63980073 33
1.492921 2.0875974 -0.59252113 33
1.6289654 2.2744772 -0.54380566 45
1.8105745 2.525259 -0.49214289 25
2.0523157 2.8592596 -0.43214872 22
2.3090045 3.2133224 -0.34618258 13
2.5968852 3.6086287 -0.2329997 22
2.5738912 3.5727291 -0.076860398 6
2.4130859 3.3755405 0.072427489 25
2.37239 3.3149436 0.2136354 24
2.3961861 3.3444924 0.35995319 21
2.5795274 3.5950849 0.5432936 11
3.0309012 4.2194982 0.8228454 13
4.2833362 5.9565034 1.4261066 36
7.6670017 10.650135 3.0296409 16
6.3244929 8.7723608 2.897738 34
1.385597 1.9113171 -0.63255376 38
1.5166148 2.0897419 -0.5961203 38
1.6444095 2.2633367 -0.54380566 24
1.8277214 2.512876 -0.49214289 21
2.0745659 2.8480701 -0.4326362 19
2.3219919 3.1842444 -0.3447881 17
2.6378751 3.6134529 -0.23446509 18
2.8135626 3.8484757 -0.083213076 12
2.5076196 3.4577847 0.074556686 13
2.3855121 3.2857883 0.21279801 31
2.4042449 3.3067329 0.35768715 12
2.5688908 3.5292959 0.53598142 10
2.9211144 4.0087886 0.78561401 13
4.5574327 6.2452178 1.5028118 28
7.6515007 10.473613 2.9945486 39
nan nan nan nan
1.3825518 1.8800526 -0.62530684 25
1.5284933 2.0762315 -0.59522051 30
1.6590056 2.2502213 -0.54342401 28
1.8487395 2.5048232 -0.49308151 22
2.0896788 2.827132 -0.43166125 13
2.328759 3.1471357 -0.34252208 16
2.6618488 3.5933442 -0.23436043 20
2.8761065 3.8769186 -0.084260218 15
2.4736207 3.3612754 0.072846346 16
2.391808 3.2465422 0.2113326 16
2.3971326 3.250205 0.35332939 40
2.5993643 3.5192595 0.53720009 13
2.8433299 3.8453481 0.75745571 21
4.7481289 6.4120498 1.5508956 28
nan nan nan nan
3.5562921 4.792048 1.5989841 17
1.3659241 1.8298604 -0.61184824 45
1.549144 2.073046 -0.59747005 39
1.6793789 2.2448723 -0.54495054 33
1.8500346 2.4693968 -0.48870131 31
2.0986443 2.798183 -0.42946759 17
2.3279426 3.1005299 -0.33921015 14
2.6382811 3.5087545 -0.23006889 18
2.6084628 3.4653194 -0.075708538 6
2.5305274 3.3887877 0.073823676 13
2.3695242 3.1685648 0.20735508 27
2.5695865 3.4323363 0.37511832 6
2.5822039 3.4454286 0.52866924 21
2.9976521 3.9939511 0.79093277 12
4.7420669 6.311254 1.5344861 12
4.6446886 6.1749172 1.783862 12
3.567245 4.7356162 1.5886314 1
1.3798312 1.8218206 -0.6123659 56
1.5494492 2.0435469 -0.59207124 23
1.687089 2.2218525 -0.54227924 41
1.8504933 2.4344044 -0.48432118 30
2.1037025 2.7645068 -0.42654276 15
2.3434949 3.0762777 -0.33833858 14
2.643328 3.4648447 -0.22839414 22
2.5852542 3.3850458 -0.07434725 13
2.3904378 3.1538551 0.069076627 21
2.3891742 3.148762 0.20714574 18
2.4187376 3.1842611 0.34984317 35
2.5322754 3.3289092 0.51355743 25
3.1559095 4.1442289 0.82503545 13
4.5432029 5.9594865 1.456636 28
4.7006927 6.159379 1.7888108 2
nan nan nan nan
1.4019332 1.8243977 -0.61650699 34
1.5517972 2.0172334 -0.58757222 49
1.7033714 2.2118728 -0.54266083 38
1.8573723 2.4092367 -0.4818182 26
2.1229501 2.749754 -0.42654276 26
2.3515117 3.0425012 -0.33642116 14
2.6949623 3.4831038 -0.2308016 16
2.5916762 3.3447847 -0.073858589 16
2.5008149 3.2532463 0.071624674 26
2.4324756 3.1609185 0.20902982 16
2.4056389 3.1215315 0.3447881 23
2.5136504 3.2581563 0.50527036 18
2.9522166 3.8224792 0.76496464 28
4.9834681 6.4432058 1.5833331 25
4.7566991 6.1433635 1.7937598 4
7.2703166 9.3795977 3.1798508 1
1.435694 1.8422407 -0.62582451 21
1.565491 2.0066247 -0.58757222 41
1.712728 2.1921918 -0.54075271 36
1.8863164 2.4117708 -0.48494691 23
2.1306052 2.7211716 -0.42434907 16
2.3604016 3.0103319 -0.33467805 17
2.7031815 3.4437804 -0.22944085 18
2.5353093 3.2264366 -0.071624674 30
2.4988711 3.2041709 0.070926577 23
2.4458802 3.1328397 0.20829713 8
2.3961568 3.0658405 0.34043032 19
2.5375588 3.2420914 0.50551409 20
2.9800491 3.8033311 0.7652775 18
4.9290657 6.2840118 1.5524222 13
7.3755612 9.3895178 2.7565503 2
7.2388959 9.2056084 3.1379223 1
1.4401335 1.8215644 -0.62220097 44
1.5879275 2.0063429 -0.59072149 30
1.7353078 2.1894128 -0.54304242 30
1.869957 2.3567619 -0.47649944 18
2.1470811 2.7031221 -0.42386162 34
2.3677168 2.9766278 -0.3327606 19
2.657486 3.3373294 -0.22357923 13
2.8569272 3.5839398 -0.080001831 19
2.4926441 3.1505771 0.070123769 22
2.4552927 3.1000299 0.20725042 3
2.3915088 3.0162508 0.33676979 15
2.5848174 3.2553906 0.51038885 22
2.9696522 3.7360437 0.75589144 10
4.97648 6.2540584 1.5535669 14
7.3559217 9.2311144 2.7250571 2
7.2451601 9.0823574 3.1130757 3
1.43952 1.7948887 -0.61650699 48
1.6031156 1.9967276 -0.59117138 39
1.7394778 2.1634753 -0.53960788 39
1.8999878 2.3605778 -0.47994098 16
2.1497076 2.667973 -0.42069301 35
2.3921933 2.9646773 -0.33328354 16
2.7133505 3.3590913 -0.2263007 20
2.840385 3.5125945 -0.078849971 14
2.4757769 3.0847526 0.069041722 9
2.5431752 3.1653328 0.21279801 9
2.4224977 3.0119019 0.33816427 22
2.586314 3.210983 0.50624532 26
2.9820249 3.6983039 0.75244987 16
5.1470342 6.3765116 1.5928736 9
7.3540301 9.0977011 2.7007625 2
7.3472733 9.0796146 3.1296401 1
1.4690847 1.8057746 -0.62375391 40
1.6071726 1.9733983 -0.58757222 39
1.7669476 2.1664929 -0.54342401 39
1.9076765 2.3365448 -0.47775093 25
2.1695373 2.6544373 -0.42093676 15
2.4002116 2.9324875 -0.33154044 14
2.7329361 3.3354337 -0.22598669 22
2.6720722 3.2576709 -0.073544443 16
2.5262887 3.1030622 0.069844536 22
2.4541728 3.01126 0.20358689 8
2.5089591 3.0751934 0.34722847 12
2.5998762 3.1820884 0.50453913 17
2.8727028 3.5122566 0.71866006 57
5.3357015 6.5166306 1.6371413 7
7.4519658 9.0883284 2.7133598 6
7.4288716 9.0504942 3.1374047 13
1.4791955 1.7924949 -0.62271863 50
1.608498 1.9471066 -0.58307314 29
1.7770249 2.1480527 -0.54189759 40
1.9289831 2.3292544 -0.47900239 26
2.169013 2.6163023 -0.41728067 12
2.4053535 2.8972642 -0.3294487 14
2.7319002 3.2870882 -0.22399792 13
2.6819606 3.2235649 -0.07319539 19
2.524971 3.0575953 0.069216244 13
2.4216881 2.9294004 0.19919068 23
2.5633941 3.0975111 0.35176057 8
2.6296265 3.173032 0.50600159 13
2.8681419 3.45715 0.71146405 15
7.5497937 9.0905466 2.2969587 6
7.5289402 9.0525646 2.7183087 18
7.4226542 8.9152699 3.1084168 33
1.4854738 1.7747177 -0.62013048 26
1.6195489 1.9328425 -0.58217335 31
1.7818811 2.1235635 -0.53884465 46
1.9439255 2.314219 -0.47868952 22
2.1782811 2.5904615 -0.41557449 13
2.4203897 2.8743036 -0.32875144 17
2.7431974 3.2541904 -0.22305585 11
2.7985461 3.3163242 -0.075743444 21
2.6541138 3.1686647 0.072148249 16
2.4767287 2.9537442 0.20201682 10
2.5324371 3.0169723 0.34461379 3
2.6568236 3.1606746 0.50697654 12
3.0244806 3.5942335 0.7440024 15
7.6421652 9.0721531 2.3057361 42
7.6334171 9.0489397 2.7331555 36
7.4186497 8.7850113 3.080982 24
1.5037694 1.7719297 -0.62271863 26
1.6301446 1.9188035 -0.58127356 31
1.7733955 2.0844698 -0.53197551 22
1.9506675 2.2904065 -0.47649944 27
2.2151818 2.5982332 -0.41923055 6
2.4199967 2.8354568 -0.32613677 15
2.7510092 3.2187433 -0.22190447 21
2.6559498 3.1042295 -0.071310528 19
2.4581549 2.8944581 0.066284239 25
2.4411492 2.8713856 0.19751592 8
2.5283797 2.9708362 0.34130189 13
2.6615369 3.1228764 0.5038079 32
2.9834881 3.4969227 0.72804612 16
7.7509165 9.07516 2.3198559 19
3.6801031 4.3042836 1.3074156 14
7.3903298 8.6315842 3.0447474 28
1.5123224 1.7569958 -0.62116575 13
1.6396844 1.9029473 -0.57992387 34
1.7939546 2.0797837 -0.53388357 23
1.9597577 2.2696002 -0.47493511 48
2.2163877 2.5631847 -0.416062 11
2.4214778 2.7974033 -0.32369643 18
2.7623911 3.1878679 -0.22106709 17
2.6054738 3.0025437 -0.069390766 22
2.4934561 2.8958442 0.066703096 18
2.5310519 2.9363964 0.2031682 16
2.5047946 2.9018328 0.33537531 11
2.6840301 3.1061895 0.50405163 13
3.2437158 3.7499354 0.78530115 16
2.9821808 3.4427242 0.8853538 2
3.6423981 4.2004547 1.2835708 15
7.3805223 8.5023041 3.0167949 43
1.5153548 1.736473 -0.61754227 12
1.6474701 1.8858726 -0.57812428 34
1.8097231 2.0686865 -0.53426522 30
1.9911716 2.2736959 -0.47868952 23
2.2259316 2.5390825 -0.41459954 12
2.4391487 2.7793584 -0.32352212 13
2.7951269 3.1805072 -0.22190447 17
2.6971772 3.0658135 -0.071275629 12
2.4938834 2.8557718 0.066179529 22
2.5672657 2.9366977 0.20442426 12
2.4601958 2.8112485 0.32683402 22
2.8063908 3.2023325 0.52281958 5
3.1382401 3.5772212 0.75370133 15
7.9802365 9.0869207 2.3507669 2
3.894788 4.4302254 1.3618538 15
2.8454173 3.2320392 1.1538154 12
1.5184784 1.7157251 -0.61391884 20
1.6722264 1.8874526 -0.58217335 28
1.8185517 2.0504448 -0.53273875 39
2.0013561 2.2541811 -0.47743803 16
2.2132657 2.4893606 -0.40899354 12
2.4571669 2.7607753 -0.32334781 12
2.8313243 3.1778119 -0.22305585 22
2.6013603 2.9156027 -0.068204008 19
2.4920537 2.8147757 0.065621048 25
2.4401495 2.7532439 0.19280569 12
2.516793 2.8357284 0.33171475 14
2.6527679 2.9857838 0.49040228 21
3.0023577 3.3756986 0.71553135 7
3.7305579 4.1885581 1.0902827 3
8.6202879 9.6684027 2.9904995 2
nan nan nan nan
1.5430231 1.7197282 -0.61909521 19
1.6798266 1.8702273 -0.58037376 31
1.832822 2.0376987 -0.53273875 29
1.995896 2.2166665 -0.47243217 31
2.2079926 2.4487858 -0.40485001 16
2.487062 2.7553844 -0.32474229 16
2.8320181 3.1342561 -0.22138111 15
2.5733497 2.8439915 -0.06694743 20
2.583787 2.8776577 0.067505911 16
2.4980302 2.7792184 0.19584116 3
2.5440316 2.8274193 0.3327606 12
2.7120819 3.0099607 0.49747071 16
3.131695 3.4720044 0.74056083 27
8.7840586 9.7249203 2.5473001 2
3.0230725 3.3433537 1.0406237 4
7.5386539 8.3285713 3.0100656 30
1.5422858 1.6943564 -0.61391884 21
1.694479 1.8595992 -0.58082366 48
1.8337715 2.01035 -0.52892256 28
2.0170357 2.2081611 -0.47368363 26
2.2451291 2.4552848 -0.4085061 12
2.5008564 2.7320759 -0.32404503 15
2.848974 3.1080227 -0.22096242 14
2.5836778 2.8156431 -0.066703096 23
2.5499618 2.8004053 0.066109717 23
2.4801736 2.7199488 0.19291034 8
2.5547965 2.7988415 0.33154044 10
2.7263336 2.9836257 0.496252 25
nan nan nan nan
3.0686007 3.349966 0.88306409 1
nan nan nan nan
nan nan nan nan
1.5514561 1.6807085 -0.61288351 25
1.7100655 1.8505869 -0.58172351 24
1.8547776 2.0043812 -0.53083062 38
1.9974989 2.1563485 -0.46554902 16
2.2554657 2.4322741 -0.40728739 13
2.4995353 2.6926479 -0.32143039 18
2.90324 3.1231639 -0.22347455 16
2.5855639 2.7785048 -0.066249333 31
2.6201391 2.8364367 0.067401193 10
2.5913098 2.8022826 0.20002805 7
2.476825 2.6756654 0.31898999 31
2.7273715 2.9422033 0.49259594 20
3.1361241 3.3796017 0.73023617 15
3.1947987 3.4392185 0.91244864 9
3.2525895 3.4977562 1.1027101 27
3.3031797 3.5471911 1.298754 37
1.5644723 1.671247 -0.61340117 35
1.7082856 1.8229614 -0.57677454 23
1.8656915 1.9888459 -0.53006744 37
1.9526321 2.0793426 -0.45178279 10
2.2764707 2.4208071 -0.40801859 12
2.5251007 2.6823857 -0.32230192 31
2.8189588 2.9914083 -0.21541482 21
2.8217444 2.9901762 -0.07176429 19
2.5915458 2.7674496 0.066179529 12
2.5474906 2.7175512 0.19521314 3
2.585444 2.7541821 0.33049458 15
2.6345057 2.8035028 0.47236562 10
4.9849191 5.2991276 1.1522964 14
nan nan nan nan
3.323725 3.5245841 1.1184567 4
3.0050013 3.1832588 1.1729679 9
1.5744818 1.6591576 -0.61288351 40
1.7045487 1.7943369 -0.57137573 24
1.8768245 1.9729277 -0.52930421 46
1.9929839 2.0928397 -0.45772728 13
2.2723501 2.383703 -0.4043625 16
2.5327599 2.6531625 -0.32090744 13
2.8646123 2.9976466 -0.21729892 24
2.7024176 2.8249571 -0.068238907 12
2.5557227 2.6912878 0.064783335 14
2.5182376 2.6490352 0.19154961 36
2.5588059 2.6888905 0.32474229 21
2.6033435 2.7318707 0.46334729 19
4.9617987 5.2013073 1.1385301 12
nan nan nan nan
3.2957232 3.4463663 1.1009105 13
3.2355525 3.3799007 1.2537196 4
1.5927243 1.6550853 -0.61547172 24
1.7224419 1.788007 -0.57317531 29
1.8837372 1.9527122 -0.52739608 16
2.0212681 2.0930848 -0.46085599 10
2.2834175 2.362072 -0.40338758 16
2.5512221 2.6354146 -0.32090744 15
2.8535032 2.9445848 -0.21489146 42
2.981055 3.0729871 -0.074731201 9
2.8158023 2.9240108 0.070856772 57
2.557461 2.6529601 0.19311969 11
2.5622957 2.6551917 0.32282487 10
2.5892453 2.6793699 0.45749757 13
3.1754196 3.2825062 0.72335303 16
3.1439826 3.2466063 0.87848467 12
3.1894639 3.2889745 1.0577199 4
3.1635294 3.2588153 1.2169672 28
1.589398 1.6287178 -0.60977769 33
1.7185405 1.7592115 -0.5677765 40
1.8561373 1.8974112 -0.51594758 28
2.0233927 2.0662205 -0.45804018 9
2.2887349 2.3347325 -0.40143764 9
2.5346637 2.5819957 -0.31654966 16
2.8641896 2.9146211 -0.21415874 31
2.7878749 2.833993 -0.069390766 22
2.6070213 2.6696486 0.06513238 28
2.6066368 2.6664605 0.19542249 20
2.7925839 2.8536849 0.34932023 8
2.798233 2.8554697 0.49088979 12
3.113874 3.1742406 0.70426804 12
nan nan nan nan
3.209615 3.263849 1.0568202 35
3.0899801 3.1389039 1.180215 12
1.5966533 1.6134626 -0.60822481 28
1.754095 1.7707067 -0.57542485 25
1.8928425 1.9081019 -0.52243507 30
2.0280237 2.0422332 -0.45585006 10
2.3007791 2.3144748 -0.40070644 8
2.544194 2.5557654 -0.31550378 21
2.8760092 2.8860664 -0.21353073 15
2.8711438 2.8781683 -0.070961483 18
2.6087108 2.6343324 0.064713523 19
2.5619142 2.5843687 0.19071224 25
2.6510458 2.6714826 0.32927439 20
2.8292952 2.8471279 0.49283966 40
nan nan nan nan
3.2748964 3.2886431 0.90214497 53
3.2749801 3.2841389 1.070767 13
3.0913463 3.0967467 1.1724503 15
1.6133529 1.6077303 -0.6102953 24
1.7595096 1.7515424 -0.57317531 27
1.908902 1.8976092 -0.52319831 30
2.0436335 2.0294173 -0.45616296 9
2.311244 2.2927639 -0.39973149 6
2.5756824 2.5524137 -0.31724688 10
2.881891 2.8518689 -0.21248402 43
2.7660208 2.7343407 -0.067889862 19
2.6100335 2.5991249 0.064294666 13
2.6067963 2.5931842 0.19270101 17
2.7643185 2.7470059 0.34095326 10
2.7335606 2.7126479 0.47285309 13
3.2743306 3.2458804 0.73023617 25
3.194546 3.1634743 0.8739053 12
nan nan nan nan
3.6447618 3.6005025 1.3727763 21
1.6259148 1.5977826 -0.61081296 40
1.7647407 1.7323912 -0.57092583 30
1.9287832 1.8914447 -0.52510637 32
2.0574 2.0154595 -0.45616296 9
2.3158431 2.2654662 -0.39778158 5
2.5763404 2.5176587 -0.31515515 16
2.9841287 2.913106 -0.21855497 21
2.710583 2.6423802 -0.066074811 23
2.6419301 2.5953121 0.064643718 7
2.615834 2.5669868 0.19207297 15
2.659626 2.606319 0.32578817 11
2.7647271 2.7064774 0.47504675 15
3.054841 2.9873486 0.67673558 13
3.2502637 3.1740148 0.88306409 17
nan nan nan nan
3.1199138 3.0403469 1.167274 20
1.6409142 1.5907122 -0.6123659 43
1.7666924 1.7108492 -0.5677765 27
1.9377072 1.8738389 -0.52396154 31
2.0643167 1.994185 -0.45459861 7
2.3212101 2.2400022 -0.3960754 9
2.0099502 1.9369221 -0.24421038 10
2.9382048 2.8284845 -0.21374007 19
2.7530107 2.6474304 -0.06666819 17
2.6657293 2.58237 0.064783335 27
2.6423028 2.5569956 0.19270101 11
2.5956535 2.5092225 0.3158524 18
2.7764137 2.6802166 0.47382805 12
3.4538541 3.3306935 0.75995874 30
3.2293761 3.1109552 0.87161553 6
3.6416152 3.5031831 1.1665963 47
3.636946 3.4950268 1.3515531 31
1.6366178 1.5645343 -0.60667187 25
1.7785933 1.6984737 -0.5677765 29
1.9336922 1.8440067 -0.51938212 22
2.0796189 1.9810874 -0.4549115 13
2.3296013 2.2169001 -0.39485672 16
2.5837991 2.4553657 -0.31184325 25
2.9448414 2.7955289 -0.21279801 21
2.8787994 2.7299712 -0.06925115 8
2.6808009 2.5609343 0.064713523 23
2.6311913 2.5109096 0.19060758 23
2.6419504 2.5185354 0.31933865 19
2.7404227 2.6087561 0.46456599 18
3.3524871 3.1880686 0.73273909 18
3.2211242 3.0599384 0.86360151 5
3.7437422 3.5514395 1.1913409 11
nan nan nan nan
1.6348498 1.5411434 -0.60201317 26
1.7975011 1.6926953 -0.57002604 30
1.9493783 1.8331529 -0.52014536 20
2.0847592 1.9584063 -0.45303425 9
2.359498 2.2141652 -0.3972941 13
2.5907013 2.427731 -0.31062305 24
2.9336667 2.7462385 -0.21059991 49
2.988344 2.7944882 -0.071415246 21
2.7713923 2.6107152 0.066458762 7
2.6879282 2.5294352 0.1934337 3
2.7073739 2.5450628 0.32509091 23
2.8092229 2.6371143 0.47309685 11
3.243536 3.0416257 0.70426804 33
3.7209594 3.4856701 0.99106199 11
3.520822 3.2935731 1.113058 8
3.1038589 2.9004769 1.1382862 24
1.646984 1.5310076 -0.60253078 28
1.8092746 1.6801051 -0.57002604 48
1.9434152 1.8021441 -0.51518428 41
1.9766523 1.8310413 -0.42675328 22
2.3850961 2.2070777 -0.39900026 15
2.6163666 2.4176984 -0.31166893 22
2.9483647 2.7216265 -0.21028589 42
2.9107568 2.6840868 -0.069111533 16
2.7807591 2.5831392 0.066249333 41
2.7230887 2.5269122 0.19468978 10
2.7879047 2.5843437 0.33258632 7
2.7882326 2.5810282 0.46651587 18
3.2820954 3.035001 0.70802242 15
3.6182959 3.3423777 0.9574796 30
3.1612802 2.9161253 0.99293399 12
3.3044553 3.0449963 1.2040263 8
1.6590557 1.5207784 -0.60304838 27
1.8051496 1.6529574 -0.56507707 27
1.9617445 1.7938319 -0.51671082 29
2.1060669 1.9237776 -0.45178279 9
2.3872488 2.1783304 -0.3968066 13
2.6596904 2.4235287 -0.31480655 16
2.9613853 2.6955988 -0.20986721 35
3.0744147 2.7955418 -0.072532199 9
3.2971284 3.0202055 0.078047164 7
2.6876183 2.459301 0.19092159 35
2.9176447 2.6669786 0.34583399 36
2.7797933 2.5374107 0.46212861 13
3.6447637 3.3234642 0.78123385 19
3.6502507 3.3249683 0.95976931 19
3.8518956 3.5037274 1.2021385 12
3.1483421 2.8607566 1.1398392 12
1.6624665 1.502682 -0.60046023 28
1.8108599 1.6350909 -0.56327748 39
1.9523492 1.7603723 -0.51098651 23
2.1223817 1.9116716 -0.45240852 9
2.4023983 2.1616111 -0.3968066 12
2.7076674 2.4328654 -0.31846708 4
2.9890501 2.6828635 -0.21049525 22
2.9345479 2.6311712 -0.068797387 13
2.9293368 2.6459298 0.068902098 10
2.6750662 2.413717 0.18882816 22
2.6742439 2.4104366 0.31498083 13
2.7767823 2.499351 0.45871624 18
3.0876546 2.7762387 0.65765053 16
3.4981041 3.1419771 0.91397518 45
3.2219977 2.8899188 0.99923271 24
3.1768699 2.8464422 1.1429449 11
1.6512842 1.4717585 -0.59269565 31
1.823687 1.6237037 -0.56372738 34
1.948451 1.7323511 -0.50678873 28
2.138629 1.8994325 -0.45303425 9
2.4174297 2.1447878 -0.3968066 17
2.7047799 2.3972001 -0.31620103 3
3.0540714 2.7029648 -0.21374007 14
3.0097749 2.6609516 -0.070123769 18
2.8506742 2.5389647 0.066633284 13
2.7097576 2.4109139 0.19008422 10
2.7475967 2.442004 0.32160467 12
2.8164349 2.4996686 0.46237233 11
3.2104299 2.8463471 0.67955142 22
3.3377101 2.956073 0.86665452 36
3.2503512 2.8756678 1.001932 3
3.7091713 3.2769873 1.3261888 3
1.6745794 1.4716711 -0.59735435 38
1.8291204 1.6057898 -0.5619278 31
1.9631505 1.7216362 -0.50755197 23
2.114363 1.8522884 -0.44521254 11
2.4323452 2.1278574 -0.3968066 17
2.7229507 2.3795686 -0.31637534 9
3.0739038 2.6834269 -0.21384473 42
3.0961084 2.699007 -0.071694486 18
3.2269385 2.8349359 0.074975535 15
2.7981601 2.4556503 0.19510846 11
2.760082 2.4188247 0.32108176 9
2.7706516 2.4255238 0.45213532 10
3.3977573 2.9713728 0.71490556 42
nan nan nan nan
3.2409778 2.8272851 0.99293399 1
1.923954 1.6765988 0.68379998 7
1.691856 1.4665661 -0.59994256 26
1.8341147 1.5882003 -0.56012815 34
1.9676961 1.7014692 -0.50564384 11
2.1152828 1.8271528 -0.44270959 11
2.4497778 2.1138465 -0.3972941 12
2.7239926 2.3479724 -0.31463224 13
3.1092141 2.6762342 -0.21499613 21
3.1189582 2.6817799 -0.071799204 15
2.9624951 2.5661922 0.068413429 24
2.8499739 2.4661126 0.19751592 10
2.7719617 2.396071 0.32055882 18
2.8581445 2.4670854 0.46359101 11
3.2269273 2.7824636 0.67485833 18
3.285923 2.8303351 0.84299421 3
1.9720415 1.6968234 0.60061932 10
1.9444027 1.670681 0.68690574 4
1.7020527 1.4547198 -0.59994256 26
1.8362647 1.567766 -0.55742878 30
1.9837132 1.6918579 -0.50678873 10
2.1171463 1.8037438 -0.44051951 13
2.4554038 2.0889745 -0.39583167 12
2.7342453 2.3237369 -0.31393498 12
3.2019632 2.7183475 -0.22012506 17
3.4823275 2.9521859 -0.079687685 11
2.9874949 2.5524642 0.068587959 13
2.8287137 2.4142432 0.19489913 2
2.7582932 2.3508148 0.3170726 40
3.2739069 2.7872999 0.52793807 25
nan nan nan nan
1.9917423 1.6915116 0.50793356 7
1.9823544 1.6817532 0.60016948 5
1.9778373 1.6761409 0.69467032 9
1.7015765 1.434384 -0.59631914 27
1.8588195 1.5652715 -0.561028 50
1.972937 1.6590149 -0.50106448 12
2.153887 1.809249 -0.44552541 10
2.1867216 1.834878 -0.35049626 21
2.74582 2.3007526 -0.31341204 16
3.1626649 2.647212 -0.21614751 21
2.893307 2.419179 -0.065830477 8
2.8339505 2.3872535 0.064678617 6
2.8714786 2.4162972 0.19667853 31
2.787957 2.343523 0.31864139 24
nan nan nan nan
2.0177212 1.6918699 0.41705433 7
2.0092289 1.6829584 0.50946003 4
1.9940461 1.6678737 0.60016948 7
1.9998676 1.670964 0.69829381 7
1.7115489 1.4224697 -0.59631914 26
1.8607057 1.5447876 -0.55832857 39
1.969357 1.6326706 -0.49724829 10
2.1421232 1.7740089 -0.44051951 38
2.4671476 2.0410025 -0.39315054 9
2.7602792 2.2802584 -0.31323773 19
3.208796 2.6479514 -0.21803163 17
2.9394414 2.4230895 -0.066493668 16
3.1043727 2.5782177 0.070437916 23
2.8144951 2.3349798 0.19165429 28
nan nan nan nan
2.0309355 1.6807334 0.32368499 8
2.0264387 1.6752253 0.4164286 5
2.0390952 1.6838917 0.51403946 8
2.0131588 1.6601111 0.60241896 6
1.975698 1.6274825 0.68587047 5
1.7064941 1.3982432 -0.59114271 33
1.8774762 1.5366977 -0.56012815 26
1.9867877 1.6238519 -0.49877474 10
2.1483352 1.7540134 -0.43926802 31
2.2521245 1.8367882 -0.35683349 12
2.7293971 2.2236636 -0.3080084 4
3.2179084 2.6179228 -0.21740359 21
2.9469752 2.3949423 -0.066284239 23
2.9335363 2.4019265 0.066179529 22
nan nan nan nan
2.0551319 1.679113 0.23218289 8
2.056462 1.6778091 0.32587865 6
2.0518656 1.6722686 0.41924441 7
2.047756 1.667136 0.51327622 5
2.0198767 1.6426806 0.60106927 4
1.9795136 1.6075608 0.68328232 6
1.7132094 1.3838669 -0.5901075 33
1.8745102 1.5125386 -0.55607903 13
2.0039091 1.6152189 -0.50030124 10
2.1540704 1.7343941 -0.43801656 29
2.2246683 1.788681 -0.35049626 16
2.7992225 2.2482228 -0.3141093 13
3.2263048 2.5884607 -0.21677555 10
nan nan nan nan
2.0878975 1.6859258 0.046842258 7
2.0753531 1.6740022 0.13973701 6
2.0776658 1.6734734 0.23340309 7
2.0678356 1.6637714 0.32587865 9
2.0616612 1.6570257 0.41893157 6
2.031785 1.63068 0.50640708 5
2.0328157 1.6297581 0.60151911 6
3.373142 2.7014306 1.1579564 1
1.7286328 1.3769889 -0.59217799 26
1.8771371 1.4936782 -0.55382955 37
2.0074511 1.5950828 -0.49839315 10
2.1676733 1.7205417 -0.4383294 40
2.1904311 1.7361143 -0.34318411 40
2.8320336 2.2422287 -0.31602672 7
2.1492891 1.699844 -0.14360988 8
2.1232808 1.676868 -0.047226213 5
2.0996168 1.6713085 0.046842258 5
2.0869892 1.6594726 0.13973701 6
2.1077294 1.6741637 0.23549481 9
2.0731788 1.6443613 0.3249037 6
2.0607922 1.6327795 0.4164286 6
2.0477388 1.6201102 0.50755197 6
3.4522645 2.7283914 1.015879 10
nan nan nan nan
1.7247654 1.3538485 -0.58751929 24
1.8862438 1.479005 -0.5533796 41
2.0154457 1.578609 -0.49762988 11
2.1768179 1.7025522 -0.43770367 32
2.1821628 1.7048919 -0.3400155 45
2.1580958 1.6842701 -0.23950398 7
2.1550963 1.6795095 -0.14319119 5
2.1491377 1.6730582 -0.047540355 7
2.1301126 1.6714219 0.047261119 7
2.111388 1.6543508 0.1405744 9
2.1055348 1.6479862 0.233926 6
2.0705338 1.6188434 0.32271007 6
2.0724232 1.6179911 0.4164286 8
nan nan nan nan
3.4005108 2.6491349 0.99518353 52
3.6961336 2.8752899 1.2547548 12
1.7341752 1.3417743 -0.58751929 19
1.8841882 1.4562668 -0.54978037 25
2.0189195 1.558149 -0.49572179 10
2.1730058 1.675254 -0.43457499 27
2.1924381 1.6884058 -0.33977175 7
2.17799 1.6748565 -0.24037553 4
2.1936953 1.685107 -0.14497061 8
2.1575928 1.6555789 -0.047470544 7
2.1435997 1.6573604 0.047296021 6
2.1134024 1.6322441 0.13994636 5
2.0949047 1.6162072 0.23148565 8
2.0883548 1.6088314 0.32368499 3
3.1810775 2.4479926 0.63574976 57
3.878824 2.98171 0.95099211 24
3.572418 2.7422056 1.0397239 52
3.3727129 2.5861037 1.1388038 28
1.7296751 1.3190914 -0.58286053 15
1.8958592 1.4442581 -0.55023032 30
2.0359983 1.5487707 -0.49724829 15
2.2003765 1.6719941 -0.43770367 6
2.2168214 1.68266 -0.34172165 7
2.2023315 1.6692396 -0.24177003 6
2.2006283 1.6661352 -0.1446566 5
2.1563389 1.6308259 -0.047191311 5
2.1312606 1.6241739 0.04677245 5
2.1167996 1.6114022 0.139423 7
2.1235816 1.6148096 0.23340309 1
2.9896247 2.2700722 0.46090987 21
3.1933696 2.422142 0.6348111 36
3.5897114 2.7198043 0.87543172 46
3.5588396 2.6925077 1.0302759 48
3.4538746 2.6102519 1.160027 30
1.7419304 1.3093053 -0.5838958 12
1.9058957 1.4309874 -0.55023032 43
2.0499029 1.5368744 -0.4980115 13
2.2199011 1.6625123 -0.43926802 13
2.2491786 1.6826013 -0.34489027 8
2.2072585 1.6494393 -0.24107277 3
2.1833935 1.6292313 -0.14277251 5
2.1724806 1.6193181 -0.047296021 6
2.1457455 1.6116571 0.046842258 5
3.0514083 2.2893972 0.19992337 30
3.0132771 2.2583239 0.3294487 32
3.0324187 2.2693655 0.46505347 12
3.2497544 2.4293592 0.6426329 27
3.847718 2.8732257 0.93343765 27
3.9488525 2.9455276 1.1373526 13
4.0948391 3.0499749 1.3681176 31
1.752581 1.2982624 -0.58441341 12
1.9048741 1.4095328 -0.54708099 26
2.0587378 1.5217184 -0.49762988 9
2.2375226 1.6520568 -0.44051951 14
2.246491 1.6562549 -0.34269661 6
2.2187207 1.6339885 -0.24107277 3
2.2105215 1.6261657 -0.14381923 5
3.668026 2.6944344 -0.07944335 27
3.1321464 2.3193612 0.068029478 28
3.0492568 2.2555101 0.19877198 16
3.0145462 2.2265787 0.32787988 21
3.0621719 2.2592788 0.4672471 11
3.2185102 2.3720241 0.63324684 19
4.2740569 3.145354 1.0315135 13
3.828006 2.814009 1.0968615 32
3.6966343 2.7144561 1.2288729 51
1.753576 1.2806069 -0.58182526 12
1.9112749 1.394238 -0.5461812 35
2.0645509 1.503841 -0.49648505 10
2.2458072 1.6340712 -0.43989375 9
2.2352316 1.6245872 -0.33928427 6
2.2233417 1.6141672 -0.24037553 4
3.3408146 2.4219034 -0.21625218 29
3.7397296 2.7081087 -0.08059521 12
3.8186221 2.7866292 0.082514979 15
3.4926322 2.5459375 0.22651003 8
3.1472094 2.291621 0.34060463 12
3.0730519 2.234345 0.46651587 16
3.2509737 2.3611066 0.63637549 34
3.8504155 2.7933891 0.92466044 38
4.0742993 2.9525514 1.1616473 13
3.8297451 2.7712557 1.2666605 15
1.7546337 1.2626915 -0.57923704 12
1.920962 1.3808608 -0.5461812 32
2.0731444 1.4886082 -0.49610341 10
2.2600882 1.6210493 -0.44051951 9
2.5692937 1.8401138 -0.38803205 8
2.9151313 2.0854926 -0.31358635 4
3.3604717 2.4014313 -0.21646154 36
3.6332054 2.5924978 -0.07790754 16
3.3099253 2.3810534 0.071170911 7
3.1368337 2.2540455 0.20243551 30
3.2440715 2.3276689 0.34932023 15
3.1172335 2.2341895 0.47090316 15
3.2669711 2.3389215 0.63637549 36
4.0407162 2.8886046 0.96549362 33
nan nan nan nan
3.7620189 2.6834228 1.2381904 45
1.7616119 1.2496009 -0.57871938 13
1.9239565 1.3632466 -0.54438156 32
2.0850892 1.4752326 -0.49648505 10
2.2778029 1.6097916 -0.44177097 11
2.5882468 1.8271606 -0.38900697 8
2.9361346 2.0696805 -0.31428361 9
3.382055 2.3813601 -0.21677555 19
3.8650384 2.7184107 -0.082480073 12
3.5385525 2.508219 0.075708538 15
3.1573832 2.2355535 0.20274951 36
3.3346658 2.3584566 0.35733855 42
3.0987024 2.1883268 0.46578467 25
3.2912898 2.3217518 0.63793981 22
4.0217681 2.8338931 0.95633471 16
9.5626459 6.7282243 2.6994128 2
3.8565269 2.7104127 1.263037 9
1.7734599 1.2394856 -0.57975465 13
1.9334267 1.3497815 -0.54438156 37
2.0905049 1.4572728 -0.4953402 9
