# .PCD v0.7 - Point Cloud Data file format
VERSION 0.7
FIELDS x y z intensity
SIZE 4 4 4 4
TYPE F F F F
COUNT 1 1 1 1
WIDTH 1427
HEIGHT 1
VIEWPOINT 0 0 0 1 0 0 0
POINTS 1427
DATA ascii
6.4712162 30.237064 3.7967179 24
6.4929128 30.235216 4.8979635 27
6.5233426 30.299631 6.0246034 49
7.7551556 35.929718 8.4860544 29
6.5155897 30.110348 8.254775 17
0.59588128 2.7192755 -0.74591655 30
0.65019351 2.9597149 -0.69959784 42
0.72980189 3.3110652 -0.65905434 23
0.82725978 3.7438991 -0.60727865 19
0.94749564 4.2774148 -0.53793132 16
1.1501775 5.1795654 -0.46419147 5
1.2230676 5.489686 -0.29475614 45
1.220463 5.4645147 -0.097733475 40
3.1176755 14.20365 0.25382781 21
2.9925437 13.599532 0.72977263 9
6.6911554 30.332098 2.7175162 59
6.6828995 30.219448 3.8001301 36
6.7071109 30.228893 4.9042211 13
6.7298617 30.256443 6.0249853 24
6.7395148 30.225166 7.149395 100
6.7279797 30.099236 8.2640924 17
0.60840803 2.6887772 -0.73866957 27
0.6694625 2.9514198 -0.69869804 57
0.74361187 3.2677345 -0.65142196 37
0.8496511 3.7246995 -0.60508859 16
0.97334909 4.2532802 -0.53573769 14
1.169827 5.0995579 -0.45774195 5
1.2612989 5.4851265 -0.29496548 37
nan nan nan nan
3.1364911 13.838858 0.24768455 27
3.0952144 13.623644 0.73218012 13
8.0685577 35.428036 3.1789186 12
6.9007678 30.203024 3.8040299 36
6.910953 30.174835 4.9029694 27
6.9246612 30.137926 6.0108652 36
8.3644028 36.316921 8.6039286 30
6.9392514 30.057178 8.265645 17
0.61883634 2.6467323 -0.72831684 33
0.68567389 2.9256828 -0.69374907 31
0.75742567 3.2242391 -0.64378959 27
0.86948276 3.6896844 -0.60039556 16
0.99480689 4.211606 -0.53135037 21
1.1920907 5.0350409 -0.45268691 5
nan nan nan nan
2.1399169 8.9893999 -0.16129515 6
3.3168538 14.174891 0.25410703 34
3.1944494 13.608924 0.73259878 19
7.1190143 30.257053 2.7194335 9
7.1196589 30.188889 3.8084173 24
7.133069 30.151522 4.9073496 13
7.1462049 30.136608 6.0204058 24
nan nan nan nan
7.1546063 30.008633 8.2661629 17
0.62914586 2.6085436 -0.71899933 56
0.70104539 2.8999887 -0.68880016 38
0.78741807 3.2473562 -0.64951384 26
0.87516242 3.6009853 -0.5869422 19
1.0284115 4.2219176 -0.53354406 13
1.2163419 4.982079 -0.44867775 5
1.5453656 6.3106217 -0.34049776 2
2.1983368 8.9567614 -0.16098098 3
3.3726575 13.962247 0.25072128 18
3.2865534 13.574645 0.73197079 16
8.5836248 35.372391 3.1844964 12
7.3355036 30.137169 3.8084173 24
7.349947 30.127855 4.9117298 13
7.3596888 30.099337 6.023077 36
nan nan nan nan
7.3745236 30.001106 8.2780685 18
0.64780641 2.605963 -0.71951699 48
0.7146771 2.8685513 -0.68250155 38
0.80189401 3.2114446 -0.643408 33
0.89869428 3.5911124 -0.58631647 28
1.0433631 4.1568742 -0.52623188 13
1.2476913 4.9599404 -0.44745758 2
1.5677782 6.2186165 -0.33610156 2
2.2211027 8.7841644 -0.15815371 9
3.4290037 13.783719 0.24792889 18
3.3986938 13.631413 0.73626232 6
7.5620451 30.23975 2.727103 10
7.5472274 30.113497 3.8118296 24
7.5587015 30.092455 4.9142327 13
7.5768356 30.075777 6.028801 24
nan nan nan nan
7.5870943 29.983925 8.2873859 18
0.66409457 2.5958781 -0.71796405 32
0.73467159 2.8655074 -0.68295145 26
0.81549281 3.1715434 -0.63653886 34
0.92176962 3.5770996 -0.58506501 27
1.0666684 4.1304555 -0.52379447 13
1.2663029 4.8893886 -0.4418796 2
1.6086453 6.1978536 -0.33557817 11
2.2481234 8.6430473 -0.15588489 3
3.5454967 13.838867 0.24936 36
3.0790331 11.992036 0.64886123 8
3.571804 13.881076 1.2539967 13
7.7652111 30.090826 3.8157294 24
7.7745371 30.061903 4.9179873 27
7.786305 30.042511 6.0326176 24
7.8074045 30.037563 7.1651416 18
7.804028 29.960136 8.2956686 36
0.67531502 2.5650239 -0.71071708 28
0.7546587 2.8603086 -0.68295145 16
0.83359867 3.1505888 -0.63348591 27
0.9376089 3.5362077 -0.57943332 36
1.0863045 4.0883741 -0.51940715 16
1.2650083 4.7475896 -0.4298521 5
1.5395492 5.7658081 -0.3127597 2
2.2753236 8.5035124 -0.153651 3
3.6328406 13.778975 0.2487317 27
3.853981 14.586751 0.79069173 3
3.630372 13.711352 1.2409234 21
7.9812083 30.058907 3.8186543 24
7.9898062 30.027891 4.9214287 13
8.0069799 30.029154 6.0410132 37
8.0154057 29.976677 7.1637917 36
8.0149994 29.912388 8.297739 18
0.69017535 2.5490592 -0.70761132 39
0.7638917 2.8154752 -0.67350352 37
0.8483578 3.1181707 -0.62814325 27
0.9575972 3.5124235 -0.57661748 31
1.1127279 4.0730309 -0.5184322 15
1.309397 4.7830672 -0.43386129 2
1.6167767 5.8897395 -0.32008675 11
2.2943306 8.3408842 -0.15099822 3
3.7608681 13.871007 0.2508609 28
3.2105551 11.816817 0.6417436 14
3.7254837 13.683752 1.2407491 15
8.2023525 30.044588 3.8240166 24
8.2143478 30.02664 4.9305019 13
8.2221231 29.993355 6.0452108 37
8.2450609 30.015385 7.1862869 54
8.2349176 29.896679 8.3091269 18
0.70847219 2.5460396 -0.70812893 27
0.78771597 2.8250906 -0.67710274 17
0.86956149 3.1123242 -0.62814325 26
0.96763539 3.4563661 -0.56848288 27
1.131477 4.0307622 -0.51404494 18
1.3368207 4.7527122 -0.43194386 7
1.6942108 6.0112424 -0.3273091 2
2.3057377 8.1591711 -0.14799641 3
3.891674 13.976082 0.25323442 34
3.2919886 11.798536 0.64195293 14
3.8520641 13.768692 1.2508591 15
8.4174013 30.026283 3.8288913 36
8.4281721 30.004259 4.9361334 27
8.4387665 29.961678 6.0505533 24
10.763715 38.139824 9.14921 35
8.4424334 29.854805 8.3132687 18
0.72260284 2.5300128 -0.70502311 28
0.79888517 2.7915604 -0.67035419 20
0.88152182 3.0722098 -0.62127411 35
0.99338096 3.4552214 -0.56942153 30
1.1500973 3.9924462 -0.51014513 21
1.3533828 4.6858397 -0.42671451 11
1.7150383 5.9263639 -0.32333156 2
2.3216791 8.0069275 -0.14551817 6
3.3727708 11.793321 0.21410613 14
3.389683 11.829027 0.64488369 8
3.8978524 13.575548 1.2356941 17
8.6344919 29.9935 3.8323038 24
8.6428967 29.963673 4.9392624 14
8.6534166 29.941265 6.0581861 37
11.124109 38.389427 9.2274923 37
8.6732769 29.87306 8.3350086 18
0.73698705 2.5137835 -0.70191729 28
0.81066519 2.7597387 -0.66405559 24
0.89962059 3.0546813 -0.6189844 31
1.0118866 3.4292564 -0.56629282 22
1.177377 3.9824162 -0.50990134 18
1.3928574 4.6991992 -0.42880625 19
1.7273749 5.8165998 -0.31799328 11
2.3820875 8.0058556 -0.1457974 6
3.5186694 11.986303 0.21805036 6
3.4456947 11.715018 0.63996416 8
4.005486 13.591962 1.2397033 13
8.8538008 29.966755 3.8366911 24
8.8642082 29.944275 4.9461455 28
8.8756342 29.925299 6.0673447 37
11.492917 38.650795 9.3093748 38
8.8716755 29.778458 8.3256922 55
0.75284928 2.503027 -0.70036435 30
0.8282252 2.7484143 -0.66270584 27
0.92035663 3.0464468 -0.61860281 35
1.0346581 3.4183271 -0.56566709 22
1.1959336 3.9437051 -0.50600159 19
1.4128807 4.6474237 -0.4249714 26
1.7522252 5.7528133 -0.31516716 5
2.4221585 7.9373913 -0.14485498 12
3.5791926 11.884859 0.21665418 18
3.6791315 12.193563 0.66749287 12
3.6436667 12.053203 1.1016486 2
9.0708532 29.930813 3.8401034 24
9.078208 29.898674 4.9489613 28
9.0934772 29.892656 6.0734506 37
9.1441669 29.984095 7.2371259 18
9.0912075 29.754595 8.3365622 55
0.75550157 2.449713 -0.68690574 34
0.85429466 2.7649083 -0.66810465 16
0.94683033 3.0568256 -0.62203735 36
1.0456175 3.3695149 -0.55878401 27
1.2228475 3.9333642 -0.50575781 16
1.4375846 4.6127191 -0.42270535 21
1.7828203 5.7099366 -0.31349242 5
2.4172168 7.727529 -0.14132959 15
3.6373036 11.779331 0.21518818 22
3.6366699 11.755444 0.64488369 11
3.6805389 11.875224 1.0877036 10
9.2948885 29.916048 3.8464406 12
9.3055048 29.89492 4.9589729 14
9.3101282 29.854681 6.0787935 50
9.3515272 29.913942 7.2357759 55
9.3125687 29.734646 8.3489857 55
0.78248411 2.4756935 -0.69570565 37
0.85651815 2.7049994 -0.65505755 12
0.96458268 3.038914 -0.61974764 36
1.0649236 3.3489559 -0.55659389 27
1.2424427 3.9001429 -0.50258923 18
1.4673282 4.5949783 -0.42200807 21
1.8019488 5.6326733 -0.30993357 2
2.4534073 7.6552401 -0.14031734 18
3.7755585 11.930957 0.21843432 25
3.7415857 11.802114 0.64886123 14
3.7132967 11.69163 1.0732358 16
9.5047331 29.854206 3.8469281 73
9.531992 29.885689 4.9683595 28
9.5314722 29.830099 6.0871892 37
12.657669 39.518867 9.5802164 41
9.5317469 29.70569 8.3593378 56
0.79558325 2.4573047 -0.69208211 31
0.85974991 2.6507583 -0.64336008 32
0.98516774 3.0302386 -0.61936599 28
1.084609 3.3301699 -0.55471671 31
1.2604065 3.863066 -0.49893317 18
1.5018466 4.5921979 -0.42270535 19
1.8144872 5.5383434 -0.30543268 10
2.454407 7.4783292 -0.13738534 11
3.8871188 11.991814 0.22003995 25
3.8115461 11.737717 0.6467678 11
3.7849619 11.635108 1.0704468 18
9.7240009 29.821093 3.8513153 73
9.7483749 29.842823 4.9724264 14
9.7559795 29.81321 6.0974927 38
12.966678 39.531372 9.6049604 41
9.7491369 29.669628 8.3681374 37
0.8072471 2.4351873 -0.68742341 37
0.8813042 2.653939 -0.64560956 46
0.99513984 2.9897563 -0.61249691 41
1.1040826 3.3112729 -0.55283946 38
1.276654 3.8221645 -0.4947896 16
1.5142612 4.5230322 -0.41730168 23
1.8423142 5.4933481 -0.30365324 2
2.4772651 7.3738136 -0.13577972 20
3.9701128 11.962485 0.22000504 21
3.8606324 11.612267 0.64132488 8
3.8805783 11.651879 1.074456 22
9.9457684 29.793909 3.8566775 61
9.963356 29.794651 4.9758677 14
9.977581 29.785332 6.1058879 38
13.25661 39.482372 9.6153088 42
9.9732771 29.652111 8.3826313 37
0.82609028 2.4349809 -0.68897635 20
0.8910321 2.6218903 -0.63931096 30
1.0083905 2.9604359 -0.60791749 27
1.1265332 3.301615 -0.55252659 35
1.2975265 3.7962534 -0.49259594 21
1.5367634 4.4859614 -0.41486132 18
1.8663585 5.4387922 -0.30135047 2
2.506582 7.2920427 -0.13459297 17
4.0606036 11.955305 0.22038898 51
3.9737794 11.679571 0.64655846 8
3.9599063 11.618844 1.073933 14
10.166361 29.76132 3.8615522 61
10.189027 29.776701 4.9846287 28
10.201194 29.761379 6.1154289 25
10.237586 29.799667 7.2744675 57
10.210219 29.669445 8.4074783 19
0.8380022 2.4145536 -0.68483526 34
0.91955316 2.6450567 -0.64650935 25
1.0219278 2.9329305 -0.60371965 36
1.1410934 3.2694247 -0.54845929 24
1.3298939 3.8039677 -0.4947896 19
1.5560659 4.4434309 -0.41189805 15
1.883117 5.365324 -0.29800096 2
2.500391 7.1121259 -0.13159114 11
4.1511884 11.947444 0.22077294 25
4.0571852 11.657205 0.64687246 20
4.041575 11.592797 1.0741073 20
10.39484 29.749588 3.8693521 49
10.414292 29.755177 4.9930758 14
10.423672 29.732042 6.1242056 38
10.420173 29.672295 7.2605205 18
10.444025 29.673983 8.4292192 38
0.85677695 2.4141064 -0.68638813 45
0.94126046 2.6477532 -0.64875889 27
1.0392338 2.9185088 -0.60219324 37
1.1633211 3.2615817 -0.54845929 24
1.3450588 3.7628126 -0.490646 22
1.5789895 4.4099498 -0.40980628 18
1.8953184 5.2847028 -0.29423279 2
2.5195413 7.0098157 -0.13002042 19
4.2170258 11.875569 0.21997014 27
4.1618738 11.700825 0.65085006 23
4.1498384 11.641245 1.0812541 18
10.625134 29.756662 3.8795891 24
10.636532 29.739405 5.0024619 14
10.643574 29.693663 6.1314569 39
10.658022 29.68503 7.2816663 57
10.687624 29.718546 8.462348 58
0.87384784 2.4100347 -0.68690574 40
0.94529164 2.6028197 -0.63931096 24
1.0703272 2.9407001 -0.60829914 27
1.1711779 3.2125509 -0.54157621 19
1.3556608 3.7125475 -0.48528376 13
1.5884393 4.3429651 -0.40457696 13
1.9129229 5.2188339 -0.29130197 2
2.5279171 6.8855023 -0.12803085 16
4.2984595 11.842082 0.21990032 19
4.2468657 11.680872 0.65137339 14
4.2337489 11.625835 1.0824744 18
10.880257 29.812294 3.8966506 37
10.858134 29.703384 5.0090318 29
10.862982 29.668463 6.1413784 26
10.896052 29.710596 7.3059607 19
10.907485 29.677664 8.4721832 59
0.89602005 2.4183676 -0.69104689 40
0.96072638 2.5888493 -0.63751131 25
1.0711653 2.8818202 -0.59761381 30
1.1999085 3.2230175 -0.54470485 26
1.3711377 3.6750948 -0.48162767 26
1.6145356 4.3205714 -0.40353107 22
1.9301968 5.1570592 -0.28858051 2
2.5471292 6.7909222 -0.12659976 19
4.4039946 11.880047 0.2211569 36
4.3102922 11.608626 0.6489659 8
4.3196788 11.609065 1.0836946 16
11.084316 29.741262 3.8971381 75
11.07872 29.678753 5.0174794 14
11.091151 29.648911 6.1532087 26
14.74139 39.343845 9.6998901 43
8.1145697 21.622814 6.1883636 25
0.90220946 2.3851089 -0.68328232 28
0.99006426 2.613229 -0.64515966 36
1.0961374 2.8871191 -0.60028511 25
1.2202753 3.2090223 -0.54376626 15
1.3974665 3.6672885 -0.48187143 22
1.634003 4.2812738 -0.40091643 25
1.9526029 5.1080117 -0.28659174 2
2.5708711 6.7113509 -0.1254479 18
4.4868202 11.849014 0.2211569 25
4.411057 11.630544 0.65189672 17
4.3985934 11.579394 1.0836946 22
11.315691 29.726233 3.9054253 62
11.300426 29.639448 5.0240498 14
11.314 29.612934 6.1619864 26
4.2205496 11.02942 2.7264071 14
8.0751905 21.069567 6.0460129 23
0.91228974 2.3605719 -0.67810595 28
1.0052216 2.5969908 -0.64291012 30
1.1148473 2.8757355 -0.59952188 25
1.2346221 3.1781127 -0.54001182 16
1.4179964 3.6444931 -0.48016527 22
1.677597 4.3050337 -0.4042283 18
1.972396 5.0511184 -0.28418428 14
2.5768752 6.5889487 -0.12349322 15
nan nan nan nan
4.61973 11.922729 0.67010969 9
4.4842243 11.555052 1.0843917 25
11.545956 29.705717 3.9132249 75
11.535172 29.616726 5.0340614 29
4.325078 11.087534 2.3133683 25
4.1669631 10.665702 2.643625 70
8.0370131 20.529135 5.9072862 22
0.92874628 2.3541458 -0.67810595 30
1.0133007 2.5645368 -0.63661152 34
1.1260016 2.8439541 -0.59456086 28
1.2305676 3.1033094 -0.52874857 19
1.4397434 3.6252794 -0.47894657 23
1.6943566 4.2598934 -0.40109071 14
1.9661996 4.9333272 -0.27832264 7
2.5805535 6.4649386 -0.12150366 28
3.8055155 9.6362019 0.18084183 5
4.6742043 11.817754 0.66602743 15
4.5889988 11.584592 1.090144 21
13.834504 34.853065 4.6042242 15
11.762088 29.586874 5.0428219 14
4.384223 11.01147 2.303828 23
4.1186152 10.328628 2.5671415 42
8.0059547 20.036598 5.7815003 28
0.94155121 2.3386443 -0.67551774 31
1.0289935 2.5519781 -0.63526183 23
1.1379811 2.8180199 -0.59074467 31
1.2790645 3.1626196 -0.54032475 13
1.4419054 3.5581071 -0.47139066 27
1.7143143 4.2239604 -0.39882466 14
2.0275631 4.9882884 -0.28219551 7
2.5901768 6.3597212 -0.11986313 21
3.8710191 9.610076 0.18084183 3
4.707468 11.668971 0.65943313 3
4.6914167 11.60584 1.0951991 17
14.072167 34.75993 4.6044679 15
4.4941816 11.084476 1.8944216 21
4.4506402 10.955131 2.2984853 27
4.1502242 10.200347 2.542397 18
4.2055717 10.320896 2.9862542 32
0.96111757 2.3411164 -0.67810595 60
1.0344851 2.5160766 -0.62806338 22
1.1479052 2.7864084 -0.58578366 27
1.290565 3.1280477 -0.53594452 15
1.4600251 3.5335333 -0.46944076 27
1.7147983 4.1419377 -0.39220083 21
2.0906394 5.0422759 -0.28606835 16
2.6380038 6.3530245 -0.12007255 15
4.0763521 9.919446 0.18719451 5
4.8534241 11.792816 0.66833019 9
4.8120646 11.674951 1.1047862 19
8.889822 21.525644 2.8595424 48
8.8809319 21.472246 3.6802776 47
4.2583981 10.280677 2.1630108 35
4.2168579 10.160323 2.5396976 16
4.2486105 10.22171 2.9660666 42
0.97370642 2.3254402 -0.67551774 65
1.0482563 2.4998081 -0.62581384 34
1.1597265 2.7602262 -0.58196747 40
1.3070102 3.106216 -0.53375447 17
1.4885141 3.5324001 -0.47065943 17
1.7273985 4.0913196 -0.3885403 22
2.105567 4.9797287 -0.28334689 19
2.6464243 6.2497478 -0.11846693 17
4.1972933 10.014312 0.18953314 12
5.077095 12.095659 0.68748522 9
4.8617988 11.565766 1.0976394 21
9.0452671 21.475868 2.8612487 80
4.5026374 10.674831 1.8349764 21
4.3483973 10.294105 2.1721697 15
4.2178087 9.9655313 2.4983068 22
nan nan nan nan
0.98309034 2.3025954 -0.67085898 30
1.0710456 2.504972 -0.62896323 27
1.1812863 2.757477 -0.58311236 38
1.3224317 3.0824933 -0.53125149 19
1.5115697 3.5182753 -0.47017199 16
1.767019 4.1069198 -0.39115497 23
2.1339576 4.9502339 -0.28250951 21
2.6701798 6.1852212 -0.11759432 5
4.4116936 10.323109 0.19595562 8
5.2564955 12.282098 0.70015049 6
4.9620466 11.577326 1.1019973 12
nan nan nan nan
4.5731502 10.634064 1.8334121 24
4.4846115 10.413157 2.2038438 14
4.4213672 10.251528 2.5774894 18
4.0828567 9.4485025 2.7579758 33
0.99605668 2.2885911 -0.66878843 45
1.0729351 2.4617047 -0.61996514 27
1.1992431 2.7475729 -0.58273071 28
1.3386359 3.0625598 -0.5293743 19
1.5321134 3.4985449 -0.46895328 15
1.8060502 4.1182036 -0.39342102 17
2.1362801 4.8642769 -0.2784273 28
2.6794674 6.0895562 -0.11612831 15
4.3062291 9.8894835 0.18827656 12
5.408637 12.403478 0.70915228 3
5.1081576 11.692113 1.1162907 14
9.3818865 21.443682 2.8739231 8
4.6478062 10.608117 1.8343508 13
4.3591294 9.930377 2.108058 24
4.1736488 9.4943314 2.3943791 6
4.0980396 9.3091011 2.7253647 24
1.0100467 2.2782257 -0.66775316 34
1.0959927 2.4685931 -0.62356436 28
1.2167984 2.7355466 -0.58196747 27
1.3398883 3.008029 -0.52155256 24
1.5526571 3.4807835 -0.46797833 26
1.832415 4.1021762 -0.3930724 21
2.1677394 4.8437748 -0.27811331 28
2.7077706 6.0419793 -0.11556984 17
3.8625398 8.7040071 0.16621672 1
5.2915158 11.907302 0.68287963 15
5.2791624 11.862763 1.1359879 13
4.6820164 10.50118 1.4117346 21
4.6919537 10.508671 1.8227745 30
4.5644536 10.208745 2.173696 35
nan nan nan nan
4.5377121 10.115753 2.9707251 30
1.0354706 2.2922454 -0.6739648 34
1.1067746 2.4466772 -0.61996514 31
1.2321515 2.720047 -0.580441 27
1.3717583 3.024024 -0.52593273 15
1.5678853 3.4499795 -0.46529719 16
1.849455 4.0638962 -0.39063203 21
2.1915488 4.8089156 -0.27696192 28
2.7108507 5.9374318 -0.11392931 17
4.236289 9.3736105 0.17955035 7
5.3296223 11.776389 0.67743665 15
5.2754574 11.635091 1.1176852 19
4.700038 10.351582 1.3958915 39
4.7944398 10.544827 1.8346636 10
4.698278 10.314201 2.2030807 32
4.6842699 10.269194 2.6058333 24
4.6008439 10.07233 2.9671018 30
1.0381322 2.2570627 -0.66568261 45
1.1234018 2.4390876 -0.61996514 41
1.2387713 2.6846399 -0.57471669 22
1.3936636 3.0161672 -0.52624559 24
1.5936004 3.4425526 -0.46578467 20
1.8802952 4.0563083 -0.39115497 19
2.2048862 4.7500205 -0.2744498 27
2.716821 5.8422065 -0.11246331 15
4.2874098 9.3129282 0.17895699 10
5.5546923 12.049053 0.69533557 9
4.9044299 10.623892 1.0237314 16
4.7738628 10.322119 1.396379 40
4.6761823 10.097033 1.762391 25
4.7214141 10.176079 2.1805654 33
4.9947848 10.750529 2.7367547 50
nan nan nan nan
1.0501578 2.2408297 -0.6630944 40
1.1399989 2.4292223 -0.61951524 38
1.2508036 2.6617112 -0.57166374 31
1.4059559 2.9864576 -0.52280408 28
1.6243652 3.4457088 -0.46773461 20
1.8907048 4.0052471 -0.38749442 20
2.2294273 4.7142596 -0.27329838 24
2.7549734 5.8176756 -0.11235859 17
4.2343202 9.0311031 0.17410521 9
5.6611505 12.052383 0.69784772 9
5.0252709 10.684079 1.0329698 45
4.8931761 10.389109 1.4100285 30
4.6901469 9.9400463 1.7408029 7
4.7755723 10.107366 2.1729329 13
4.8396959 10.229211 2.6125817 12
4.4142842 9.3132467 2.7615993 20
1.0649443 2.2317002 -0.66257679 37
1.1644931 2.4370286 -0.62356436 39
1.2757522 2.6650887 -0.5743351 40
1.4131097 2.9480686 -0.51779813 26
1.6492401 3.4360738 -0.46797833 13
1.9168944 3.9883583 -0.38714582 20
2.2362895 4.6445956 -0.27015823 24
2.7164903 5.6343861 -0.10918226 16
4.3677835 9.1449261 0.1768976 12
5.7279139 11.976535 0.69575429 18
5.1763234 10.808667 1.0484836 4
4.9167318 10.248231 1.3956479 17
4.6713262 9.7236605 1.7085775 7
3.4272778 7.124536 1.5367758 39
4.855175 10.0793 2.5828881 18
4.4783559 9.2804623 2.7610817 2
1.0804985 2.2242112 -0.66257679 42
1.1678382 2.4008017 -0.61636597 29
1.2895647 2.6475179 -0.57242703 30
1.4340098 2.9401569 -0.51811105 32
1.6496607 3.3763189 -0.46139738 17
1.9298083 3.944453 -0.38418248 22
2.2494025 4.5915995 -0.26796013 22
2.7249246 5.5524526 -0.10796059 4
4.3433948 8.9369297 0.17344202 9
5.7455029 11.806169 0.68811321 3
5.1407728 10.544822 1.0263461 5
4.885354 10.007597 1.3673741 14
4.8553801 9.9330006 1.7511276 3
3.6582439 7.4707103 1.6169155 25
4.855926 9.9034338 2.5464461 22
7.7001553 15.683329 4.681519 24
1.0990371 2.2237325 -0.66464734 60
1.184153 2.3927968 -0.61636597 29
1.3097605 2.6419685 -0.57319027 31
1.4492309 2.9194579 -0.5162338 25
1.6681849 3.3561246 -0.4601787 20
1.9457523 3.9076998 -0.38191649 28
2.2912037 4.5954466 -0.26911151 20
2.7340736 5.4765239 -0.10684364 19
4.5156221 9.1286449 0.17777021 14
5.1159339 10.328606 0.60406166 25
5.0707879 10.223998 0.99845618 3
5.1317539 10.3288 1.416122 17
4.8911724 9.8316545 1.7392386 3
3.6100924 7.2470627 1.5737926 21
3.6554244 7.3252468 1.8900388 14
4.5782552 9.1625338 2.7445171 15
1.1084577 2.2039251 -0.66102386 63
1.1990747 2.380991 -0.61546612 27
1.3113718 2.5994561 -0.56593949 37
1.4784838 2.9269011 -0.51936251 28
1.6844068 3.3302255 -0.45822877 24
1.966682 3.8815792 -0.38069627 22
2.3132904 4.5597463 -0.26796013 27
2.7975991 5.5072231 -0.10782097 19
4.4335842 8.8075399 0.17211564 14
5.1231909 10.164226 0.59652531 20
5.219244 10.341316 1.0134469 20
5.0326676 9.9543552 1.3695679 13
5.5190945 10.902302 1.9354074 3
3.4857347 6.8767095 1.498614 7
4.7449231 9.3446732 2.4195738 22
4.9073992 9.652132 2.9013617 22
1.1202978 2.1892531 -0.65895331 58
1.2138919 2.3690927 -0.61456633 46
1.3330722 2.597225 -0.56746602 30
1.4880449 2.8954256 -0.51560807 25
1.7076135 3.3183856 -0.45822877 23
1.9763882 3.8341072 -0.37738436 28
2.3267462 4.5079894 -0.2658667 15
2.8121083 5.4413695 -0.10691345 16
4.5478358 8.8796043 0.17414011 13
5.2031398 10.145983 0.59757197 20
5.1538877 10.036998 0.98712587 1
4.9821844 9.6859646 1.3373944 15
4.9185262 9.5499105 1.7013814 10
nan nan nan nan
4.8878622 9.4619465 2.4587152 32
4.7980475 9.2761688 2.7983515 53
1.1310941 2.1728108 -0.6563651 42
1.2349054 2.3692007 -0.61681581 24
1.3475384 2.580893 -0.56593949 36
1.5100542 2.8884668 -0.5162338 23
1.7215341 3.2887957 -0.45579138 24
1.9910773 3.7972775 -0.37511832 16
2.3460898 4.468648 -0.26450595 18
2.8211801 5.3667345 -0.10583139 16
4.5071507 8.6507893 0.17026567 11
5.3200297 10.197953 0.60280561 5
5.3889475 10.316885 1.0183277 15
3.5514357 6.787498 0.9405877 17
3.7484338 7.1548781 1.2793212 7
3.6862891 7.0273061 1.5425 21
3.681128 7.0055742 1.8270527 27
5.0551791 9.6083174 2.9091263 20
1.1390029 2.1512036 -0.65222406 37
1.2395481 2.3381395 -0.6109671 37
1.3581572 2.5575509 -0.56288654 30
1.5209088 2.8604128 -0.51310509 11
1.7397879 3.2679355 -0.45457271 35
2.0100405 3.7692194 -0.3737238 16
2.3631206 4.4257317 -0.26293588 9
2.8425534 5.3169274 -0.10523801 19
4.4429026 8.3841105 0.16562334 9
5.2516136 9.8976831 0.58720946 25
5.384192 10.134733 1.0040342 3
5.5188637 10.370748 1.4424456 17
5.097826 9.5674753 1.7170249 18
3.5356481 6.627254 1.4600705 33
3.5875819 6.7133031 1.7573178 10
nan nan nan nan
1.1466665 2.1295919 -0.64808291 37
1.256766 2.3311443 -0.611417 33
1.3722466 2.5410979 -0.56136012 27
1.5314445 2.8323495 -0.50997645 33
1.7493274 3.2312713 -0.45116034 24
2.0410545 3.7638521 -0.37459537 18
2.4006317 4.4214125 -0.26366857 6
2.8652771 5.2706008 -0.10471445 26
4.4766655 8.3071165 0.16471581 9
5.4135332 10.033032 0.5974673 11
5.362011 9.925107 0.98695159 5
3.7100995 6.8559699 0.9571619 30
5.107091 9.4257059 1.6979399 4
3.6239569 6.6800642 1.4772433 27
3.6501796 6.7172017 1.764966 17
5.2368507 9.6250401 2.9360435 62
1.1726385 2.1418688 -0.65429455 37
1.265516 2.3086429 -0.60781777 30
1.3720001 2.4987586 -0.55410933 34
1.5445192 2.8094718 -0.50778633 26
1.7862018 3.2450655 -0.45481643 16
2.0425832 3.7062492 -0.37023759 16
2.4150314 4.3748207 -0.26188916 15
2.87395 5.1997137 -0.1037022 18
4.3750358 7.9845514 0.15892163 13
5.5391588 10.096559 0.60353833 23
3.7582674 6.8419232 0.6829524 8
3.7243834 6.7690272 0.94863105 21
5.2795281 9.5836029 1.7329811 21
3.6562843 6.6288133 1.471519 10
3.7353857 6.7638474 1.783862 38
4.9289374 8.9103765 2.7284706 18
1.1866233 2.1319418 -0.65377688 33
1.2891917 2.3133698 -0.611417 33
1.395673 2.5013628 -0.5567807 22
1.5568631 2.7868218 -0.50559622 23
1.8126906 3.2394459 -0.45579138 27
2.0606177 3.6779938 -0.36884311 20
2.4369371 4.3443456 -0.26105177 10
2.9297688 5.2143917 -0.1044003 22
4.2969785 7.716979 0.15417457 9
5.6943135 10.21388 0.61285412 8
5.4544053 9.767518 0.97875899 10
3.8643377 6.9115891 0.97227371 28
5.3214779 9.5060797 1.7254723 12
3.7130349 6.6219625 1.4757168 23
3.6613605 6.5217977 1.7267245 17
5.2034073 9.2572117 2.8454566 25
1.2011075 2.1238153 -0.65377688 48
1.2885849 2.2757127 -0.60376865 31
1.406322 2.4796042 -0.55410933 27
1.5782316 2.7793205 -0.50622195 23
1.8219442 3.2045979 -0.45262277 26
2.0852604 3.6617858 -0.36866876 18
2.4503896 4.2977309 -0.25927237 6
2.9523091 5.171751 -0.10394654 20
4.1035099 7.2499857 0.14541346 16
5.5449057 9.7846441 0.58940756 8
3.7145977 6.5468478 0.65854877 5
3.7673342 6.6290154 0.93620038 7
5.2528977 9.2317648 1.6822965 1
3.6559792 6.4174228 1.4356469 20
3.7647476 6.5976338 1.7537186 36
5.2535295 9.1955013 2.8376923 8
1.2149417 2.1137042 -0.65325934 47
1.301524 2.261595 -0.60241896 33
1.4383054 2.4952395 -0.55983365 27
1.6054957 2.7819216 -0.50872493 23
1.8234162 3.1557057 -0.44750425 31
2.1077776 3.6419661 -0.36814582 16
2.4402778 4.2113957 -0.25508547 19
2.9702775 5.1198807 -0.10331824 27
4.092206 7.1136909 0.14324935 27
5.746654 9.9776125 0.60343367 2
5.4362803 9.4273109 0.95208931 17
2.5744476 4.4572835 0.63201445 11
5.2984352 9.1623735 1.6763519 3
3.6692169 6.3373723 1.4234352 5
3.7481492 6.4632993 1.7249248 12
5.398109 9.297266 2.880656 38
1.2345415 2.1135108 -0.65584749 46
1.3261362 2.2675927 -0.60646808 29
1.4388201 2.4563396 -0.5533461 27
1.609887 2.7450867 -0.5040319 22
1.8454013 3.1429 -0.44750425 23
2.1129518 3.5928147 -0.36465961 20
2.470633 4.1959782 -0.25519016 10
2.9734523 5.0438952 -0.1022013 20
4.1296587 7.0642323 0.14283049 21
5.7939758 9.8993292 0.6011309 2
2.5585837 4.3662367 0.44275117 1
2.5773697 4.3912644 0.62518978 12
3.9041071 6.6437593 1.2205019 17
4.0010786 6.8006258 1.5337228 25
3.7991161 6.4470482 1.7276242 40
3.841198 6.5106649 2.0255179 9
1.2443365 2.0965343 -0.65325934 47
1.3479078 2.2683311 -0.60916752 22
1.471999 2.473228 -0.559452 31
1.6259786 2.7286899 -0.5030933 22
1.8683164 3.1316438 -0.44774801 19
2.1195872 3.5471902 -0.36152202 33
2.4844854 4.1529179 -0.25362006 4
3.0044825 5.0161514 -0.10206167 22
4.1410871 6.9716191 0.14153902 29
4.2744431 7.1875544 0.43826136 5
2.5849242 4.3414211 0.44205391 12
2.5367913 4.2538185 0.60812807 16
4.0010271 6.7011447 1.2361453 15
4.091774 6.8449879 1.5501324 31
3.8610504 6.448792 1.7352725 34
5.953495 9.9318256 3.1027229 5
1.2449756 2.0646355 -0.64601237 26
1.3546453 2.2438514 -0.60511833 16
1.4851674 2.4561703 -0.55792552 32
1.633737 2.698683 -0.49965176 30
1.8767579 3.0964553 -0.44457942 26
2.1380949 3.5220885 -0.36047614 26
2.4957814 4.1064582 -0.25184065 8
3.0175998 4.9591799 -0.10132867 22
4.1462622 6.8706307 0.14007302 27
2.6337521 4.3591409 0.26691341 19
2.4419255 4.0368705 0.41276959 15
2.5489397 4.2071419 0.60398453 23
6.2626338 10.324563 1.912568 13
3.7359092 6.1517453 1.3990116 15
3.9505363 6.4949369 1.7550683 19
4.2000051 6.8969445 2.1637273 27
1.2613772 2.0591884 -0.64704764 33
1.3743525 2.2409844 -0.60691798 27
1.4858378 2.4189763 -0.55181968 27
1.6442595 2.6737502 -0.49714881 28
1.9066556 3.0968008 -0.44652933 26
2.1605415 3.5036829 -0.36012751 29
2.510751 4.0668397 -0.25047991 12
3.0605593 4.9516006 -0.10160792 18
4.200398 6.8517456 0.14028244 21
2.5909877 4.2214918 0.25958636 9
2.3281894 3.7888601 0.38906324 13
2.534548 4.1182418 0.5937475 11
4.3066273 6.9893904 1.3002834 22
3.8241165 6.1990361 1.4158028 23
3.9097421 6.3279409 1.7172765 23
4.2551665 6.8789558 2.1673508 9
1.2747018 2.048692 -0.64653003 36
1.381721 2.2181025 -0.60331875 46
1.4964528 2.398551 -0.54952991 24
1.6618378 2.660531 -0.49683592 25
1.9071765 3.0497534 -0.44165453 19
2.1775458 3.4766943 -0.35890734 22
2.5061896 3.9967573 -0.24723509 20
3.0918634 4.9250321 -0.1015032 22
4.2587037 6.8392277 0.1406315 3
2.4418309 3.9168653 0.24189681 16
2.352474 3.7691336 0.38871458 17
2.534827 4.0549989 0.58716655 13
4.2934875 6.8603597 1.2818241 84
3.9225507 6.2603593 1.4360286 15
3.9983623 6.3714714 1.7366222 17
5.4829116 8.7269783 2.7615993 27
1.2910364 2.0430095 -0.64756525 31
1.3867549 2.1919332 -0.59881973 24
1.4753324 2.3283441 -0.5357917 24
1.6750804 2.6405244 -0.49527156 22
1.9188432 3.0212831 -0.4394609 22
2.1974859 3.4546843 -0.35821009 22
2.5050626 3.9336786 -0.24440894 16
3.1100433 4.8780355 -0.10097963 22
2.6763675 4.2319603 0.087401658 10
2.4872773 3.9284105 0.24367623 12
2.3744619 3.7458885 0.38801736 26
2.5928669 4.0841269 0.59399122 22
nan nan nan nan
3.9398108 6.1914134 1.4264882 52
4.0856872 6.41078 1.7550683 19
nan nan nan nan
1.2969216 2.0209391 -0.64342415 28
1.397809 2.1756408 -0.59702015 38
1.5127984 2.3510075 -0.54342401 15
1.6934741 2.6287658 -0.49527156 18
1.9345109 2.9994717 -0.4382422 15
2.1842065 3.3827364 -0.35228351 21
2.5584934 3.9563453 -0.24692108 16
3.1266341 4.8293471 -0.10042115 6
2.5610449 3.9877071 0.082724407 15
2.3817811 3.7043152 0.2308016 15
2.333693 3.6253514 0.37721002 16
2.584743 4.009201 0.58570409 13
4.1896057 6.4910421 1.2236305 3
4.1086683 6.3583355 1.471519 7
nan nan nan nan
6.004457 9.2672815 2.9588194 26
1.3088895 2.0085988 -0.64238888 35
1.421482 2.1788864 -0.60061932 16
1.5502378 2.3735301 -0.55105644 27
1.7318685 2.6485903 -0.50121611 23
1.9749782 3.0157859 -0.44262949 19
2.2055826 3.364074 -0.35193488 19
2.5437176 3.8753893 -0.24294353 18
2.6681647 4.0588021 -0.084783792 5
2.5378954 3.8931241 0.081118785 9
2.4375048 3.7348487 0.2337324 16
2.3349643 3.5722814 0.37337521 22
2.6021905 3.9765649 0.58351046 23
6.401957 9.772048 1.8503071 1
4.1648045 6.3475518 1.4757168 5
4.0955863 6.2349377 1.7222253 23
5.7850418 8.7968483 2.8211277 42
1.3267931 2.0060887 -0.64445943 35
1.4330517 2.1642861 -0.59926963 42
1.559175 2.3511963 -0.54838508 23
1.7535946 2.6413722 -0.50215465 18
1.9910649 2.9956598 -0.44165453 17
2.2433667 3.3701549 -0.35420093 15
2.5485594 3.824296 -0.24085009 16
2.6013944 3.8991537 -0.081816882 19
2.4248421 3.6635363 0.076685868 10
2.4072545 3.6328306 0.22839414 19
2.37795 3.5845292 0.37633851 31
2.5573854 3.849175 0.5674237 17
6.2796636 9.4409275 1.7958679 1
4.2057385 6.3157883 1.4749537 15
4.1617208 6.2402401 1.7316734 40
6.8396516 10.244005 3.3004606 18
1.338613 1.9935688 -0.64342415 28
1.4187737 2.1105616 -0.58712232 30
1.5722611 2.3353686 -0.5472402 29
1.7554303 2.6044958 -0.49746165 22
2.0163703 2.9882696 -0.44262949 15
2.2445285 3.3213954 -0.35071471 35
2.5304294 3.7402408 -0.23666322 12
2.5736039 3.7997694 -0.080106542 8
2.4035156 3.5768082 0.075219877 31
2.3612087 3.5098774 0.22169513 22
2.3706403 3.5199168 0.37128347 15
2.5409033 3.7670443 0.55791789 23
6.3896394 9.4623404 1.8083826 19
4.2277374 6.2537432 1.4673213 24
4.1636682 6.1497135 1.714577 25
6.2064605 9.1565762 2.9639959 26
1.349234 1.9793861 -0.64187121 33
1.4642299 2.1456757 -0.59971952 34
1.5863125 2.3210931 -0.54647696 33
1.7657635 2.5807643 -0.49527156 27
2.0203576 2.9495533 -0.43897343 27
2.2873669 3.3356175 -0.35385233 14
2.5689154 3.7405956 -0.23781461 14
2.5604141 3.7240376 -0.078884877 14
2.480263 3.6359322 0.0768255 15
2.385653 3.4933088 0.22169513 30
2.3951545 3.5032821 0.37128347 26
2.5189154 3.6787829 0.54743713 13
6.5560622 9.5641403 1.8365408 4
4.2835135 6.2418818 1.471519 10
4.2109494 6.1292615 1.7168266 55
6.3611236 9.24512 3.0069599 22
1.3509277 1.9524442 -0.63617724 43
1.4691861 2.1209843 -0.59567046 41
1.5785795 2.2763629 -0.538463 42
1.7877941 2.575177 -0.49652308 25
2.052232 2.9516749 -0.44141081 16
2.2821426 3.2786858 -0.34949452 10
2.5623469 3.6771395 -0.2348838 22
2.5794861 3.6962318 -0.078675449 3
2.4867465 3.5926561 0.076267019 12
2.3763881 3.4293807 0.21865964 27
2.3536692 3.3915384 0.36117339 22
2.5801404 3.7137213 0.55523676 15
3.190944 4.5877481 0.88510633 3
nan nan nan nan
4.5267315 6.4913383 1.8270527 31
6.2414351 8.9402447 2.9215493 34
1.3519771 1.9258103 -0.63048321 27
1.4936749 2.1252832 -0.59971952 33
1.6102532 2.2877631 -0.54380566 30
1.7977639 2.5513294 -0.49433297 22
2.0459564 2.9003301 -0.43580481 17
2.293479 3.246402 -0.34775141 4
2.5706546 3.6347027 -0.23331371 20
3.25053 4.5908923 -0.098187245 6
2.4646344 3.5081227 0.074835919 32
2.3830352 3.3882031 0.21708956 17
2.3652294 3.3591478 0.35943025 15
2.5499504 3.6161237 0.5432936 13
2.9437821 4.1699853 0.80845338 18
4.58672 6.4900575 1.5447898 11
4.499887 6.3577766 1.7982589 23
nan nan nan nan
1.379961 1.9367788 -0.63721251 36
1.4994217 2.1021123 -0.5961203 33
1.6216209 2.2700758 -0.54227924 41
1.8109367 2.5322886 -0.49308151 22
2.0522892 2.866606 -0.43287995 19
2.3079605 3.218977 -0.34653121 11
2.5994608 3.6215353 -0.23362774 22
2.5765245 3.5856161 -0.077069834 9
2.4112821 3.3817422 0.072497301 22
2.381103 3.3357208 0.21478678 16
2.4117913 3.3749743 0.3629165 17
2.5635791 3.582092 0.54085618 11
3.015388 4.2087474 0.82002956 13
4.3355541 6.0446906 1.4459506 24
7.6751728 10.685065 3.0372894 22
6.321671 8.7910576 2.9013617 26
1.3696775 1.8942227 -0.62634212 40
1.5072044 2.0821218 -0.59342092 34
1.643191 2.2666469 -0.54418731 28
1.8250892 2.5147886 -0.49214289 18
2.0815847 2.865057 -0.43482983 19
2.3092771 3.1737869 -0.34339362 17
2.6164508 3.5919974 -0.23289503 20
2.8430295 3.8987651 -0.084225312 14
2.491102 3.4425879 0.074172728 15
2.3844135 3.2915194 0.21300736 16
2.4002037 3.3096678 0.35768715 11
2.5721927 3.541621 0.53744388 12
2.9157536 4.0102482 0.78530115 10
4.4319506 6.0888786 1.4638867 27
7.6531568 10.498942 2.9994977 38
nan nan nan nan
1.4045827 1.9142077 -0.63617724 36
1.5228573 2.0731192 -0.59387082 29
1.6601385 2.2567012 -0.5445689 25
1.844944 2.505167 -0.49276862 26
2.0885782 2.8328795 -0.43214872 13
2.3301945 3.1559849 -0.34321931 17
2.6616459 3.6009476 -0.23467445 18
2.828547 3.8225603 -0.08300364 15
2.507972 3.4154429 0.073963299 18
2.3990541 3.2635286 0.21227466 20
2.40908 3.2735746 0.35559544 35
2.5992107 3.5267732 0.53793132 12
2.8475113 3.8594506 0.75964588 27
4.7741184 6.4636426 1.5619626 33
nan nan nan nan
3.5558705 4.8019795 1.6010547 15
1.3763777 1.8485732 -0.61754227 35
1.5372924 2.062438 -0.59387082 36
1.6770272 2.2466297 -0.54495054 29
1.841104 2.4637432 -0.48713696 27
2.0904679 2.7943866 -0.42849267 15
2.3337076 3.1161294 -0.34060463 14
2.633991 3.5119762 -0.23006889 22
2.8791759 3.8347039 -0.083701737 10
2.5377307 3.4058673 0.074137822 12
2.3632648 3.1682544 0.20714574 23
2.4688299 3.3061647 0.36099908 8
2.5904799 3.4640303 0.53110665 16
2.91819 3.897985 0.771222 12
4.8426781 6.4615736 1.569595 16
4.6301274 6.1712322 1.7811625 6
3.5707405 4.7523265 1.5927725 7
1.3706183 1.8142557 -0.60926002 61
1.5504789 2.0501003 -0.59342092 23
1.6804299 2.2195101 -0.54113436 45
1.8447063 2.4338372 -0.48369545 26
2.1039231 2.7718194 -0.42727396 16
2.3325009 3.0696213 -0.3372927 16
2.6384864 3.4685333 -0.22839414 22
2.5774815 3.3834293 -0.07424254 12
2.3872364 3.1587863 0.069111533 15
2.3956194 3.1664307 0.20808777 15
2.4088295 3.1792729 0.34897158 35
2.543222 3.3530014 0.51672608 22
3.1118951 4.0982857 0.8150236 16
4.5157146 5.938467 1.4501485 16
4.6872592 6.1573668 1.7865614 2
nan nan nan nan
1.3958597 1.821753 -0.61495411 33
1.5537223 2.0255835 -0.5893718 49
1.6994722 2.2123952 -0.54227924 41
1.8496109 2.4052401 -0.48056671 26
2.1263754 2.762152 -0.42800516 28
2.3448291 3.0426254 -0.33607253 14
2.6907051 3.4863935 -0.2308016 18
2.5747781 3.3325758 -0.073509537 18
2.4323494 3.1721938 0.069774717 15
2.4128025 3.1432917 0.20766909 26
2.4012771 3.1248882 0.3447881 21
2.5423541 3.3037019 0.51185131 17
2.949954 3.8292143 0.76559031 37
4.7886262 6.2091928 1.5241823 33
4.7457323 6.1469164 1.79286 19
7.2671242 9.3991709 3.1834743 1
1.4286999 1.8378924 -0.62375391 22
1.5642352 2.0100734 -0.58802211 38
1.7132845 2.199228 -0.54189759 37
1.872013 2.4003839 -0.48213109 22
2.1236122 2.7190797 -0.42361787 15
2.3512859 3.0073471 -0.3339808 14
2.6996017 3.4491241 -0.22954552 18
2.5412347 3.2421224 -0.071903922 13
2.4894848 3.2013426 0.07078696 25
2.4439576 3.1394033 0.20850646 5
2.394861 3.0719068 0.34077895 18
2.5293658 3.2409363 0.50478286 25
2.9868975 3.8230538 0.76840615 16
4.9504166 6.3271403 1.5615808 27
7.3720589 9.4120798 2.7601495 2
7.2427244 9.236989 3.145169 1
1.4391034 1.8248395 -0.62271863 42
1.5830601 2.0052223 -0.5898217 25
1.7253251 2.1822913 -0.54075271 30
1.8719789 2.3652413 -0.47775093 16
2.1400776 2.7010763 -0.42313039 37
2.3752244 2.9935653 -0.33432943 26
2.6658289 3.3562129 -0.22462595 9
2.8450792 3.5780361 -0.079792403 28
2.4726868 3.1332142 0.069670007 28
2.4168346 3.0591471 0.2043196 12
2.3952363 3.0285478 0.33781564 18
2.5685148 3.2429833 0.5079515 28
2.9785874 3.7566938 0.75933295 12
4.9749417 6.2678194 1.555475 23
7.3531227 9.2507763 2.7282064 2
7.2460833 9.1063213 3.118252 3
1.4481877 1.8102226 -0.62116575 47
1.5933661 1.9895583 -0.58847201 41
1.7417465 2.1717248 -0.54113436 34
1.9045229 2.3721395 -0.4818182 20
2.1439595 2.6675026 -0.42020553 27
2.3935654 2.9738071 -0.3339808 14
2.7054839 3.3577394 -0.22598669 18
2.8436229 3.5254021 -0.0790594 14
nan nan nan nan
2.4893434 3.1060987 0.20861115 18
2.4050999 2.9977655 0.33624685 25
2.5724425 3.2017601 0.50429535 25
2.9762664 3.7004046 0.75213701 16
5.1724849 6.4240823 1.6031773 5
7.3563704 9.1233625 2.7057116 2
7.3264723 9.0765543 3.1254988 1
1.4632246 1.8030683 -0.62220097 39
1.6084458 1.9798985 -0.5889219 38
1.7556276 2.1579883 -0.54075271 42
1.9073167 2.3419361 -0.47837666 28
2.16504 2.6555462 -0.42069301 17
2.3923371 2.9312041 -0.33101749 16
2.7351789 3.3465016 -0.22651003 22
2.6414983 3.2284319 -0.072811447 19
2.5262778 3.1108029 0.069949247 23
2.5676627 3.1583827 0.21332137 5
2.4800479 3.0473502 0.34374225 14
2.6010015 3.1914184 0.50551409 16
2.8359404 3.4759693 0.71052545 22
5.3041372 6.4942565 1.6298906 15
7.4318643 9.0896759 2.7106602 4
3.5699966 4.3601298 1.5099503 8
1.4708658 1.7868433 -0.62013048 47
1.6110753 1.955086 -0.58487278 31
1.777771 2.1550758 -0.54304242 45
1.9194388 2.3243306 -0.47743803 25
2.1721394 2.6265996 -0.41849938 13
2.4038472 2.9036891 -0.32979733 14
2.7387781 3.3047395 -0.22493997 16
2.7482607 3.3114707 -0.075115159 16
2.4901917 3.0240693 0.06837853 18
2.4341114 2.9528134 0.20055141 27
2.5228229 3.0560832 0.34670553 9
2.6100209 3.1583369 0.50307667 15
2.8658321 3.4641938 0.71208972 15
7.5411873 9.102787 2.2977221 4
7.5237541 9.0720711 2.7210081 10
7.4151316 8.9315748 3.1104875 33
1.476805 1.7693744 -0.61754227 29
1.6168489 1.9351017 -0.58217335 29
1.7801733 2.1275561 -0.53922629 42
1.9394232 2.3154175 -0.47837666 22
2.1746621 2.5935001 -0.41557449 13
2.411248 2.8715782 -0.32805422 17
2.7206581 3.2366147 -0.22159046 10
2.8016365 3.3294098 -0.075952873 16
2.7060924 3.2398956 0.073684059 16
2.4713213 2.9556673 0.20191215 8
2.6522677 3.1687038 0.36152202 3
2.643482 3.1537316 0.50527036 11
3.0677102 3.6559553 0.75589144 18
7.6269655 9.0798073 2.3049729 21
7.600709 9.0357246 2.7259572 32
7.413847 8.8042231 3.0840878 22
1.509093 1.7826123 -0.62582451 30
1.6214997 1.9133601 -0.57902408 33
1.77974 2.0971129 -0.53464681 25
1.9542629 2.3003151 -0.47806379 20
2.1991453 2.5858157 -0.41679317 8
2.4260695 2.8486071 -0.32735696 17
2.7496665 3.2251415 -0.22211383 21
2.6508574 3.1059511 -0.071275629 22
2.4481525 2.8898311 0.066109717 23
2.4402215 2.8774133 0.19772527 3
2.5260377 2.9754419 0.3414762 11
2.6538627 3.1215885 0.50307667 31
2.9881756 3.5110948 0.73023617 19
7.7092671 9.0487566 2.3106971 46
3.6857123 4.3199944 1.3110148 5
7.3935761 8.6567688 3.0504413 16
1.5152081 1.7647058 -0.6232363 13
1.634818 1.9019933 -0.57902408 34
1.7879335 2.0771971 -0.53273875 19
1.9638271 2.2791333 -0.47649944 48
2.2080684 2.5598776 -0.41508701 11
2.4237566 2.8059685 -0.32439366 19
2.7616642 3.1937802 -0.22127645 17
2.5887163 2.9906051 -0.069041722 20
2.4773903 2.8832862 0.066354051 18
2.5266733 2.937531 0.20306353 11
2.5233469 2.9305587 0.33833858 13
2.6911466 3.1210253 0.50600159 15
3.2462411 3.7608068 0.78686547 13
2.9805396 3.4493356 0.88611698 6
3.6226962 4.186583 1.2781719 15
7.3792052 8.5187893 3.0199006 37
1.5186101 1.7438862 -0.61961281 11
1.6506166 1.8934723 -0.57992387 30
1.8127204 2.0764961 -0.5357917 25
1.9796906 2.2653677 -0.47649944 23
2.2219646 2.5399179 -0.41435578 12
2.4314709 2.7754912 -0.32282487 16
2.803647 3.1969469 -0.22284654 18
2.6873691 3.0611227 -0.071101107 10
2.5053432 2.874965 0.06656348 13
2.5353043 2.9062731 0.20212148 26
2.4533191 2.8093212 0.32631108 22
2.8357053 3.2426267 0.52891296 7
3.1800332 3.6325257 0.76465172 15
7.9448385 9.0657425 2.3431346 2
3.8767815 4.4175105 1.3569047 16
9.9936476 11.375531 4.0572476 18
1.5230749 1.7245539 -0.61650699 12
1.6612139 1.878983 -0.57902408 30
1.7959383 2.028513 -0.52663285 31
1.9889055 2.244101 -0.47493511 18
2.1922135 2.4708881 -0.40558121 12
2.4529514 2.7618568 -0.32317349 13
2.8245702 3.1758032 -0.22274184 20
2.5929868 2.9123509 -0.068064384 22
2.4856253 2.8124528 0.065516338 25
2.4456878 2.7643461 0.1934337 28
2.4940078 2.8159895 0.32910007 18
2.6672847 3.0074043 0.49357089 15
3.1502342 3.5481935 0.75151128 6
3.1184013 3.5086374 0.91244864 1
8.6231127 9.6919832 2.9949987 5
2.8812518 3.2338493 1.1605446 1
1.5389448 1.7181951 -0.61805987 19
1.6742921 1.8673389 -0.57902408 30
1.839867 2.0498445 -0.53541011 37
1.9948939 2.2202244 -0.472745 31
2.2120657 2.4584749 -0.40606871 19
2.4735067 2.7461455 -0.32334781 15
2.7939591 3.0986552 -0.21865964 19
2.5623293 2.8377793 -0.066738002 28
2.5394051 2.8341925 0.066423863 18
2.5057871 2.7937274 0.19667853 3
2.5442262 2.8326027 0.33310926 12
2.6757467 2.9758949 0.4913772 18
3.1280577 3.4752817 0.74056083 30
9.0249281 10.012648 2.6201892 2
3.0783165 3.4116247 1.0608692 1
7.535109 8.3421955 3.0121362 16
1.5467079 1.7033901 -0.61650699 23
1.6882738 1.857342 -0.57947397 41
1.8488457 2.0311432 -0.53388357 38
2.0169964 2.2135446 -0.47430936 27
2.2448022 2.4609599 -0.40899354 12
2.4979942 2.7346931 -0.32404503 15
2.8424811 3.108552 -0.2207531 14
2.570786 2.8084707 -0.066458762 27
2.5510597 2.8075163 0.066214427 20
2.5064154 2.7554812 0.19521314 7
2.539304 2.7887008 0.32997164 13
2.7298958 2.9938135 0.49747071 16
4.9434423 5.4156609 1.1613696 5
3.0724521 3.3624084 0.8853538 1
nan nan nan nan
3.3483503 3.6553667 1.3282595 3
1.5598708 1.6939718 -0.6170246 28
1.7051617 1.8498086 -0.58082366 24
1.8496642 2.0037603 -0.53006744 30
2.0055883 2.1703937 -0.46805197 12
2.2403603 2.4219124 -0.40509373 12
2.503484 2.7025719 -0.32230192 15
2.9021373 3.1296391 -0.22368389 18
2.5780847 2.777266 -0.066144623 30
2.631578 2.8558118 0.067785151 3
2.5973637 2.8157227 0.20076075 11
2.4722028 2.6772254 0.31881571 19
2.7143412 2.9353306 0.49088979 28
3.1038134 3.3529885 0.72366595 21
3.1719143 3.4229567 0.90710598 13
3.2502508 3.502589 1.10316 16
3.2988439 3.5512238 1.298754 27
1.5611099 1.6717455 -0.61288351 27
1.7140421 1.8335887 -0.57947397 23
1.8582412 1.9850655 -0.52854097 36
1.9437 2.0741789 -0.45021844 12
2.255856 2.4047651 -0.40485001 13
2.5141058 2.6763153 -0.32125604 27
2.8130887 2.9914486 -0.21520546 31
2.8084931 2.9834301 -0.071519956 16
2.5859158 2.7672393 0.066109717 24
2.5951271 2.774184 0.199086 5
2.5902483 2.7660642 0.33154044 14
2.6505787 2.8265321 0.47577798 13
5.0253353 5.3533125 1.1629339 10
3.215899 3.4221909 0.91283029 37
3.1277201 3.3237033 1.0536708 8
3.017561 3.2032795 1.1791797 8
1.568759 1.6565976 -0.61133063 35
1.7080314 1.8017778 -0.57317531 24
1.8707014 1.970621 -0.52815932 45
1.9989548 2.103518 -0.45960453 12
2.2766938 2.3932724 -0.40558121 15
2.5258574 2.6514854 -0.3203845 16
2.8476877 2.9861903 -0.21625218 26
2.8182068 2.952179 -0.071240723 10
2.5584052 2.6997688 0.064922951 9
2.5223351 2.658916 0.19207297 31
2.5505013 2.6857893 0.32404503 22
2.6059535 2.7403491 0.46432224 19
4.9686074 5.2193766 1.141346 8
3.3074317 3.4707196 0.93191117 13
3.3163278 3.475194 1.1090088 16
3.237349 3.3888743 1.2557901 3
1.5842999 1.6497852 -0.61288351 24
1.719218 1.7884047 -0.57272542 27
1.8776066 1.9504403 -0.52625126 25
2.0204461 2.0966227 -0.46116886 10
2.2850773 2.3687477 -0.40411878 17
2.535543 2.625632 -0.31933865 21
2.8906791 2.9892101 -0.21792693 29
2.9569731 3.0545557 -0.074207634 10
nan nan nan nan
2.585144 2.6873031 0.19542249 10
2.5553679 2.6535678 0.32230192 11
2.5905719 2.6863666 0.45822877 18
3.1678648 3.2815661 0.72241443 9
3.0996532 3.2075436 0.8670361 7
8.8260231 9.1236687 2.9306626 2
nan nan nan nan
1.5890394 1.6317652 -0.6102953 36
1.715337 1.7596147 -0.56732661 34
1.8798691 1.9263749 -0.52319831 18
2.018105 2.0658655 -0.45741442 9
2.2849009 2.3357091 -0.40119389 12
2.5510235 2.6050193 -0.31898999 13
2.8648214 2.9223969 -0.21447276 22
2.7877076 2.8397648 -0.069460578 23
2.5981765 2.6671019 0.064992763 24
2.6340547 2.7011008 0.19772527 15
2.7951622 2.8623092 0.35001746 7
2.8308229 2.8957918 0.49722698 11
3.1362457 3.2048659 0.71021259 13
3.2112858 3.2769713 0.89184129 5
3.1947062 3.2566397 1.0532209 17
3.0753131 3.1316504 1.1760738 11
1.5973961 1.6181607 -0.60926002 28
1.7464523 1.767303 -0.57362527 24
1.8891289 1.9090174 -0.52205342 30
2.0269175 2.0461128 -0.45616296 10
2.2993476 2.3186934 -0.40095019 9
2.5410683 2.5588727 -0.31550378 22
2.8612154 2.878247 -0.21269335 15
2.8831403 2.8972673 -0.071345441 28
2.6181371 2.650322 0.065027662 31
2.5573494 2.5860775 0.19060758 31
2.6603942 2.687464 0.33084321 18
2.7741058 2.7984202 0.48382133 30
nan nan nan nan
3.2667253 3.2884626 0.90100008 24
3.2599709 3.2770846 1.0671679 9
3.1761663 3.1894987 1.2060968 24
1.6072865 1.6056048 -0.60874242 25
1.7601264 1.7564446 -0.5740751 29
1.9051927 1.8985531 -0.52281672 33
2.0397537 2.0305178 -0.45585006 9
2.3084424 2.2955847 -0.39973149 6
2.5701809 2.5523019 -0.31689829 13
2.8613882 2.8385096 -0.21122794 52
2.7825627 2.7574253 -0.06837853 15
2.6082714 2.603724 0.064329572 12
2.5852408 2.578033 0.19134027 28
2.7694297 2.7588177 0.34199914 12
2.7485387 2.7341864 0.47602168 13
3.2381344 3.2178543 0.72304016 19
nan nan nan nan
3.1111577 3.084125 1.0113801 55
3.0514781 3.0217979 1.1507095 4
1.625338 1.6011235 -0.61133063 26
1.76679 1.7386464 -0.57227552 31
1.9240011 1.8907112 -0.52434313 34
2.0482402 2.010694 -0.45459861 9
2.3159072 2.2710748 -0.39826906 4
2.5680089 2.5147791 -0.31445792 16
2.9639444 2.8994694 -0.21729892 19
2.7030637 2.6414955 -0.0659701 33
2.6377857 2.5966742 0.064608812 5
2.6216888 2.5781269 0.19270101 27
2.6706531 2.6235285 0.32753128 14
2.751972 2.69964 0.47334057 25
3.0122068 2.951833 0.66797519 18
3.2926788 3.2233057 0.89565748 15
3.1995015 3.1277177 1.0329753 12
3.1250217 3.0517108 1.1703798 11
1.6350906 1.5883914 -0.61081296 45
1.7649 1.7126982 -0.5677765 22
1.9385637 1.8785995 -0.52472478 27
2.0593889 1.9935974 -0.45397288 9
2.3259981 2.2493315 -0.3972941 8
2.0007546 1.9321054 -0.24333882 10
2.8978679 2.7955065 -0.21101859 36
2.7819152 2.6808391 -0.067436099 26
2.6745024 2.5963032 0.065062575 24
2.6410575 2.5611517 0.19280569 17
2.5815766 2.500849 0.31445792 15
2.7464972 2.6568983 0.46919701 23
3.255758 3.1462471 0.71709567 15
3.1809156 3.0707033 0.85940373 20
3.745975 3.6111357 1.2012386 29
3.6541574 3.518934 1.3593177 27
1.6349787 1.5662472 -0.60667187 24
1.7810369 1.7043781 -0.56912625 28
1.9374378 1.8514559 -0.52090853 23
2.0732567 1.9791716 -0.45397288 12
2.3272786 2.2193384 -0.39485672 17
2.5855553 2.4621918 -0.31236616 24
2.946254 2.8027408 -0.21311203 15
2.8092592 2.6696188 -0.067645527 4
2.6636727 2.549912 0.064364478 28
2.6112387 2.4970987 0.18935151 23
2.6825318 2.5625877 0.32456797 20
2.7491801 2.6225855 0.46651587 21
3.5164611 3.3510201 0.76934481 18
nan nan nan nan
nan nan nan nan
nan nan nan nan
1.6430655 1.5521407 -0.6056366 33
1.7985622 1.6972516 -0.57092583 28
1.9474577 1.8351932 -0.52014536 22
2.0884607 1.9660043 -0.45428574 9
2.3586223 2.2179968 -0.39753783 13
2.5896103 2.4318063 -0.31079736 27
2.9570091 2.773905 -0.21248402 49
3.0058444 2.8167591 -0.071903922 24
2.711946 2.5600805 0.065097481 5
2.644592 2.4938807 0.1905029 2
2.7032571 2.5465302 0.3249166 27
2.8136892 2.6468551 0.47431552 10
3.2590632 3.0626061 0.70833534 24
3.6786604 3.453285 0.98075831 27
3.2387111 3.0360363 1.0248771 10
3.1149213 2.9169304 1.1434625 22
1.6411394 1.5287811 -0.60097784 30
1.8075142 1.6819987 -0.57002604 46
1.9357743 1.7988324 -0.51365787 41
1.9776295 1.835798 -0.42737901 32
2.3798728 2.2068746 -0.39851278 13
2.6079848 2.4150231 -0.31097168 25
2.9396486 2.7192874 -0.20986721 43
2.9505341 2.7264917 -0.070123769 21
2.741461 2.5519867 0.065376714 20
2.6955767 2.5066407 0.19291034 15
2.7705996 2.5737016 0.33084321 10
2.7971711 2.5947466 0.46846578 18
3.1122892 2.8840306 0.67204249 16
3.6349642 3.3648362 0.9628222 16
3.1482081 2.9101744 0.98978466 13
3.1167574 2.878077 1.1367333 9
1.6603079 1.5251286 -0.60408366 28
1.8077252 1.6587994 -0.56642681 30
1.9555225 1.791906 -0.51556593 34
2.1025944 1.924648 -0.45146993 9
2.3996165 2.1942248 -0.39924401 15
2.6439095 2.414221 -0.31323773 19
2.9659388 2.7054281 -0.21039055 40
2.9916682 2.7260294 -0.070647344 12
3.3028028 3.0317698 0.078256592 6
2.6938739 2.4702129 0.19154961 35
2.911911 2.6673422 0.34548536 23
2.7829924 2.5456808 0.46310353 10
3.5844095 3.2753108 0.76903194 22
3.5104663 3.2043731 0.92389715 16
