# .PCD v0.7 - Point Cloud Data file format
VERSION 0.7
FIELDS x y z intensity
SIZE 4 4 4 4
TYPE F F F F
COUNT 1 1 1 1
WIDTH 1428
HEIGHT 1
VIEWPOINT 0 0 0 1 0 0 0
POINTS 1428
DATA ascii
5.8529868 30.280277 5.9948373 24
6.8079691 35.089462 8.2521048 27
5.8743491 30.192791 8.2418337 17
0.5380553 2.7273672 -0.74488121 23
0.59411913 3.0032694 -0.70679629 27
0.65418214 3.2948122 -0.65294844 24
0.75869995 3.8107741 -0.61541325 19
0.87753004 4.3955998 -0.55036199 9
1.0724992 5.3527598 -0.47761348 5
1.1074377 5.5121379 -0.29465145 52
1.1018052 5.4692731 -0.09738443 27
2.7156203 13.740077 0.24447331 20
2.717555 13.71212 0.73259878 9
6.0400715 30.393274 2.7110665 9
6.0437617 30.301105 3.793793 36
6.0555372 30.277496 4.8904548 27
6.0881748 30.358025 6.0184975 12
7.1150823 35.350567 8.3249893 28
6.0888133 30.169981 8.2470102 17
0.55863011 2.7311156 -0.74695182 14
0.61702758 3.0085938 -0.70904577 26
0.68429387 3.3247776 -0.65981752 12
0.78089595 3.7841032 -0.61197168 31
0.89773816 4.3388247 -0.54402483 14
1.100121 5.2983227 -0.47342998 2
1.1442618 5.4964514 -0.29423279 40
1.1395525 5.4594898 -0.097349517 29
2.8050554 13.68944 0.24391484 28
2.7943258 13.600862 0.72767919 6
6.2585416 30.381588 2.7138555 29
6.2583566 30.273727 3.795743 36
6.2699738 30.249954 4.8929577 27
6.3047595 30.337849 6.023077 36
7.3863678 35.418304 8.3528824 28
6.2992907 30.12674 8.2470102 17
0.57408023 2.7101398 -0.742293 31
0.63477784 2.9889629 -0.70544654 23
0.70216745 3.2949581 -0.6548565 20
0.8023423 3.7553782 -0.6082173 27
0.92717546 4.3285694 -0.54353732 14
1.1228516 5.2242842 -0.4675034 2
1.1859748 5.5039482 -0.29507017 37
1.181017 5.4670382 -0.097628765 40
2.9814975 14.050972 0.25072128 28
2.92786 13.762702 0.7374137 16
6.4734163 30.350792 2.7150757 59
6.4770327 30.26424 3.8001301 24
6.4851351 30.224764 4.8960867 27
6.5196919 30.308449 6.0261297 49
7.7288413 35.807804 8.4572601 29
6.5131383 30.09902 8.2516689 17
0.59298658 2.7060659 -0.742293 31
0.65186602 2.9673283 -0.70139742 42
0.72768897 3.3014791 -0.65714622 17
0.82385015 3.7284684 -0.60477573 22
0.94921297 4.2851677 -0.53890634 17
1.1432669 5.1484456 -0.46140248 5
1.2243707 5.4955344 -0.29507017 47
1.220899 5.4664664 -0.097768381 36
3.112102 14.178257 0.25337404 18
2.9942605 13.607334 0.73019135 9
6.6911554 30.332098 2.7175162 49
6.6898742 30.226034 3.801105 24
6.7062545 30.225033 4.903595 13
6.7255993 30.237278 6.0211692 24
6.7416353 30.234678 7.1516442 89
6.7319531 30.092411 8.2625399 17
0.60844928 2.6867871 -0.73815197 24
0.66782194 2.9418006 -0.6964485 51
0.74448311 3.2715633 -0.6521852 35
0.84613651 3.7092924 -0.60258561 18
0.97246343 4.2494102 -0.53525019 14
1.169827 5.0995579 -0.45774195 5
1.2590611 5.4753947 -0.29444212 32
nan nan nan nan
3.1356068 13.834957 0.24761474 30
3.0996392 13.64312 0.73322678 13
8.0818233 35.457706 3.1817074 12
6.8989992 30.195284 3.803055 36
6.9135995 30.18639 4.9048467 27
6.9229026 30.130272 6.0093389 36
8.3705263 36.34351 8.6102266 30
6.9375134 30.049648 8.2635746 17
0.62101144 2.6581278 -0.73142266 33
0.68249726 2.914418 -0.69104964 32
0.75877261 3.2299728 -0.64493442 30
0.87246257 3.7052178 -0.60289848 15
0.99270189 4.2059841 -0.53061914 22
1.1943859 5.044735 -0.4535585 5
nan nan nan nan
2.1448307 9.0170088 -0.16178381 6
3.3182209 14.180733 0.25421175 40
3.1906996 13.60365 0.73228478 22
7.1219258 30.293209 2.7225709 10
7.1132798 30.161839 3.8050051 24
7.1296248 30.160458 4.9086013 27
7.1382294 30.126394 6.018116 24
nan nan nan nan
7.148459 30.006126 8.2651281 17
0.62868935 2.6086538 -0.71899933 56
0.70328331 2.9114771 -0.69149959 38
0.78361511 3.2341371 -0.64684254 27
0.87872952 3.6184144 -0.58975804 19
1.022041 4.1989512 -0.53061914 13
1.2158693 4.9801435 -0.44850346 5
1.5404664 6.2953711 -0.33966038 2
2.197722 8.961031 -0.16105081 3
3.3721042 13.970608 0.2508609 18
3.2804334 13.559687 0.73113334 16
8.5783911 35.377762 3.1848452 12
7.3321199 30.146164 3.8093922 24
7.3451567 30.131058 4.9120426 13
7.3562984 30.108246 6.0246034 36
nan nan nan nan
7.3711309 30.009895 8.280139 18
0.64595449 2.6004512 -0.71796405 51
0.71747196 2.8819127 -0.68565083 40
0.79999155 3.2038255 -0.64188147 33
0.89773518 3.58728 -0.58569074 28
1.0465009 4.1724591 -0.52818179 13
1.2433168 4.9425507 -0.44588876 2
1.5677782 6.2186165 -0.33610156 2
2.21859 8.7806749 -0.1580839 9
3.4265902 13.774017 0.24775437 21
3.4011099 13.641104 0.73678571 9
7.5567675 30.24107 2.727103 10
7.5481925 30.117348 3.8123171 36
7.5601449 30.098204 4.9151716 27
7.5711079 30.075195 6.02842 24
nan nan nan nan
7.5851989 29.976433 8.2853155 18
0.66505212 2.5996211 -0.71899933 31
0.73467159 2.8655074 -0.68295145 25
0.81549281 3.1715434 -0.63653886 31
0.91684043 3.5579708 -0.5819363 24
1.0696466 4.1419883 -0.52525693 13
1.2668024 4.8913174 -0.44205391 2
1.6126595 6.2133193 -0.33641556 11
2.2551706 8.6701412 -0.15637356 3
3.5430152 13.829182 0.24918546 36
3.0815167 12.001709 0.64938462 8
3.5678322 13.865641 1.2526023 15
7.760251 30.071606 3.813292 24
7.7779989 30.075289 4.9201775 27
7.786798 30.044413 6.032999 24
7.8069143 30.035679 7.1646919 18
7.7996454 29.943312 8.2910089 18
0.67924988 2.5799694 -0.71485823 27
0.75167584 2.8490031 -0.68025202 17
0.83560729 3.1581805 -0.63501233 30
0.93609011 3.5304794 -0.57849473 37
1.0857948 4.0864558 -0.51916343 16
1.2595683 4.7304821 -0.4282833 4
1.543156 5.7793159 -0.31349242 2
2.2835939 8.53442 -0.15420946 3
3.629782 13.767373 0.24852227 27
3.8611238 14.613786 0.79215711 3
3.6324117 13.719056 1.2416207 23
7.9801893 30.055067 3.818167 24
7.9979329 30.058434 4.9264345 13
8.0019217 30.010185 6.0371971 36
8.0091677 29.97431 7.1628919 36
8.0239992 29.945976 8.3070564 18
0.6942144 2.5639768 -0.71175241 39
0.76185054 2.8079519 -0.67170388 37
0.84472173 3.1069524 -0.62585354 28
0.95646322 3.5106852 -0.57630467 34
1.1111584 4.0672865 -0.51770103 13
1.3125535 4.7945976 -0.43490714 5
1.6120502 5.8765392 -0.31935403 8
2.296452 8.3485975 -0.15113784 3
3.7610688 13.881312 0.25103542 28
3.2043116 11.801955 0.64090616 14
3.7322876 13.708743 1.2430152 18
8.1939745 30.034529 3.8225541 24
8.2080803 30.024258 4.9298763 13
8.2210855 29.989569 6.0444479 37
8.2409315 30.000353 7.1826878 54
8.2266102 29.886944 8.3060217 18
0.70906413 2.5498853 -0.70916426 25
0.78827047 2.8289821 -0.67800254 18
0.8658635 3.0990887 -0.62547189 25
0.9750911 3.4829974 -0.5728631 27
1.1297011 4.0271368 -0.51355743 18
1.3376087 4.7586999 -0.4324668 5
1.7017961 6.0381556 -0.32877451 2
2.3075707 8.1711216 -0.14820585 3
3.8954291 13.989568 0.25347877 34
3.2876947 11.783147 0.64111555 14
3.8539464 13.784718 1.2522538 15
8.4195442 30.03393 3.8298662 36
8.4260349 29.996651 4.9348822 27
8.4399347 29.985825 6.0551329 24
10.759192 38.149197 9.1510096 36
8.4392786 29.843653 8.3101625 18
0.71995014 2.5207248 -0.70243496 29
0.80210209 2.8028016 -0.67305356 20
0.87990332 3.0685894 -0.62051088 35
0.99223089 3.4534967 -0.56910866 34
1.1506468 3.9943538 -0.51038885 21
1.3542248 4.6918178 -0.42723745 11
1.7184457 5.9420114 -0.32416895 2
2.326134 8.0222921 -0.1457974 6
3.3718112 11.797754 0.21417592 14
3.3887181 11.833458 0.64509302 8
3.8978524 13.575548 1.2356941 17
8.6292582 29.995005 3.8323038 24
8.6376677 29.965181 4.9392624 14
8.6566877 29.952581 6.0604753 50
11.117392 38.391376 9.2274923 37
8.6594353 29.844889 8.3267269 18
0.73644358 2.5119295 -0.70139962 30
0.80736977 2.7485201 -0.66135615 25
0.90072989 3.0584478 -0.61974764 31
1.0107684 3.425467 -0.56566709 20
1.1785027 3.9862239 -0.51038885 16
1.3934237 4.7011099 -0.42898056 19
1.728512 5.8204288 -0.31820264 11
2.3866498 8.0211887 -0.14607665 6
3.5119102 11.963279 0.2176315 6
3.4513302 11.734179 0.64101082 8
4.0021067 13.580495 1.2386574 13
8.848176 29.947718 3.8342535 24
8.8619652 29.936695 4.9448938 14
8.8689346 29.90271 6.0627656 37
11.502914 38.684418 9.3174734 38
8.8683662 29.767349 8.3225861 55
0.75507504 2.510427 -0.70243496 30
0.82485157 2.7372193 -0.66000646 28
0.9248988 3.0614817 -0.62165576 33
1.0346581 3.4183271 -0.56566709 22
1.1947815 3.9399059 -0.50551409 19
1.4146192 4.6531425 -0.42549434 23
1.7487336 5.7413502 -0.31453913 5
2.4268274 7.9526916 -0.14513421 12
3.5734265 11.865711 0.21630514 18
3.6820161 12.203123 0.66801625 9
3.6465495 12.062738 1.1025201 2
9.0673981 29.919413 3.8386409 24
9.082799 29.913794 4.9514642 28
9.0900478 29.881384 6.0711608 25
9.1396189 29.969183 7.2335267 18
9.0923357 29.758287 8.3375969 55
0.7600562 2.4644814 -0.69104689 34
0.85199356 2.7574608 -0.66630507 18
0.94683033 3.0568256 -0.62203735 36
1.0479592 3.3770614 -0.56003547 27
1.2252047 3.9409466 -0.50673276 15
1.4441055 4.6336422 -0.42462277 21
1.7792486 5.6984973 -0.31286436 5
2.4207988 7.7389803 -0.14153902 15
3.6384833 11.783153 0.21525799 24
3.6260448 11.721098 0.64299959 17
3.6887968 11.901868 1.090144 8
9.3007784 29.935005 3.8488779 12
9.3025694 29.88549 4.9574089 14
9.3148041 29.869677 6.0818462 37
9.3550167 29.925104 7.2384753 55
9.3154554 29.743862 8.351573 55
0.78306627 2.4775352 -0.69622326 33
0.85887116 2.7124307 -0.65685713 11
0.96339476 3.0351713 -0.6189844 37
1.0685153 3.3602509 -0.55847108 26
1.2424427 3.9001429 -0.50258923 16
1.4703586 4.6044679 -0.42287967 21
1.798906 5.6231618 -0.30941018 2
2.4509661 7.6476235 -0.14017773 18
3.7821953 11.951929 0.21881828 27
3.7355499 11.783076 0.64781451 11
3.7114875 11.685934 1.0727129 16
9.5023241 29.846638 3.845953 61
9.5271893 29.87063 4.9658561 28
9.5350571 29.841318 6.0894785 37
12.649347 39.492886 9.5739174 41
9.5329285 29.709373 8.3603735 56
0.79201299 2.4462771 -0.68897635 31
0.86335725 2.6618803 -0.64605951 32
0.98031181 3.0153022 -0.6163131 30
1.084609 3.3301699 -0.55471671 31
1.2610222 3.864953 -0.49917686 18
1.4987499 4.5827293 -0.42183378 16
1.818218 5.5497308 -0.3060607 10
2.4569013 7.485929 -0.13752496 11
3.8877351 11.993715 0.22007485 25
3.8195651 11.762411 0.64812857 8
3.7800312 11.619951 1.0690523 18
9.7252312 29.824867 3.8518028 73
9.7459221 29.835312 4.9711752 14
9.7578106 29.818808 6.0986376 38
12.962427 39.518414 9.6018114 41
9.7515497 29.67697 8.3702078 37
0.8072471 2.4351873 -0.68742341 34
0.88314664 2.6594875 -0.6469593 42
0.99637997 2.9934821 -0.61326015 40
1.1003335 3.300029 -0.55096221 41
1.2829429 3.8409927 -0.49722698 18
1.5110985 4.5135856 -0.41643015 23
1.8429495 5.4952421 -0.30375794 2
2.4798126 7.3813963 -0.13591935 23
3.9663334 11.951098 0.21979561 21
3.8669333 11.631218 0.64237159 8
3.8780599 11.644318 1.0737587 22
9.9457684 29.793909 3.8566775 61
9.963356 29.794651 4.9758677 14
9.977581 29.785332 6.1058879 38
13.261572 39.497154 9.6189079 42
9.9714298 29.64662 8.3810787 37
0.82733154 2.4386396 -0.69001162 20
0.88915092 2.6163549 -0.63796127 27
1.0090235 2.9622946 -0.60829914 27
1.1265332 3.301615 -0.55252659 35
1.2968843 3.7943745 -0.49235216 21
1.5398506 4.49754 -0.4159072 21
1.8585793 5.4161224 -0.3000944 2
2.5091822 7.2996068 -0.13473257 17
4.0612473 11.957199 0.22042391 53
3.9673457 11.660662 0.64551175 8
3.96312 11.628273 1.0748047 14
10.168928 29.768835 3.8625274 73
10.190306 29.780437 4.9852543 28
10.198647 29.753948 6.1139016 25
10.232371 29.80146 7.2744675 57
10.205191 29.654833 8.4033375 19
0.84053582 2.4218538 -0.68690574 33
0.91571373 2.6340127 -0.64380997 25
1.0188335 2.9256928 -0.60219324 37
1.1405226 3.2696238 -0.54845929 24
1.3187567 3.7721112 -0.490646 18
1.5633097 4.4641156 -0.41381544 15
1.8848224 5.3731923 -0.29841965 2
2.4990644 7.1083527 -0.13152133 11
4.1491032 11.948168 0.22077294 25
4.0544944 11.656026 0.6467678 17
4.0448542 11.602204 1.0749789 20
10.380485 29.725164 3.8659396 49
10.406477 29.74954 4.9918246 14
10.424322 29.733898 6.124588 38
10.425984 29.688845 7.2645702 18
10.438861 29.6758 8.4292192 38
0.85635561 2.4142559 -0.68638813 45
0.94471294 2.6589353 -0.65145832 27
1.0379167 2.9148097 -0.60143 37
1.16863 3.2764659 -0.55096221 26
1.3397288 3.7499611 -0.48893982 22
1.5763031 4.4024467 -0.40910906 18
1.8872273 5.2621427 -0.29297671 2
2.5129094 6.9951997 -0.12974119 19
4.2217097 11.888761 0.22021447 29
4.1565189 11.685771 0.65001267 23
4.1478066 11.64197 1.0812541 20
10.627804 29.764139 3.880564 37
10.630545 29.722664 4.9996462 14
10.642349 29.706614 6.1337461 26
10.656704 29.68136 7.280766 57
10.686316 29.714909 8.4613123 58
0.87253088 2.4064023 -0.68587047 40
0.95194393 2.6211367 -0.64380997 24
1.0662982 2.9296308 -0.60600942 27
1.1738843 3.2199748 -0.54282767 19
1.3570226 3.7162769 -0.48577127 13
1.589884 4.3445578 -0.40475124 13
1.9170468 5.2300849 -0.29192999 2
2.5237823 6.8742394 -0.12782143 16
4.2957301 11.834563 0.21976072 21
4.2523255 11.695889 0.65221077 14
4.2289762 11.61273 1.0812541 16
10.88434 29.823484 3.8981133 37
10.849997 29.681122 5.0052776 29
10.865682 29.675837 6.1429048 26
10.903922 29.716011 7.3077602 19
10.903486 29.666784 8.4690771 58
0.89132184 2.4056873 -0.68742341 37
0.96547234 2.6016383 -0.64066064 32
1.0716696 2.8816326 -0.59761381 32
1.2004725 3.2228074 -0.54470485 24
1.3732195 3.6806743 -0.4823589 24
1.6082587 4.3037744 -0.40196225 21
1.9367001 5.1716857 -0.28941786 2
2.5492361 6.7965388 -0.12670447 19
4.4032865 11.871779 0.22101727 36
4.3192739 11.626598 0.65001267 11
4.3168993 11.601595 1.0829972 18
11.090879 29.743055 3.8976257 75
11.081121 29.669424 5.0162282 14
11.087712 29.639717 6.1513009 26
nan nan nan nan
8.1183329 21.621401 6.1883636 25
0.90194076 2.3831449 -0.68276465 29
0.98499322 2.5984793 -0.64156049 36
1.1038027 2.9073088 -0.60448295 26
1.2202753 3.2090223 -0.54376626 15
1.3953459 3.6617236 -0.4811402 22
1.6375551 4.2905807 -0.40178797 23
1.9390532 5.0725656 -0.28460297 2
2.5816011 6.7393622 -0.12597147 22
4.485404 11.845274 0.22108708 25
4.4103489 11.628676 0.65179205 17
4.4013276 11.580486 1.0838689 22
11.312866 29.718813 3.9044504 75
11.308871 29.661598 5.0278044 14
11.314 29.612934 6.1619864 26
4.2219424 11.033059 2.7273068 16
8.0751905 21.069567 6.0460129 23
0.91674918 2.3733461 -0.68172938 29
0.99843901 2.5808094 -0.63886106 31
1.1169763 2.881227 -0.60066676 28
1.2354988 3.1820104 -0.54063755 16
1.4152036 3.6391892 -0.47943404 22
1.6797673 4.3106027 -0.40475124 18
1.9707882 5.049602 -0.28407961 14
2.5771813 6.5931234 -0.12356304 15
nan nan nan nan
4.619813 11.929122 0.67042363 9
4.4858103 11.565122 1.0852633 27
11.543798 29.700169 3.9124935 75
11.532152 29.624262 5.0350003 29
4.3238564 11.090117 2.31375 21
4.166254 10.663886 2.6431751 78
8.0432854 20.555723 5.9145331 22
0.92975265 2.3579023 -0.67914116 29
1.0142846 2.5683386 -0.63751131 34
1.1240591 2.8404999 -0.59379762 28
1.2314816 3.1071968 -0.5293743 19
1.4361813 3.6181505 -0.47797161 23
1.7054019 4.287663 -0.40370542 13
1.9734714 4.9540796 -0.27947402 7
2.5749822 6.4542432 -0.12129422 26
4.0762229 10.32694 0.19379151 7
4.6706791 11.814853 0.66581815 15
4.5884495 11.589096 1.0904927 19
13.833529 34.868404 4.6059303 15
11.742323 29.552217 5.0365648 14
4.3895545 11.030478 2.3076441 23
4.1279984 10.352159 2.5729904 36
8.0060406 20.046965 5.7840881 21
0.93825841 2.33164 -0.67344719 31
1.0336472 2.5648098 -0.6384111 23
1.1350405 2.8107381 -0.5892182 31
1.2805457 3.1662819 -0.54095048 13
1.4427731 3.5620391 -0.47187814 27
1.7165711 4.2316456 -0.39952192 17
2.0305712 4.9956894 -0.28261417 7
2.5875587 6.3564682 -0.11979332 21
nan nan nan nan
4.716435 11.691198 0.66068918 3
4.6864109 11.599267 1.0945019 19
14.081107 34.782013 4.6073928 15
4.4897285 11.073493 1.8925444 21
4.4605517 10.98501 2.3045912 25
4.157258 10.22273 2.5477958 20
4.2019272 10.311952 2.9836662 30
0.95744914 2.3321807 -0.67551774 64
1.0337441 2.5142744 -0.62761348 21
1.1496629 2.7920544 -0.58692849 27
1.2870084 3.1209679 -0.53469306 16
1.4660896 3.5482106 -0.47139066 27
1.7079812 4.1275091 -0.39080635 21
2.0951123 5.0555568 -0.28680107 16
2.6395376 6.3567181 -0.12014236 15
4.0989332 9.9793491 0.18831147 5
4.8665614 11.830605 0.67042363 9
4.8135829 11.678635 1.1051347 21
8.8868132 21.529036 2.8597863 48
8.8756647 21.47015 3.679652 31
4.2561445 10.275236 2.1618662 39
4.2218046 10.177258 2.5437467 18
4.2468266 10.222452 2.9660666 46
0.97628385 2.3327384 -0.67758828 65
1.0433003 2.4892077 -0.62311447 31
1.1653248 2.77491 -0.58502042 40
1.3049349 3.1028028 -0.53312874 17
1.4885141 3.5324001 -0.47065943 16
1.7297848 4.0989628 -0.38923752 23
2.1031451 4.9764156 -0.28313756 19
2.6550014 6.2700038 -0.11885089 18
4.1885867 9.9984465 0.189219 10
5.071887 12.08918 0.6870665 9
4.8621006 11.572123 1.0981623 19
9.0399771 21.473787 2.8607612 80
4.5053787 10.686539 1.8368537 22
4.3438134 10.283254 2.1698802 16
4.2130275 9.9590902 2.4965069 18
4.4906569 10.599903 3.0846055 13
0.99067593 2.3203623 -0.6760354 30
1.0649166 2.4906373 -0.62536401 29
1.1792594 2.7540736 -0.58234906 36
1.3239893 3.0861237 -0.53187722 17
1.5029502 3.4982126 -0.46749085 15
1.7709562 4.1160703 -0.39202651 23
2.1307952 4.9428973 -0.28209084 23
2.6749353 6.1962366 -0.11780374 5
4.406754 10.31652 0.195816 8
5.25178 12.27108 0.69952244 9
4.965971 11.586481 1.1028687 12
nan nan nan nan
4.5700288 10.626805 1.8321607 19
4.486165 10.416764 2.2046072 14
4.4167366 10.240791 2.5747898 20
4.086688 9.4573689 2.7605641 31
1.0014532 2.3009906 -0.67241186 46
1.0760496 2.4688506 -0.62176478 27
1.1950086 2.7365687 -0.580441 28
1.3423363 3.0695658 -0.53062576 19
1.5289282 3.4912715 -0.46797833 15
1.8068503 4.1200285 -0.39359534 17
2.1395392 4.8693891 -0.27874133 28
2.6698029 6.0675917 -0.11570945 15
4.308754 9.8905668 0.18831147 12
6.116003 14.018982 0.80157757 3
5.1105514 11.697591 1.1168137 14
9.3919973 21.456594 2.8758731 8
4.6441064 10.594643 1.8321607 16
4.3654423 9.9447584 2.1111107 24
4.5445876 10.338153 2.6071827 42
4.1020002 9.3136892 2.7269175 27
1.0049602 2.2656884 -0.66412973 33
1.0995866 2.4755263 -0.62536401 29
1.2136068 2.7283714 -0.580441 30
1.3406922 3.0098336 -0.52186543 26
1.5565007 3.4877636 -0.46895328 28
1.8323179 4.1000381 -0.39289808 21
2.1726346 4.854713 -0.27874133 30
2.7104614 6.045156 -0.11563965 17
3.8868737 8.7588415 0.16726387 1
5.2939496 11.912778 0.68319362 15
5.2755604 11.849101 1.1347678 13
4.6828251 10.502994 1.4119784 22
4.6903434 10.505064 1.8221489 30
4.5638299 10.202573 2.1725514 33
4.5051184 10.05719 2.5441966 36
4.5353398 10.110465 2.969172 28
1.0314941 2.2834425 -0.67137665 33
1.1067746 2.4466772 -0.61996514 31
1.2318158 2.7180438 -0.58005941 27
1.369837 3.0183878 -0.52499413 16
1.569528 3.4535942 -0.46578467 16
1.8453283 4.0548286 -0.38976046 21
2.1923859 4.8085341 -0.27696192 28
2.712512 5.9410701 -0.11399912 17
4.2354488 9.3674068 0.17944564 7
5.3390865 11.791838 0.67837876 15
5.2705207 11.624204 1.1166394 19
4.7051339 10.357989 1.3968666 32
4.7864699 10.522409 1.8309091 10
4.6942086 10.305267 2.2011726 34
4.688314 10.278058 2.6080828 32
4.5937691 10.052199 2.9614077 28
1.0409489 2.2621465 -0.66723549 46
1.1221964 2.4353518 -0.61906534 41
1.2494645 2.707814 -0.57967776 25
1.3920065 3.0125809 -0.52561986 24
1.5910988 3.4371483 -0.46505347 20
1.8828089 4.0617313 -0.39167792 21
2.1989994 4.7373385 -0.27371708 27
2.7286258 5.8675914 -0.11295197 15
4.2924275 9.3238268 0.17916641 10
5.5488391 12.036357 0.69460285 9
4.9054484 10.621227 1.0235571 16
4.7671967 10.307705 1.3944291 37
4.6795025 10.104202 1.7636423 25
4.7164564 10.165393 2.1782756 30
4.9931426 10.746994 2.7358549 34
nan nan nan nan
1.0563238 2.255008 -0.66723549 38
1.1370934 2.4241278 -0.61816555 39
1.2541436 2.6688187 -0.57319027 35
1.4087991 2.9938524 -0.52405554 28
1.6212254 3.4406049 -0.46700338 19
1.895957 4.0181899 -0.38871458 20
2.2243347 4.7056217 -0.27277502 22
2.7565219 5.8235798 -0.11246331 15
4.2207375 9.0021334 0.17354673 8
5.6514025 12.037104 0.69690567 9
5.0284872 10.695776 1.0340157 41
4.8914843 10.385516 1.409541 32
4.688417 9.9408627 1.7408029 9
4.7712932 10.102872 2.1717882 13
4.8270802 10.207153 2.6067328 14
4.4159718 9.3209982 2.76367 20
1.0662181 2.2353735 -0.66361207 37
1.1632267 2.4354739 -0.62311447 38
1.2697394 2.6549067 -0.57204539 38
1.4189063 2.9628146 -0.5203011 27
1.6477835 3.4345715 -0.46773461 13
1.917063 3.9904878 -0.38732013 20
2.2389996 4.6543741 -0.27068159 22
2.7102983 5.6240511 -0.10897283 16
4.3723421 9.162693 0.17721173 10
5.7246003 11.980332 0.69585896 18
5.1761575 10.813164 1.0488322 6
4.9131494 10.249949 1.3956479 17
4.65767 9.7039223 1.704823 9
3.4311352 7.1357512 1.5390654 25
4.8508754 10.074883 2.5815384 18
4.4658875 9.2628841 2.7553878 2
1.0733596 2.2104974 -0.6584357 42
1.1699755 2.4062629 -0.6177156 30
1.2826871 2.6333978 -0.56937408 27
1.4322778 2.9366059 -0.51748526 31
1.6490698 3.3766074 -0.46139738 19
1.9254304 3.9355049 -0.38331094 22
2.2546747 4.6023612 -0.26858816 22
2.7204354 5.5457458 -0.10782097 7
4.3416462 8.9333315 0.17337219 9
5.7446289 11.804372 0.68800855 6
5.1363139 10.540345 1.0258231 5
4.8931913 10.023652 1.3695679 14
4.8926826 10.009313 1.764581 3
3.6612556 7.4801655 1.6188235 24
4.7907224 9.7704544 2.5122535 26
7.6976004 15.678125 4.679966 24
1.0956132 2.216805 -0.66257679 60
1.1806955 2.3858104 -0.61456633 28
1.3141204 2.6507633 -0.57509834 33
1.4492309 2.9194579 -0.5162338 25
1.6752535 3.3703456 -0.46212861 23
1.9421997 3.9005651 -0.38121921 26
2.2912037 4.5954466 -0.26911151 20
2.7394328 5.4872584 -0.10705306 19
4.517396 9.1322298 0.17784002 14
5.1274586 10.351872 0.60542244 25
5.0663619 10.215074 0.99758458 3
5.1397033 10.3448 1.4183155 16
4.896451 9.8422651 1.7411157 3
3.6039643 7.2347612 1.5711213 16
3.6667359 7.3479147 1.8958876 12
4.5696201 9.1452522 2.739341 13
1.1093258 2.205651 -0.66154152 61
1.1938157 2.370548 -0.61276674 27
1.3202145 2.6169846 -0.56975567 36
1.4722493 2.9145589 -0.5171724 30
1.6879905 3.337311 -0.45920372 27
1.9723061 3.8943648 -0.38191649 24
2.3069651 4.5472784 -0.26722744 27
2.8066559 5.5250516 -0.10817002 19
4.4308867 8.8021822 0.17201093 14
5.1267867 10.171359 0.59694397 17
5.2300162 10.36266 1.0155387 20
5.0290852 9.9472694 1.3685929 14
5.5387225 10.941075 1.9422905 3
3.483072 6.8714561 1.4974691 7
4.7441783 9.3472357 2.4200237 28
4.9091501 9.6555767 2.9023969 20
1.123818 2.1961324 -0.66102386 56
1.2094487 2.3604209 -0.61231679 43
1.3344126 2.6009507 -0.5682292 31
1.489346 2.8991985 -0.5162338 25
1.6976221 3.2989695 -0.45554763 24
1.9821051 3.8468506 -0.37860456 28
2.3268774 4.5101695 -0.26597136 18
2.8130262 5.4431458 -0.10694835 14
4.5408144 8.8697195 0.17393069 13
5.1986313 10.141561 0.59725797 20
5.1575284 10.044087 0.98782319 5
4.9777703 9.6815376 1.336663 15
4.9177637 9.5525246 1.7016943 10
nan nan nan nan
4.8808413 9.4524117 2.4560158 32
4.8017478 9.2873049 2.8014574 53
1.1271471 2.1661541 -0.65429455 43
1.2362915 2.3728733 -0.6177156 24
1.3489046 2.584609 -0.56670272 36
1.5150393 2.8992348 -0.51811105 22
1.7141691 3.2747259 -0.45384148 27
1.9950408 3.8064473 -0.37598985 20
2.3490243 4.4761305 -0.26492465 20
2.8165281 5.3578849 -0.10565687 19
4.509336 8.6586704 0.1704053 11
5.3062496 10.175857 0.6014449 5
5.3594875 10.264839 1.0130984 15
3.5530078 6.793396 0.94131887 13
3.7453487 7.1520338 1.2786956 7
3.6954088 7.0446916 1.5463161 22
3.6726558 6.992414 1.8234533 29
5.0579982 9.6177483 2.9117146 20
1.1335791 2.1409597 -0.64911819 36
1.2468504 2.3519137 -0.61456633 32
1.3586302 2.5595229 -0.56326818 28
1.5209088 2.8604128 -0.51310509 11
1.7425865 3.2731924 -0.45530388 39
2.0056338 3.7625375 -0.37302658 16
2.3687651 4.4363031 -0.2635639 9
2.8406677 5.3134007 -0.10516821 19
4.4302106 8.363678 0.16520448 9
5.231019 9.8588696 0.5849067 23
5.3617573 10.092505 0.99985063 1
5.5217147 10.380473 1.4436644 22
5.0922527 9.5570154 1.7151477 16
3.5310273 6.6185932 1.4581624 27
3.6084433 6.7551842 1.7681154 10
nan nan nan nan
1.1430029 2.122788 -0.64601237 31
1.256766 2.3311443 -0.611417 34
1.3731796 2.5428255 -0.56174171 27
1.5258073 2.8219235 -0.5080992 30
1.7521626 3.2365081 -0.45189157 19
2.0318506 3.748445 -0.37302658 16
2.4006317 4.4214125 -0.26366857 6
2.8633668 5.2670865 -0.10464463 24
4.4899464 8.3317614 0.16520448 9
5.423018 10.050611 0.59851408 11
5.356329 9.9145899 0.98590571 7
3.7100995 6.8559699 0.9571619 27
5.108974 9.4291811 1.6985657 6
3.6164672 6.6662583 1.4741904 30
3.6536553 6.7264032 1.7672156 14
5.2266946 9.6063728 2.9303493 54
1.1744939 2.1452579 -0.65532982 34
1.2608324 2.3000987 -0.60556829 31
1.3819548 2.5179298 -0.55830717 38
1.5383221 2.7993531 -0.50590914 26
1.782373 3.2381094 -0.45384148 17
2.0464299 3.7132289 -0.37093481 16
2.4123356 4.3717451 -0.2616798 14
2.8816886 5.2137151 -0.10398144 18
4.340981 7.9256835 0.15773484 13
5.5345154 10.092272 0.60322434 23
3.7678595 6.8593855 0.68469548 7
3.7155461 6.755764 0.94668114 23
5.2854748 9.5983706 1.7354842 16
3.6505949 6.6184988 1.4692293 10
3.7316175 6.7570238 1.7820624 38
4.929256 8.9146147 2.7295058 18
1.1918867 2.142278 -0.65688276 33
1.2830979 2.30338 -0.60871756 33
1.3937598 2.4979341 -0.5560174 22
1.5587898 2.7902706 -0.50622195 23
1.8072815 3.2310987 -0.45457271 30
2.0703559 3.6953754 -0.37058622 20
2.4232571 4.3199582 -0.25958636 8
2.9327784 5.2218757 -0.10453992 22
4.3320003 7.7798753 0.15543112 9
5.6758351 10.180735 0.61086535 8
5.4594984 9.7806473 0.97997916 10
3.8711193 6.923718 0.97397989 28
5.3098989 9.4853954 1.721718 16
3.7022772 6.6054864 1.4719007 23
3.6604064 6.5200982 1.7262745 19
5.214767 9.277421 2.8516684 27
1.1992056 2.1204524 -0.65274167 48
1.2885849 2.2757127 -0.60376865 31
1.406322 2.4796042 -0.55410933 24
1.584084 2.7896268 -0.5080992 23
1.8190008 3.1994209 -0.45189157 26
2.0832884 3.658323 -0.36832017 20
2.4602821 4.3150811 -0.26031908 6
2.9473522 5.1630673 -0.10377201 20
4.1054802 7.2534666 0.14548326 14
5.5537682 9.8002834 0.59034967 8
3.7037823 6.5277863 0.65663135 5
3.7712576 6.6359196 0.93717533 8
nan nan nan nan
3.6647255 6.4327755 1.4390815 20
3.7579868 6.5857854 1.7505692 34
5.2573624 9.2022095 2.8397627 8
1.2091655 2.1036549 -0.65015346 47
1.3112441 2.2784853 -0.60691798 34
1.4383054 2.4952395 -0.55983365 27
1.606483 2.7836325 -0.50903779 21
1.8283819 3.1642997 -0.44872296 33
2.1097739 3.6454155 -0.36849448 16
2.4542966 4.235589 -0.25655088 19
2.9652603 5.1112323 -0.10314372 27
4.0961947 7.1206245 0.14338897 27
5.7416697 9.9689589 0.60291028 2
5.4233413 9.4048729 0.94982326 15
2.5823903 4.471035 0.63396436 11
5.2994242 9.1640835 1.6766648 3
3.6692169 6.3373723 1.4234352 6
3.7540147 6.4734139 1.7276242 14
5.398109 9.297266 2.880656 38
1.2296696 2.1051702 -0.65325934 48
1.332039 2.2776859 -0.60916752 31
1.4447739 2.4665041 -0.55563581 29
1.6088878 2.7433829 -0.50371903 22
1.851432 3.1531708 -0.44896671 27
2.1099217 3.5876625 -0.36413667 22
2.4665792 4.1890936 -0.25477144 12
2.9775143 5.0507855 -0.10234091 20
4.1246133 7.0556016 0.14265598 22
5.8020463 9.9131184 0.60196823 2
2.5656352 4.3782697 0.44397137 1
2.5753603 4.3878407 0.62470233 12
3.9041071 6.6437593 1.2205019 15
4.0239763 6.8395443 1.5425 22
3.8030734 6.453764 1.7294238 44
5.8467097 9.9099207 3.0830526 11
1.2443365 2.0965343 -0.65325934 47
1.3459167 2.2649803 -0.60826772 22
1.4740072 2.4766021 -0.56021523 33
1.6259786 2.7286899 -0.5030933 22
1.8672994 3.1299391 -0.44750425 22
2.1220334 3.5526917 -0.36204496 33
2.4803839 4.1460619 -0.2532014 4
3.0106478 5.0264444 -0.1022711 20
4.137002 6.9647417 0.1413994 29
4.2795482 7.1961379 0.43878472 5
2.6032715 4.3722363 0.44519153 11
2.533741 4.248704 0.60739684 13
4.0081158 6.713017 1.2383354 15
4.0897593 6.8416176 1.5493692 31
3.8569224 6.4444494 1.7339228 34
5.9912381 9.9947901 3.1223929 5
1.2529562 2.0778704 -0.65015346 29
1.3475951 2.2321734 -0.60196906 15
1.4847387 2.4564295 -0.55792552 33
1.6332662 2.6989679 -0.49965176 30
1.8757288 3.0947576 -0.44433567 26
2.1436832 3.5326805 -0.36152202 26
2.4878075 4.094944 -0.25110796 6
3.0217576 4.9660125 -0.10146829 22
4.1440339 6.8696404 0.1400381 26
2.6298959 4.3544703 0.26659939 17
2.4419255 4.0368705 0.41276959 15
2.5399771 4.1940045 0.60203457 23
6.1328049 10.114518 1.8734595 9
3.7348905 6.1500678 1.39863 17
3.94839 6.4939613 1.7546183 21
4.205833 6.9092283 2.1673508 27
1.2610178 2.0594084 -0.64704764 33
1.3790538 2.2495313 -0.60916752 27
1.4792509 2.4091978 -0.54952991 28
1.6520673 2.6875007 -0.49965176 28
1.8998706 3.0869908 -0.44506687 26
2.1599298 3.50406 -0.36012751 31
2.516335 4.077476 -0.25110796 12
3.0565417 4.947031 -0.1015032 20
4.2012959 6.8558879 0.14035226 19
2.5902529 4.2219429 0.25958636 9
2.332742 3.7977548 0.38993478 13
2.5400724 4.1288276 0.59520996 11
4.3105907 6.9985499 1.3018478 26
3.8292201 6.2097268 1.4180925 25
3.9076107 6.3269672 1.7168266 27
4.2509146 6.8747706 2.1657977 6
1.270264 2.0423517 -0.64445943 35
1.3916358 2.2348852 -0.60781777 46
1.4908396 2.3904827 -0.54762185 24
1.659281 2.6574702 -0.49621019 23
1.9076967 3.0517695 -0.44189829 16
2.174823 3.4736981 -0.35855874 22
2.5097332 4.0039649 -0.24765378 20
3.0846236 4.91541 -0.10129377 22
4.2575064 6.839973 0.1406315 3
2.4464271 3.9257679 0.24242018 16
2.3412681 3.7526417 0.38697147 15
2.5456924 4.0739574 0.58984768 12
4.2807693 6.8426852 1.2783825 84
3.9204159 6.2593799 1.4356469 13
3.9951825 6.3688655 1.7357225 12
5.4711185 8.7115726 2.756423 29
1.2803637 2.0269017 -0.64238888 30
1.3863713 2.1921759 -0.59881973 23
1.4770281 2.331918 -0.53655493 23
1.6714472 2.6358113 -0.49433297 23
1.9247011 3.0316725 -0.44092333 24
2.1898692 3.4453611 -0.3571642 22
2.5022309 3.9307458 -0.2441996 16
3.1167152 4.8903828 -0.10122395 22
2.6745598 4.2307367 0.087366745 12
2.4951367 3.9423461 0.24451362 12
2.3802063 3.7564006 0.38906324 30
2.5921524 4.0845804 0.59399122 21
nan nan nan nan
3.9260831 6.1722245 1.4219086 43
4.084496 6.4138498 1.7555182 19
nan nan nan nan
1.3017845 2.0292959 -0.64601237 26
1.3942702 2.1709659 -0.59567046 40
1.5183485 2.3614435 -0.54571378 14
1.6904179 2.6260347 -0.49464583 20
1.939364 3.008152 -0.4394609 16
2.1836145 3.3831186 -0.35228351 21
2.5462728 3.9404628 -0.24587436 18
3.1323125 4.8399634 -0.10063057 6
2.5488527 3.9717715 0.082375363 15
2.3761697 3.6984251 0.23038292 15
2.3298259 3.6207321 0.37668711 16
2.5801184 4.0050964 0.58497292 15
4.1926961 6.5008025 1.2251948 3
4.0883842 6.3293681 1.4646499 6
nan nan nan nan
6.0085669 9.2807322 2.9624429 26
1.3166215 2.0220068 -0.64653003 35
1.4143362 2.1695876 -0.59791994 16
1.5466034 2.3688688 -0.54991156 24
1.7324868 2.6505461 -0.50152892 22
1.9668413 3.0045047 -0.44092333 19
2.2170091 3.3827891 -0.35385233 19
2.5386586 3.8691535 -0.24252485 18
2.6685524 4.0609403 -0.084818691 7
2.5546837 3.9203727 0.081677265 11
2.4281225 3.7218921 0.23289503 16
2.3435225 3.5881088 0.37494397 21
2.5949762 3.967051 0.582048 23
6.421896 9.8062162 1.8565645 1
4.1723108 6.3614125 1.4787698 7
4.09022 6.2291365 1.7204257 23
5.7962451 8.8172264 2.8273394 44
1.3278589 2.0077002 -0.64497709 38
1.4330517 2.1642861 -0.59926963 40
1.5522553 2.341651 -0.54609537 23
1.7623352 2.6545379 -0.50465763 18
1.984472 2.9857407 -0.4401921 17
2.2427783 3.3705463 -0.35420093 15
2.5529897 3.8309441 -0.24126878 16
2.6002846 3.8974903 -0.081781976 19
2.4330301 3.6773014 0.076965116 11
2.3973255 3.6178465 0.22745208 16
2.3768482 3.5828686 0.37616417 33
2.5567136 3.8496211 0.5674237 17
6.2906041 9.4573755 1.7989967 1
4.2122674 6.325593 1.4772433 13
4.1584697 6.2377229 1.7307734 42
6.8407245 10.245612 3.3009782 20
1.3343054 1.9871534 -0.64135361 28
1.4252968 2.1202652 -0.5898217 33
1.5667791 2.3272259 -0.54533213 30
1.7543263 2.6028578 -0.49714881 22
2.0208116 2.9948516 -0.44360444 15
2.2367196 3.30984 -0.34949452 31
2.5393825 3.7534747 -0.23750059 14
2.5668755 3.7898352 -0.079897113 8
2.4001696 3.5718288 0.075115159 32
2.3701274 3.5231349 0.22253251 27
2.3628497 3.5083492 0.37006328 15
2.5553341 3.7884388 0.56108648 23
6.39185 9.4656134 1.8090084 18
4.2277374 6.2537432 1.4673213 23
4.1647611 6.1513276 1.715027 23
6.1923695 9.135788 2.9572666 30
1.3405292 1.9666159 -0.63773018 33
1.4598362 2.1392372 -0.59791994 34
1.5796659 2.3113678 -0.54418731 34
1.7613018 2.5742431 -0.4940201 26
2.0270882 2.9593794 -0.44043583 24
2.2811852 3.3253615 -0.35280645 14
2.5711768 3.7438881 -0.23802395 14
2.5604141 3.7240376 -0.078884877 16
2.4712477 3.6227162 0.076546252 15
2.3957903 3.508153 0.22263718 30
2.3917811 3.4983478 0.37076053 27
2.5166724 3.6755071 0.54694968 13
6.5672312 9.5804329 1.8396695 4
4.3790483 6.3810945 1.5043381 10
4.2175374 6.1365561 1.719076 53
6.3403177 9.2148809 2.9971247 20
1.3575228 1.9619759 -0.63928306 43
1.4647474 2.1145766 -0.59387082 39
1.5879303 2.2889915 -0.54151595 42
1.7837375 2.5683739 -0.49527156 26
2.0488324 2.9467852 -0.44067958 16
2.2827146 3.2782874 -0.34949452 10
2.5641305 3.6783304 -0.23498847 22
2.5886412 3.7093506 -0.078954689 3
2.4714344 3.5692065 0.075778343 13
2.3769848 3.4289668 0.21865964 27
2.3513975 3.3882649 0.36082479 20
2.5717251 3.7002304 0.55328691 15
3.1917424 4.5871925 0.88510633 3
4.4549069 6.3954759 1.5150236 50
4.5256376 6.487349 1.8261527 27
6.243 8.9391527 2.9215493 34
1.358974 1.9350606 -0.63358909 27
1.4839575 2.1106758 -0.59567046 31
1.6196946 2.300324 -0.54685861 30
1.8027614 2.5574737 -0.49558446 23
2.0464625 2.8999729 -0.43580481 16
2.303246 3.259017 -0.34914589 5
2.5666764 3.6277311 -0.23289503 20
3.2536449 4.5935869 -0.09825705 6
2.4721472 3.5175076 0.075045347 32
2.3767323 3.3779852 0.21646154 17
2.36467 3.3571053 0.35925597 17
2.5391371 3.5994589 0.54085618 12
2.9433687 4.1678591 0.80814058 16
4.5844493 6.4844494 1.5436448 12
4.4852309 6.3347249 1.7919602 23
nan nan nan nan
1.37884 1.9352053 -0.63669485 38
1.5016849 2.1052852 -0.59702015 33
1.617056 2.2636855 -0.54075271 41
1.8247254 2.5515697 -0.49683592 22
2.0476668 2.8601494 -0.431905 20
2.3074002 3.2193785 -0.34653121 13
2.6006255 3.6231575 -0.2337324 22
2.5741906 3.5823679 -0.077000014 9
2.4240525 3.3996522 0.072881252 22
2.3764615 3.3292186 0.2143681 16
2.414108 3.3782165 0.36326513 17
2.5682001 3.5885491 0.54183114 11
3.0084851 4.1991124 0.81815231 13
4.3515735 6.0670252 1.4512933 28
7.6664834 10.67691 3.03459 22
6.3205423 8.7894888 2.9008439 26
1.3651496 1.8879608 -0.62427157 40
1.5174886 2.096329 -0.59747005 36
1.6381873 2.2605748 -0.54266083 28
1.8246503 2.5151072 -0.49214289 22
2.0792513 2.8618453 -0.43434238 17
2.3098948 3.175801 -0.34356794 21
2.6264031 3.6069865 -0.23383708 18
2.8465641 3.9036124 -0.08433003 15
2.4905012 3.4430227 0.074172728 15
2.3932102 3.3048763 0.21384473 16
2.3896763 3.2951517 0.35611835 11
2.572741 3.5436761 0.5376876 12
2.9150538 4.010757 0.78530115 10
4.4388828 6.0984025 1.4661764 28
7.65591 10.506581 3.0012972 38
nan nan nan nan
1.3951068 1.9019914 -0.63203615 35
1.5224946 2.0733857 -0.59387082 29
1.6643971 2.2633178 -0.54609537 27
1.8351377 2.4927626 -0.49026567 26
2.0916169 2.838038 -0.43287995 13
2.3196297 3.1439722 -0.34182483 17
2.6610157 3.6014135 -0.23467445 18
2.8326349 3.8294861 -0.083143272 17
2.5014613 3.4078195 0.073788777 20
2.4079459 3.2768226 0.21311203 19
2.4037857 3.2675745 0.35489815 35
2.6021276 3.5320215 0.53866255 12
2.8444924 3.8567677 0.75902009 27
4.7718239 6.4628959 1.5615808 32
nan nan nan nan
3.548136 4.7932839 1.5979488 12
1.3772092 1.8503623 -0.61805987 38
1.5346048 2.0595803 -0.59297103 36
1.6832858 2.2566569 -0.5472402 28
1.839062 2.4628031 -0.48682413 28
2.0899789 2.7947524 -0.42849267 15
2.3367476 3.1213207 -0.34112757 13
2.6303711 3.5096979 -0.22985955 22
2.8989131 3.8623953 -0.084295124 12
2.5269864 3.3939228 0.073858589 13
2.3609636 3.1674788 0.20704105 21
2.4622939 3.2986121 0.36012751 8
2.5797658 3.4522114 0.52915668 16
2.9262938 3.9116583 0.77372491 12
4.8356614 6.4545641 1.5676868 14
4.6337242 6.1782789 1.7829622 6
3.5667617 4.7504826 1.5917372 7
1.3792961 1.8270694 -0.61340117 61
1.5474124 2.0475328 -0.59252113 24
1.6824123 2.2229342 -0.54189759 45
1.8526319 2.4451804 -0.4858855 28
2.0933597 2.7598999 -0.42532405 16
2.3416078 3.0827198 -0.33868721 17
2.6378827 3.4689922 -0.22839414 22
2.5811453 3.3906934 -0.074382156 12
2.3939188 3.1687746 0.069320954 19
2.3938637 3.1652546 0.20798311 15
2.420949 3.1975868 0.350889 35
2.5282428 3.3344643 0.51380116 25
3.0980408 4.0815225 0.81158209 18
4.5255165 5.955677 1.4539646 12
4.6720233 6.139575 1.7811625 4
nan nan nan nan
1.3943671 1.8204628 -0.61443645 35
1.5509973 2.0227618 -0.58847201 41
1.6954978 2.2080212 -0.54113436 40
1.8624328 2.4227912 -0.48400828 26
2.119839 2.7546577 -0.42678648 27
2.3448291 3.0426254 -0.33607253 14
2.6986365 3.4979324 -0.2315343 18
2.5778635 3.3377731 -0.073614255 16
2.4415293 3.1853142 0.070053965 23
2.4013128 3.1294508 0.20672706 27
2.4031606 3.1284664 0.34513673 22
2.5381479 3.2994242 0.51112008 15
2.9480822 3.8281627 0.7652775 39
4.8031282 6.2302389 1.5291433 37
4.7373962 6.1361189 1.7897106 19
7.2749348 9.4126673 3.1876156 1
1.4236385 1.8320392 -0.62168342 20
1.5722611 2.0211127 -0.59117138 39
1.7096648 2.1945817 -0.54075271 34
1.8707982 2.3988261 -0.4818182 23
2.1255808 2.72258 -0.42410538 15
2.3512859 3.0073471 -0.3339808 16
2.7069879 3.4585609 -0.23017356 16
2.5431356 3.2457139 -0.071973726 16
2.4931676 3.2060783 0.070891678 23
2.4365962 3.1299474 0.20787844 5
2.3894246 3.06604 0.34008169 18
2.5428002 3.2581503 0.50746399 26
2.9723034 3.8043745 0.76465172 15
4.9529438 6.3326411 1.5627258 24
7.3756633 9.4166822 2.7614994 2
7.2331882 9.2248268 3.1410282 1
1.4340008 1.8190222 -0.62064809 42
1.5790883 2.0009093 -0.58847201 27
1.7285973 2.1872127 -0.54189759 29
1.8703415 2.364018 -0.47743803 18
2.1482351 2.7123418 -0.42483655 34
2.3685098 2.9861758 -0.33345786 27
2.6801448 3.3754487 -0.22588199 9
2.8419645 3.5754032 -0.079722598 27
2.4659474 3.1257958 0.069495484 29
2.4262033 3.072108 0.20515697 12
2.3848226 3.0164621 0.33642116 18
2.5704119 3.2465456 0.50843894 27
2.9852936 3.7665024 0.7612102 12
4.9665265 6.25946 1.5531853 24
7.3684845 9.2734165 2.7345052 2
7.2396884 9.1015348 3.1161816 3
1.4454587 1.807458 -0.62013048 45
1.5881473 1.9837512 -0.58667237 41
1.7462797 2.1781557 -0.54266083 33
1.895455 2.3616869 -0.47962815 18
2.1459818 2.6709707 -0.42069301 27
2.4030397 2.9866421 -0.33537531 14
2.7048995 3.3582103 -0.22598669 18
2.8505404 3.5352371 -0.079268835 14
nan nan nan nan
2.485055 3.1018569 0.20829713 23
2.4083164 3.0028481 0.33676979 23
2.5669103 3.1960194 0.5033204 26
2.9904723 3.7193995 0.75589144 15
5.1676674 6.4203997 1.6020325 4
7.3498855 9.118577 2.7039118 2
7.3309546 9.08535 3.128087 1
1.4677783 1.8093249 -0.62427157 39
1.5945867 1.9635391 -0.58397299 31
1.7577274 2.1613419 -0.54151595 42
1.9168839 2.3545249 -0.4808796 26
2.1557963 2.6451535 -0.41898686 16
2.4024155 2.9435525 -0.332412 16
2.7295418 3.3407912 -0.22609136 22
2.6384041 3.2257957 -0.072741628 21
2.5257349 3.111244 0.069949247 23
2.5885262 3.1851788 0.2151008 5
2.4870615 3.0570548 0.3447881 12
2.58916 3.1780212 0.5033204 16
2.8415759 3.4841182 0.71208972 24
5.2955537 6.4860573 1.6276009 17
7.4392653 9.0987282 2.7133598 2
3.5716808 4.3637443 1.5109856 6
1.475463 1.7930673 -0.62220097 47
1.6169282 1.9628885 -0.58712232 33
1.770275 2.1459889 -0.54075271 42
1.9282438 2.3349926 -0.47962815 27
2.1653571 2.619329 -0.41728067 13
2.4063883 2.9067585 -0.33014596 14
2.7464249 3.3139665 -0.22556801 15
2.7515118 3.3165686 -0.075219877 16
2.4901917 3.0240693 0.06837853 18
2.4328408 2.9512722 0.20044672 26
2.5134144 3.0457654 0.34548536 9
2.6163433 3.1659873 0.50429535 15
2.8532407 3.4489737 0.70896107 15
7.5471168 9.1131725 2.3000119 4
7.5100694 9.0555706 2.7160592 8
7.4163656 8.9330616 3.1110051 33
1.4706155 1.7619587 -0.61495411 33
1.6230963 1.9425789 -0.58442289 30
1.7776535 2.1245446 -0.538463 42
1.9406916 2.316932 -0.47868952 22
2.1746621 2.5935001 -0.41557449 13
2.3997171 2.857846 -0.32648543 19
2.7360799 3.2549613 -0.22284654 11
2.7887611 3.3141091 -0.075603828 16
2.7073739 3.24143 0.073718965 20
2.4764457 2.961796 0.20233083 8
2.677844 3.1992602 0.36500823 6
2.6613348 3.1750305 0.50868267 11
3.0689797 3.6574683 0.75620425 18
7.6219144 9.0737934 2.3034463 19
7.600709 9.0357246 2.7259572 32
7.4063811 8.7953568 3.080982 24
1.5028521 1.7752402 -0.6232363 26
1.6290591 1.9222803 -0.58172351 33
1.7835511 2.1016035 -0.5357917 28
1.947868 2.2927878 -0.47649944 21
2.2132919 2.6024497 -0.4194743 9
2.4255722 2.8490307 -0.32735696 17
2.7496665 3.2251415 -0.22211383 21
2.6508574 3.1059511 -0.071275629 24
2.4533229 2.8959343 0.066249333 27
2.4531398 2.8926456 0.19877198 3
2.515722 2.9632909 0.34008169 11
2.6551483 3.1231005 0.5033204 30
2.9971378 3.5216253 0.73242623 19
7.6965346 9.0338116 2.3068807 46
nan nan nan nan
7.3873034 8.6494236 3.0478532 16
1.5152081 1.7647058 -0.6232363 12
1.6335477 1.9005153 -0.57857412 36
1.7990955 2.0909028 -0.53617334 18
1.9531161 2.2675025 -0.47399649 41
2.2028821 2.5538652 -0.41411206 11
2.4284754 2.8124232 -0.32509091 19
2.7493517 3.1806631 -0.2203344 17
2.5965688 2.9996767 -0.06925115 22
2.4716768 2.8776498 0.066214427 18
2.5235577 2.934942 0.20285419 11
2.524647 2.9320686 0.3385129 13
2.6906002 3.1214962 0.50600159 16
3.2584877 3.7763302 0.78999412 13
2.9664197 3.4329951 0.88191921 7
3.6168656 4.1813192 1.2763723 15
7.3789825 8.5215378 3.0204184 35
1.5195744 1.7456084 -0.62013048 11
1.6477267 1.8908213 -0.57902408 30
1.8149388 2.0797718 -0.53655493 24
1.9831928 2.2701771 -0.47743803 25
2.2136796 2.5313408 -0.41289338 12
2.4441128 2.7909043 -0.32456797 16
2.7965057 3.1899266 -0.22232316 17
2.6683683 3.0405495 -0.070612431 10
2.5074682 2.8784175 0.066633284 13
2.526921 2.8976839 0.20149344 26
2.4554493 2.8127511 0.32665971 21
2.8168495 3.2221971 0.52550066 7
3.1859057 3.640512 0.7662161 15
7.9303226 9.0523567 2.3393183 2
3.8695824 4.4108648 1.3546554 16
9.9967566 11.383087 4.0593181 18
1.5202174 1.7219225 -0.61547172 12
1.6621774 1.8807322 -0.57947397 31
1.7890786 2.0214756 -0.52472478 30
2.0003033 2.257755 -0.47775093 18
2.1851978 2.4638438 -0.4043625 12
2.4608898 2.7707951 -0.32421938 13
2.8319767 3.1852529 -0.22336988 20
2.5858297 2.9053357 -0.067889862 20
2.4891052 2.8173838 0.065621048 24
2.4372652 2.7557976 0.19280569 28
2.4948354 2.8179176 0.32927439 18
2.6759782 3.0182674 0.49527705 15
3.1535487 3.5531754 0.75244987 7
3.1203966 3.5121167 0.91321188 1
8.6049776 9.6716003 2.9886999 5
3.7325611 4.1908073 1.5037388 1
1.5334896 1.7127075 -0.61598933 19
1.6882727 1.8835946 -0.58397299 29
1.8293759 2.038156 -0.53235716 37
1.9935737 2.218755 -0.47243217 28
2.211638 2.4588597 -0.40606871 20
2.472173 2.7446649 -0.32317349 13
2.8073339 3.1134884 -0.21970637 17
2.5537965 2.8293188 -0.066528574 28
2.5407395 2.8356819 0.066458762 15
2.4924514 2.7788591 0.19563182 3
2.5397384 2.8285992 0.33258632 12
2.6850374 2.986228 0.49308339 21
3.1240933 3.4708772 0.73962224 27
9.0323753 10.024437 2.6228604 2
3.1044259 3.4405611 1.0698673 1
7.535109 8.3421955 3.0121362 16
1.5428119 1.6990995 -0.61495411 22
1.6908953 1.860226 -0.58037376 41
1.8501672 2.0325952 -0.53426522 39
2.0090139 2.2047842 -0.47243217 25
2.2514911 2.468293 -0.41021225 13
2.4899316 2.7258666 -0.32299918 15
2.8478723 3.1144478 -0.22117178 15
2.5761869 2.8143711 -0.066598386 26
2.5456805 2.8015964 0.066074811 19
2.5171666 2.7673008 0.19605052 6
2.5352798 2.7842813 0.3294487 13
2.7339084 2.9982138 0.49820194 15
4.9580917 5.4317098 1.1648113 5
3.0724521 3.3624084 0.8853538 1
nan nan nan nan
3.3326917 3.638272 1.3220477 3
1.5637966 1.698235 -0.61857754 31
1.6972369 1.8412117 -0.57812428 24
1.8603173 2.0153012 -0.53312039 31
1.9975446 2.161689 -0.46617478 15
2.2430563 2.4248269 -0.40558121 12
2.506192 2.7054949 -0.32265055 16
2.8953474 3.1223168 -0.22316055 20
2.5862474 2.7860594 -0.066354051 30
2.6261575 2.8499296 0.067645527 3
2.6000721 2.8186588 0.20097008 11
2.4789612 2.6845443 0.31968728 19
2.7076023 2.9280431 0.48967105 27
3.1118643 3.361686 0.72554308 21
3.163908 3.4143169 0.90481627 13
3.2489252 3.5011604 1.1027101 16
3.300159 3.5526395 1.2992717 27
1.5782504 1.6901008 -0.61961281 28
1.7047265 1.8236234 -0.57632464 23
1.8622662 1.9893652 -0.5296858 34
1.949103 2.0799448 -0.45146993 11
2.2531397 2.4018695 -0.4043625 13
2.5250189 2.6879325 -0.32265055 25
2.8048794 2.9827187 -0.21457745 31
2.8071227 2.9819741 -0.071485057 16
2.5886467 2.7701619 0.066179529 24
2.588305 2.766891 0.19856264 6
2.5970578 2.7733359 0.332412 14
2.6532946 2.8294282 0.47626543 12
5.0307431 5.3590732 1.1641854 10
3.2199323 3.4264832 0.91397518 30
3.1143651 3.3095114 1.0491717 7
3.0241838 3.2103102 1.1817677 6
1.5714154 1.659403 -0.6123659 35
1.7147348 1.8088492 -0.57542485 27
1.8612399 1.960654 -0.52548802 46
2.0139232 2.1192694 -0.46304604 12
2.2739575 2.3903959 -0.40509373 15
2.5272317 2.6529281 -0.32055882 16
2.8463097 2.984745 -0.21614751 28
2.8568687 2.9926789 -0.072218053 10
2.5694089 2.7113805 0.065202191 9
2.5195858 2.656018 0.19186363 31
2.5505013 2.6857893 0.32404503 20
2.6100574 2.7446649 0.46505347 16
4.9577112 5.2079306 1.1388431 8
3.3250391 3.4891963 0.93687224 15
3.3163278 3.475194 1.1090088 16
3.2386832 3.3902712 1.2563076 1
1.5789478 1.6442118 -0.61081296 24
1.7259707 1.7954292 -0.57497495 25
1.8789684 1.9518547 -0.52663285 27
2.0204461 2.0966227 -0.46116886 10
2.2878339 2.3716052 -0.40460625 17
2.5332313 2.6223245 -0.31898999 22
2.9031746 3.0021319 -0.21886899 26
2.9569731 3.0545557 -0.074207634 12
nan nan nan nan
2.593452 2.6959393 0.19605052 11
2.5470757 2.6449571 0.32125604 11
2.6002176 2.6963689 0.45993495 16
3.173353 3.2872515 0.72366595 9
3.0969248 3.2047203 0.86627293 7
nan nan nan nan
nan nan nan nan
1.5823004 1.6248451 -0.60770714 33
1.7221385 1.7665918 -0.56957608 32
1.889806 1.9358797 -0.52586961 20
2.0088022 2.0556228 -0.45522434 9
2.3029468 2.3541563 -0.4043625 12
2.5403242 2.5931883 -0.31759554 13
2.8723235 2.9290271 -0.21499613 24
2.7933109 2.8454728 -0.069600195 22
2.5930581 2.6609211 0.064853139 25
2.6401033 2.7063613 0.19814396 21
2.8146505 2.8822656 0.35245782 8
2.8257751 2.8896215 0.496252 11
3.1437128 3.2113776 0.71177691 13
3.1920485 3.2573404 0.88649869 5
3.2116554 3.2727716 1.0586197 16
3.077215 3.1324906 1.1765914 11
1.599035 1.6192573 -0.60977769 27
1.7440197 1.764227 -0.57272542 25
1.8963681 1.915664 -0.52396154 30
2.0203223 2.0387435 -0.45459861 10
2.3011503 2.3197014 -0.40119389 8
2.548537 2.5654955 -0.31637534 25
2.8560858 2.8720815 -0.21227466 15
2.8892906 2.9024317 -0.071485057 31
2.6143842 2.645597 0.064922951 33
2.5563972 2.5842102 0.1905029 31
2.6678741 2.6940768 0.33171475 18
nan nan nan nan
nan nan nan nan
3.261764 3.2823226 0.89947367 24
3.257792 3.2737546 1.0662681 9
3.1971719 3.209475 1.2138613 27
1.6182203 1.6165272 -0.61288351 25
1.7546088 1.7509385 -0.57227552 29
1.9051927 1.8985531 -0.52281672 32
2.0467534 2.0374858 -0.45741442 9
2.2999969 2.2871861 -0.39826906 5
2.5810447 2.563982 -0.31829277 15
2.8571343 2.8342896 -0.21091393 54
2.793926 2.7686858 -0.068657771 15
2.6082714 2.603724 0.064329572 12
2.5824125 2.5752122 0.19113094 28
2.7821333 2.7714729 0.34356794 12
2.7527606 2.7383864 0.47675291 12
3.2395353 3.2192464 0.72335303 16
nan nan nan nan
3.103699 3.0778084 1.0091305 58
3.0734415 3.0435476 1.1589917 5
1.6212091 1.5970562 -0.60977769 25
1.769568 1.7413801 -0.57317531 29
1.9138707 1.881413 -0.52167183 31
2.0591645 2.0221238 -0.45710155 7
2.3144903 2.269685 -0.39802533 4
2.5704153 2.5180168 -0.31480655 18
2.9662914 2.9027815 -0.21750826 19
2.6987729 2.6373024 -0.065865383 33
2.640182 2.5999408 0.064678617 5
2.6070008 2.5645781 0.19165429 30
2.6692319 2.6221323 0.32735696 13
2.7543347 2.7029011 0.47382805 28
2.9947658 2.9357636 0.66422081 22
3.3053055 3.2356663 0.89909208 16
3.1892009 3.1187401 1.0298259 13
3.1313968 3.0590072 1.1729679 11
1.6278862 1.5819451 -0.60822481 43
1.7813802 1.7292947 -0.57317531 21
1.9311877 1.8721051 -0.52281672 24
2.0604599 1.995331 -0.45428574 9
2.3170447 2.241456 -0.39583167 8
1.9932517 1.9255342 -0.24246727 10
2.9160624 2.8140435 -0.21237932 38
2.7742476 2.6743865 -0.067261577 24
2.6683109 2.5911975 0.064922951 24
2.6391771 2.5602217 0.19270101 17
2.5725551 2.4929802 0.31341204 13
2.7602985 2.6711819 0.47163439 23
3.2168622 3.1097457 0.7086482 13
3.191679 3.0821671 0.86245668 20
3.7565665 3.6226115 1.2048379 29
3.6535449 3.5195699 1.3593177 27
1.6305217 1.5625218 -0.60511893 24
1.7821478 1.7060355 -0.56957608 29
1.9371136 1.8517951 -0.52090853 22
2.0714827 1.9781693 -0.45366001 11
2.3355103 2.2279646 -0.39631912 16
2.5764699 2.4543979 -0.3113203 24
2.9544456 2.811516 -0.21374007 15
2.8218374 2.6825089 -0.067959674 4
2.6661162 2.553143 0.064434282 29
2.616576 2.503077 0.18977019 25
2.6691206 2.5506673 0.32299918 18
2.7515936 2.6258078 0.46700338 21
3.5301728 3.3652656 0.77247345 19
nan nan nan nan
nan nan nan nan
3.6192007 3.4380951 1.3375769 9
1.6441985 1.5537542 -0.6061542 31
