# .PCD v0.7 - Point Cloud Data file format
VERSION 0.7
FIELDS x y z intensity
SIZE 4 4 4 4
TYPE F F F F
COUNT 1 1 1 1
WIDTH 1491
HEIGHT 1
VIEWPOINT 0 0 0 1 0 0 0
POINTS 1491
DATA ascii
-8.0981407 43.355656 2.31147 43
-8.0557508 43.254173 3.8493204 21
-8.0200577 43.23016 5.3985686 24
-7.9866672 43.176208 6.9544511 34
-7.9507957 43.108463 8.5207672 33
-7.915997 43.08852 10.11425 48
nan nan nan nan
-0.6216923 3.4448667 -0.93796021 5
-0.71986312 4.0008259 -0.93849593 6
-0.84604478 4.7210207 -0.93229276 4
-1.0353539 5.794858 -0.93234956 3
-1.3423499 7.5358953 -0.93985647 2
-1.7578952 9.9088364 -0.88044727 8
-2.9723785 16.805744 -0.89442152 18
-4.9683585 28.17697 -0.49941805 25
-7.8026953 43.322235 0.76835966 19
-7.7782993 43.31678 2.3064458 42
-7.7430301 43.250526 3.8440912 21
-7.6995916 43.181526 5.3856502 24
-7.6681046 43.135612 6.9391208 34
-7.633203 43.070129 8.502449 33
-7.5983925 43.048702 10.092205 48
nan nan nan nan
-0.59729767 3.4472194 -0.93744266 6
-0.68494892 3.9654276 -0.92904788 4
-0.80574334 4.6842456 -0.92389715 3
-0.98418969 5.7396417 -0.92233771 3
-1.2716455 7.4394202 -0.92669457 2
-1.6897423 9.9166441 -0.8800987 13
-2.8135505 16.581917 -0.88144225 11
-4.8048735 28.408136 -0.50290853 25
-7.4888363 43.310631 0.7672078 19
-7.4546881 43.247993 2.2999563 42
-7.4206719 43.185711 3.8336325 20
-7.3857107 43.117496 5.3712697 24
-7.355793 43.12384 6.9287963 34
-7.315197 43.021729 8.482605 33
-7.2905374 43.012962 10.071959 48
nan nan nan nan
-0.57065076 3.4321485 -0.93226624 6
-0.655711 3.9565406 -0.92589861 6
-0.76489007 4.6353836 -0.91321188 3
-0.93868655 5.7072244 -0.91608036 3
-1.2068436 7.361711 -0.91597003 2
-1.6154509 9.8866234 -0.87643814 8
-2.6826644 16.490288 -0.87558067 17
-3.0495117 18.807472 -0.33257309 8
-7.1755285 43.250134 0.76525313 19
-7.1464486 43.214973 2.2955601 42
-7.1184416 43.186069 3.8292744 20
-7.0830369 43.111923 5.3644452 23
-7.0426559 43.053989 6.9097114 34
-7.0136781 43.018204 8.4723015 33
-6.9788547 42.946182 10.044966 47
nan nan nan nan
-0.54332685 3.4111516 -0.92553693 6
-0.62571102 3.9416654 -0.92139959 4
-0.72994941 4.6191521 -0.90901417 5
-0.89121205 5.658844 -0.90732002 3
-1.1474756 7.3109221 -0.90865791 2
-1.5448567 9.8878174 -0.8755666 12
-2.5377848 16.298977 -0.86448544 11
-2.916832 18.798153 -0.33204949 16
-6.8731208 43.248596 0.76438046 18
-6.8415046 43.195541 2.292001 42
-6.8084755 43.133156 3.820385 20
-6.7689242 43.077961 5.354208 23
-6.7371879 43.022873 6.8971968 34
-6.7064519 42.973785 8.4543657 33
-6.669291 42.932236 10.030568 47
nan nan nan nan
-0.51688278 3.3976729 -0.92087817 6
-0.5937947 3.9170368 -0.91465098 4
-0.69329256 4.595016 -0.90328985 3
-0.84228885 5.6024179 -0.89730817 3
-1.0775888 7.1931109 -0.89305866 2
-1.4799023 9.9259491 -0.87800694 13
-2.2906902 15.419384 -0.81696433 4
-2.7948949 18.881359 -0.33316642 16
-6.5533166 43.178879 0.76232111 18
-6.5272322 43.159309 2.2876048 42
-6.4947133 43.096893 3.8130639 20
-6.455966 43.043674 5.3442149 23
-6.427052 43.004383 6.8868718 33
-6.3912582 42.918579 8.4345217 32
-6.353672 42.871731 10.005824 47
nan nan nan nan
-0.49314991 3.4011984 -0.92087817 5
-0.56058317 3.880584 -0.9052031 4
-0.66007686 4.5919709 -0.90176338 3
-0.79503238 5.5514555 -0.88823503 2
-1.0200515 7.1493635 -0.88672143 2
-1.4184113 9.9912729 -0.8828876 13
-2.1379564 15.116611 -0.80011219 4
-2.6934204 19.116245 -0.33697107 8
-6.2411413 43.150345 0.76102966 37
-6.2143898 43.124752 2.2834179 42
-6.1798286 43.04454 3.8045223 20
-6.1432362 43.003197 5.333734 23
-6.1110821 42.938686 6.8693509 33
-6.0798993 42.880516 8.4184933 32
-6.0428033 42.833992 9.986928 47
nan nan nan nan
-0.46622849 3.3815932 -0.91466653 7
-0.53215408 3.8747499 -0.90295362 4
-0.62534511 4.5770159 -0.89794719 3
-0.75279355 5.5314245 -0.88416773 2
-0.95838159 7.0697584 -0.87599689 2
-1.3488909 10.002907 -0.88306201 4
-2.0020607 14.905506 -0.78817958 4
-2.6060369 19.479458 -0.34304449 8
-5.9323878 43.139378 0.76008719 18
-5.8996181 43.06815 2.2781844 41
-5.8702822 43.021496 3.7987702 20
-5.8297839 42.94865 5.3217912 23
-5.8011069 42.905914 6.8574619 33
-5.7709551 42.851864 8.4047546 65
-5.7337861 42.801739 9.9698315 46
nan nan nan nan
-0.43960327 3.3617795 -0.9084549 7
-0.5023219 3.8571136 -0.89800465 2
-0.5873239 4.5345416 -0.88878828 5
-0.70834625 5.4914851 -0.87697172 2
-0.89837939 6.9935822 -0.86575991 2
-1.2573118 9.8421144 -0.86807114 4
-1.9077818 14.99639 -0.79226178 4
-3.7220616 29.380667 -0.5169403 26
-5.6181231 43.080601 0.75834197 18
-5.5910645 43.04887 2.2750442 41
-5.5610814 42.994247 3.7928436 20
-5.5219736 42.927269 5.3142352 23
-5.4916573 42.86895 6.8452601 33
-5.4639711 42.830738 8.3929253 64
-5.4250226 42.763393 9.9518356 46
nan nan nan nan
-0.41280341 3.3379247 -0.90120792 6
-0.4730002 3.8411851 -0.89350563 2
-0.54945171 4.4878654 -0.87886631 5
-0.66330093 5.4413915 -0.86821139 2
-0.8428396 6.9445057 -0.85893518 2
-1.1709088 9.704278 -0.8551721 4
-1.7675468 14.713878 -0.77666569 4
nan nan nan nan
-5.3113532 43.07114 0.75750428 18
-5.2777333 42.983768 2.2696013 41
-5.2503934 42.946983 3.7853482 19
-5.2132668 42.891861 5.3052168 23
-5.1860504 42.855259 6.8371253 33
-5.1565828 42.799622 8.3795681 32
-5.1189504 42.738308 9.937439 46
nan nan nan nan
-0.38680407 3.3176994 -0.89499629 7
-0.44437307 3.828908 -0.88990641 2
-0.51360768 4.4525847 -0.87123388 5
-0.61876208 5.3889775 -0.85913813 2
-0.7863723 6.8911901 -0.85162306 2
-1.0748045 9.4627781 -0.83320886 3
-1.6760067 14.825088 -0.78189927 13
-2.4173574 21.51734 -0.3779493 12
-4.9994688 43.011826 0.75582886 18
-4.9715738 42.967983 2.2668798 41
-4.942481 42.913315 3.7792473 19
-4.9067001 42.86607 5.2976608 23
-4.8735447 42.77462 6.818666 32
-4.8384771 42.732037 8.3593426 32
-4.8134522 42.711037 9.9230423 46
nan nan nan nan
-0.36137661 3.3050187 -0.89085519 7
-0.41274667 3.7932439 -0.88090837 4
-0.48229676 4.4541106 -0.87085229 5
-0.57638055 5.3579144 -0.85350657 2
-0.72852433 6.805717 -0.84041107 2
-1.0011188 9.3987293 -0.82693368 3
-1.54571 14.608293 -0.769862 9
-2.2687645 21.549603 -0.37822855 12
-4.6877837 42.94231 0.75401378 18
-4.6592364 42.958775 2.2645769 41
-4.6277909 42.878254 3.7731464 19
-4.5988607 42.820332 5.2879114 22
-4.5623021 42.761261 6.8111572 32
-4.5356808 42.723774 8.3513288 63
-4.5071716 42.668015 9.9054947 45
nan nan nan nan
-0.33789971 3.3036177 -0.88981992 6
-0.38467839 3.7805226 -0.87730914 4
-0.44824255 4.4359617 -0.86665452 8
-0.53421968 5.3146372 -0.84599775 5
-0.6730904 6.7316279 -0.83066154 2
-0.92285407 9.2786016 -0.81577778 3
-1.4289656 14.469658 -0.76201159 13
-2.1276479 21.66044 -0.379904 12
-4.3755088 42.92701 0.75317603 18
-4.3465204 42.865067 2.2579827 41
-4.3227329 42.854012 3.7682657 19
-4.2852049 42.781033 5.2791367 22
-4.2595692 42.75079 6.8045869 32
-4.2307386 42.687965 8.3383532 63
-4.2021294 42.626686 9.8888493 45
nan nan nan nan
-0.31226382 3.2789719 -0.88257295 7
-0.35533631 3.7520752 -0.87011075 5
-0.41398779 4.3959084 -0.8582589 5
-0.49563724 5.292582 -0.84193045 2
-0.61836576 6.6531458 -0.8204245 2
-0.8397246 9.0864248 -0.79834664 3
-1.3048551 14.200606 -0.74735755 17
-1.9912571 21.838064 -0.38276619 12
-4.0786705 42.90802 0.75233835 18
-4.0508871 42.853893 2.2558894 41
-4.0163779 42.807766 3.761642 19
-3.9859746 42.72422 5.2686558 22
-3.9597156 42.684376 6.7895694 32
-3.9266784 42.651951 8.3257599 31
-3.8983972 42.589005 9.8735523 45
nan nan nan nan
-0.28908855 3.2713995 -0.8799848 8
-0.32910818 3.7466419 -0.86831111 4
-0.38141379 4.3771772 -0.85406113 5
-0.45628962 5.2683611 -0.83755022 2
-0.56523323 6.5662231 -0.80921251 2
-0.7652877 8.9450293 -0.78544754 3
-1.1999429 14.141706 -0.74379867 17
-1.8644176 22.110153 -0.3873038 13
nan nan nan nan
-3.7439525 42.793587 2.2512836 40
-3.7181687 42.756699 3.7548435 19
-3.6845355 42.715412 5.2642689 22
-3.657408 42.661777 6.7817478 32
-3.6317639 42.624874 8.3154564 63
-3.7544193 44.338867 10.273066 50
nan nan nan nan
-0.26483181 3.2560089 -0.87532604 5
-0.30105829 3.7255394 -0.8629123 5
-0.34878239 4.3444467 -0.84719193 5
-0.41382238 5.188642 -0.82440978 2
-0.51468849 6.5106416 -0.80190039 2
-0.69097108 8.7991972 -0.77219987 3
-1.1117318 14.253089 -0.74924165 17
-2.2922451 29.655012 -0.51917416 27
nan nan nan nan
-3.4497094 42.782246 2.2493997 40
-3.4149766 42.724018 3.7497885 19
-3.3883526 42.672218 5.2559814 22
-3.3632052 42.638424 6.7742386 32
-3.3319554 42.621788 8.3101139 31
-3.6143532 46.547806 10.778756 57
nan nan nan nan
-0.24252072 3.2558093 -0.87480837 8
-0.27454418 3.7119546 -0.85931307 5
-0.31758326 4.3350277 -0.84490222 5
-0.37586921 5.1677623 -0.82065529 2
-0.46635383 6.4585562 -0.79507565 2
-0.62241495 8.704442 -0.7634843 3
-1.0158759 14.312302 -0.75196314 21
-2.085839 29.606094 -0.51805723 54
nan nan nan nan
-3.1456499 42.733578 2.2456315 40
-3.1192913 42.680698 3.7440362 19
-3.0857961 42.631477 5.2481818 22
-3.0620732 42.613575 6.7667298 32
-3.2378986 45.392902 8.8459053 37
-3.3946047 48.062874 11.12383 62
nan nan nan nan
-0.21952486 3.2535682 -0.87377316 15
-0.24758181 3.6982257 -0.85571384 6
-0.28575617 4.3136315 -0.84032285 5
-0.33745298 5.1347799 -0.8150236 2
-0.41583246 6.3784575 -0.78483868 2
-0.55137318 8.5495138 -0.74953938 3
-0.92434728 14.450596 -0.75887144 22
-1.8779593 29.601974 -0.51774311 53
nan nan nan nan
-2.8429897 42.690727 2.2422819 40
-2.8184893 42.659687 3.7403758 18
-2.7843418 42.594536 5.2411132 22
nan nan nan nan
-3.013891 46.860298 9.1275396 41
nan nan nan nan
nan nan nan nan
-0.19540471 3.2318819 -0.86756152 22
-0.21965688 3.6648498 -0.8476156 2
-0.25261602 4.2645664 -0.83040082 5
-0.29858705 5.0857396 -0.80688912 5
-0.36944735 6.3494968 -0.78093886 2
-0.48504505 8.4377861 -0.7394293 3
-0.8316251 14.600266 -0.76640785 27
-1.6661967 29.524521 -0.51617241 53
-1.5600921 25.953194 0.45383239 42
-2.5418148 42.657696 2.2395606 40
-2.5174487 42.624626 3.7356694 18
nan nan nan nan
nan nan nan nan
-2.8129282 49.083282 9.5564785 46
nan nan nan nan
nan nan nan nan
-0.17201369 3.2177343 -0.86342037 35
-0.1938618 3.6624019 -0.84671581 4
-0.22140387 4.2387781 -0.82505816 5
-0.26103204 5.048245 -0.80063164 5
-0.32236779 6.2983937 -0.77435786 2
-0.42150545 8.3494339 -0.73141098 3
-0.7389437 14.79123 -0.7761423 4
nan nan nan nan
-1.3858658 26.095245 0.45613611 8
-2.2395408 42.59063 2.2351642 40
-2.2182577 42.611317 3.7330546 18
nan nan nan nan
-2.4948893 49.080051 7.7835541 47
-2.5491312 50.670338 9.8617725 49
nan nan nan nan
nan nan nan nan
-0.14900753 3.207278 -0.86031455 30
-0.16900405 3.6792395 -0.85031503 6
-0.19056416 4.2127624 -0.81971544 5
-0.22446127 5.0203433 -0.79593867 5
-0.27593827 6.2449622 -0.76753318 2
-0.35697281 8.2088556 -0.71886051 2
-0.61439639 14.301165 -0.75018364 4
nan nan nan nan
-1.2040215 26.112278 0.4562757 59
-1.9410564 42.581287 2.2339082 40
nan nan nan nan
-1.9530967 44.027737 5.411243 24
nan nan nan nan
-2.3998873 55.409988 10.780709 57
nan nan nan nan
nan nan nan nan
-0.12668906 3.2101705 -0.86083221 32
-0.13853687 3.5576522 -0.82197124 9
-0.16084883 4.2061434 -0.81818902 5
-0.18747142 4.9704647 -0.78780407 4
-0.22982498 6.1792903 -0.75924611 2
-0.29718503 8.1434526 -0.71293396 2
-0.49271542 13.698332 -0.7183634 4
nan nan nan nan
-1.0246764 26.195974 0.45760211 59
nan nan nan nan
-1.6749293 43.999939 3.8522837 21
-1.7506405 46.849228 5.7563767 29
-1.6176598 43.90654 6.9588313 35
-2.0969341 57.736584 11.230255 61
nan nan nan nan
nan nan nan nan
-0.10377467 3.1955299 -0.85669106 33
-0.11432041 3.5780101 -0.82647026 15
-0.13056061 4.1777296 -0.81246477 6
-0.15215977 4.9519076 -0.78467536 4
-0.18512164 6.1291556 -0.75290889 2
-0.2376098 8.0058804 -0.70073211 2
-0.38897747 13.421938 -0.70370936 4
nan nan nan nan
-0.8441323 26.276442 0.45889357 17
-1.3938999 44.109417 2.3128307 43
nan nan nan nan
nan nan nan nan
-1.3109562 43.912819 6.9582062 35
nan nan nan nan
nan nan nan nan
nan nan nan nan
-0.08141239 3.1942453 -0.8561734 35
-0.088947654 3.5631359 -0.82287103 28
-0.10130519 4.1451554 -0.80597723 21
-0.11759948 4.9172821 -0.77904367 4
-0.1410864 6.076715 -0.74632788 2
-0.1803602 7.9475884 -0.69550282 2
-0.28672448 12.933068 -0.67796004 4
-0.76364487 35.566387 -0.6209566 43
nan nan nan nan
-1.1554149 46.609703 2.4434614 47
nan nan nan nan
-1.0333457 43.848438 5.385407 24
nan nan nan nan
nan nan nan nan
nan nan nan nan
nan nan nan nan
-0.05963337 3.1927941 -0.85565579 37
-0.064410768 3.5480714 -0.8192718 33
-0.071747348 4.1104288 -0.79910809 21
-0.082398057 4.866631 -0.77090919 4
-0.098414622 5.9981418 -0.73657835 2
-0.12492561 7.8649616 -0.68818176 2
-0.19150868 12.611238 -0.66100323 3
nan nan nan nan
nan nan nan nan
nan nan nan nan
nan nan nan nan
-0.72781402 43.890312 5.3897939 24
nan nan nan nan
nan nan nan nan
nan nan nan nan
nan nan nan nan
-0.037364602 3.1950643 -0.8561734 41
-0.039617226 3.5464859 -0.81882185 35
-0.043476161 4.0833383 -0.79376549 26
-0.048992343 4.8394251 -0.76652896 4
-0.056240808 5.9669223 -0.73267853 2
-0.069060825 7.7580576 -0.67876893 2
-0.10288459 12.280715 -0.64362764 3
-0.29994142 39.0569 -0.68176085 52
nan nan nan nan
nan nan nan nan
nan nan nan nan
nan nan nan nan
nan nan nan nan
nan nan nan nan
nan nan nan nan
nan nan nan nan
-0.01553061 3.1778581 -0.8515147 32
-0.015544123 3.5622633 -0.82242107 30
-0.015002053 4.0933576 -0.79567355 26
-0.01516605 4.8277969 -0.76465172 18
-0.015522295 5.929451 -0.72804755 2
-0.014683446 7.6467772 -0.66900748 2
-0.016650282 11.921628 -0.62478673 3
-0.034104168 39.062035 -0.68183059 52
-0.18839037 41.513248 0.72462392 16
nan nan nan nan
nan nan nan nan
nan nan nan nan
nan nan nan nan
nan nan nan nan
nan nan nan nan
nan nan nan nan
0.006614944 3.1585708 -0.84633833 23
0.0092235114 3.5233104 -0.8134231 17
0.013378085 4.0344658 -0.78422499 29
0.018121501 4.7191405 -0.74744397 15
0.025552958 5.8559666 -0.71902919 4
0.038261399 7.5590291 -0.66133773 2
0.064286523 11.510025 -0.60322434 3
0.23830211 39.009331 -0.6809231 52
0.10191992 41.71352 0.72811437 16
nan nan nan nan
0.15284948 43.790462 3.831192 20
0.18318801 43.735176 5.3700514 24
nan nan nan nan
nan nan nan nan
nan nan nan nan
nan nan nan nan
0.028420305 3.1314025 -0.83909136 37
0.033895455 3.5309546 -0.81522268 16
0.04134148 4.0146427 -0.7804088 26
0.050936371 4.7070475 -0.74556679 19
0.066071592 5.8238864 -0.71512938 2
0.088953048 7.4948416 -0.65575975 2
0.14002204 11.141829 -0.58396471 3
0.50995219 38.954727 -0.68001556 52
0.36867028 39.116306 0.68280792 14
nan nan nan nan
0.4581435 43.746487 3.8275313 20
nan nan nan nan
nan nan nan nan
nan nan nan nan
nan nan nan nan
nan nan nan nan
0.049938243 3.1098804 -0.83339739 41
0.05818826 3.5091989 -0.81027377 26
0.068531163 4.0064163 -0.77888238 29
0.081023023 4.5959883 -0.72804612 23
0.10618272 5.7935119 -0.71147329 2
0.13909665 7.3785 -0.64564973 2
0.21074653 10.877029 -0.57014793 3
0.78171599 38.942226 -0.67987597 52
0.6312834 38.888954 0.67889863 14
nan nan nan nan
nan nan nan nan
nan nan nan nan
0.80752856 43.644409 6.9137788 34
nan nan nan nan
nan nan nan nan
nan nan nan nan
0.071283557 3.1171937 -0.83546793 30
0.081983849 3.5048251 -0.80937397 31
0.096075922 3.9881759 -0.77544779 26
0.11203992 4.5518651 -0.72116297 26
0.14416885 5.7351055 -0.70440483 2
0.18655735 7.2698283 -0.63623691 2
0.27909863 10.587788 -0.55507523 3
1.045176 38.876034 -0.67882884 52
0.90098178 38.807629 0.67757225 14
nan nan nan nan
nan nan nan nan
nan nan nan nan
nan nan nan nan
nan nan nan nan
nan nan nan nan
nan nan nan nan
0.092581272 3.1011722 -0.83132678 22
0.10591593 3.4866366 -0.80532485 26
0.12218764 3.9540701 -0.7689603 34
0.14314504 4.5549455 -0.7217887 24
0.18120822 5.6407075 -0.69294918 2
0.23496523 7.196661 -0.62996167 2
0.34242013 10.322149 -0.54125851 3
1.271859 37.548744 -0.65579158 48
1.1641749 38.76862 0.67701381 14
nan nan nan nan
nan nan nan nan
nan nan nan nan
nan nan nan nan
nan nan nan nan
nan nan nan nan
nan nan nan nan
0.11368965 3.1004701 -0.83132678 22
0.12841669 3.4527292 -0.7976765 34
0.14949194 3.9452736 -0.76743382 29
0.17266403 4.4946179 -0.71240264 20
0.21732466 5.555995 -0.68271214 2
0.28220287 7.1191936 -0.62333786 3
0.40100816 9.9842377 -0.52367365 3
1.5135561 37.039444 -0.6470654 47
1.4349319 38.763542 0.67708355 14
nan nan nan nan
1.6599241 43.605732 3.81777 20
nan nan nan nan
nan nan nan nan
nan nan nan nan
nan nan nan nan
nan nan nan nan
0.1355333 3.0918572 -0.8292563 35
0.15268874 3.4419878 -0.79542702 19
0.17483255 3.8951015 -0.75789338 27
0.20428261 4.4814272 -0.71052545 36
0.25189891 5.4631252 -0.67150015 2
0.32929522 7.0613241 -0.61845714 3
0.45742878 9.6639042 -0.50703079 3
nan nan nan nan
1.7046382 38.732605 0.67673451 14
nan nan nan nan
nan nan nan nan
nan nan nan nan
2.0197043 43.472633 6.8928161 34
nan nan nan nan
nan nan nan nan
nan nan nan nan
0.15623403 3.0734715 -0.82459748 22
0.17691451 3.44473 -0.79632682 24
0.20106591 3.8623815 -0.75178748 37
0.23597881 4.4877825 -0.71177691 18
0.28750861 5.4136581 -0.66565043 2
0.37837452 7.0548739 -0.61810851 3
0.51718646 9.518878 -0.4995991 6
nan nan nan nan
1.9811453 38.707428 0.67652506 14
nan nan nan nan
nan nan nan nan
2.3024783 43.497982 5.3483586 23
2.325366 43.498901 6.8993869 34
nan nan nan nan
nan nan nan nan
nan nan nan nan
0.17645867 3.051091 -0.81890345 30
0.20163853 3.4550838 -0.79902625 20
0.22723629 3.8589633 -0.75140589 36
0.26218614 4.4131117 -0.70020074 24
0.32208002 5.3580184 -0.65906948 2
0.41604078 6.8611412 -0.60137457 3
0.57197374 9.3516665 -0.49101597 3
nan nan nan nan
2.245055 38.701035 0.67666471 14
nan nan nan nan
2.5770597 43.505268 3.8128893 20
2.7671161 46.30304 5.6954422 28
nan nan nan nan
nan nan nan nan
nan nan nan nan
nan nan nan nan
0.19547598 3.0228298 -0.81165653 27
0.22248802 3.4127946 -0.78957826 37
0.25339687 3.8455288 -0.74911612 16
0.29141808 4.3875213 -0.6964463 24
0.35482821 5.3002434 -0.65224481 2
0.45747253 6.7626534 -0.59300768 3
0.623658 9.1481829 -0.48054877 3
nan nan nan nan
2.511663 38.630539 0.6757223 14
2.5495732 38.89904 2.0429866 33
nan nan nan nan
2.9054391 43.513603 5.3546958 23
nan nan nan nan
nan nan nan nan
nan nan nan nan
nan nan nan nan
0.21712846 3.0290985 -0.81372708 21
0.24420482 3.3820028 -0.78282976 26
0.2765258 3.7927566 -0.7391941 25
0.32233104 4.3893204 -0.69707209 37
0.38567257 5.2144899 -0.64200777 2
0.49992654 6.6957154 -0.5874297 3
0.6776256 9.0121584 -0.47364044 3
nan nan nan nan
2.7900572 38.733727 0.67785144 14
nan nan nan nan
nan nan nan nan
3.2012417 43.385357 5.3415337 23
3.2194495 43.323029 6.8806143 33
nan nan nan nan
nan nan nan nan
2.3283494 30.608694 8.2252693 17
0.23523884 2.9889913 -0.80337435 41
0.2668862 3.3685596 -0.78013033 26
0.30096394 3.7652926 -0.73423308 28
0.35217425 4.3771176 -0.69550771 22
0.41806123 5.1622057 -0.63591433 4
0.53772175 6.5968394 -0.57906276 3
0.72907013 8.8678703 -0.46631342 3
nan nan nan nan
nan nan nan nan
nan nan nan nan
nan nan nan nan
3.5126851 43.4688 5.3546958 23
nan nan nan nan
nan nan nan nan
2.5240846 30.635626 7.0967565 17
2.5414872 30.585918 8.2237167 17
0.2570903 2.9988248 -0.80648017 31
0.28855446 3.3452575 -0.77518135 11
0.32488912 3.7435975 -0.73041683 36
0.37079185 4.2467065 -0.6751712 16
0.450261 5.1156573 -0.63055205 4
0.57884294 6.5373545 -0.57418203 3
0.77577078 8.7095194 -0.45825368 3
1.758002 19.582253 -0.34318414 8
3.8369696 44.664669 0.78249609 20
nan nan nan nan
3.7794003 43.373348 3.8090546 20
nan nan nan nan
nan nan nan nan
2.9597888 33.295071 6.4974284 15
2.7358172 30.593964 7.0913577 17
2.7473705 30.542898 8.2169876 17
0.27393451 2.958533 -0.79612744 28
0.30896938 3.3179913 -0.76933265 27
0.35064787 3.737329 -0.7296536 34
0.39690286 4.2066488 -0.66922677 21
0.48094425 5.0689969 -0.62518978 3
0.61574757 6.4419203 -0.56616372 3
0.82604629 8.5945454 -0.45249674 3
1.6415743 16.986263 -0.29787767 13
4.147954 44.628826 0.7823565 20
nan nan nan nan
4.0727024 43.326775 3.8073113 20
nan nan nan nan
4.1134357 43.193726 6.8721666 33
2.9411912 30.714003 5.9975085 12
2.949322 30.57412 7.0913577 17
2.9627857 30.546047 8.2231989 17
0.29094312 2.9200242 -0.78629225 43
0.32901821 3.284729 -0.76213425 23
0.37594265 3.7269766 -0.72812718 28
0.42427033 4.1841221 -0.66609806 19
0.51451164 5.0477424 -0.62299615 1
0.65460002 6.3780055 -0.56093436 3
0.87987465 8.5289679 -0.44935656 3
1.5804716 15.241945 -0.26747561 10
4.4454732 44.459503 0.77991319 19
nan nan nan nan
nan nan nan nan
4.3949986 43.192928 5.3308091 23
2.3399994 22.877977 3.6424203 7
3.1541381 30.67905 5.9948373 84
3.1645181 30.570229 7.0954065 17
3.1729517 30.495796 8.2154341 17
0.31132025 2.917922 -0.78629225 62
0.35090157 3.2726641 -0.75988472 20
0.40026912 3.7086456 -0.72507423 36
0.45432267 4.1889133 -0.66734952 22
0.54199618 4.9729843 -0.61422157 1
0.69346243 6.3217869 -0.55640227 3
0.92408323 8.3836508 -0.44202951 3
1.5767845 14.236767 -0.25002316 14
4.735743 44.240475 0.77663213 19
nan nan nan nan
nan nan nan nan
3.3345807 30.645613 3.7850182 11
3.3473241 30.613668 4.8776274 27
3.3682268 30.656284 5.9948373 60
3.370151 30.477661 7.0792103 100
3.3834286 30.451782 8.2097406 17
0.33343044 2.9310331 -0.79043341 55
0.37329796 3.2662621 -0.75898486 15
0.4230088 3.6784554 -0.71973157 33
0.48128667 4.1660166 -0.66422081 26
0.57189274 4.9276705 -0.60910302 3
0.73203719 6.2692966 -0.55221879 3
0.97235191 8.2897148 -0.43742397 3
1.6192757 13.742826 -0.24154131 18
5.0485654 44.2421 0.77726042 19
5.3717608 46.856365 2.4717226 48
3.5297906 30.64756 2.699039 9
3.5452471 30.593981 3.781606 11
3.5602808 30.58367 4.8766885 27
4.6607609 39.855362 7.7998905 8
3.5835116 30.459198 7.0805597 86
3.5990994 30.454281 8.2169876 17
0.35203078 2.913291 -0.78629225 46
0.39374375 3.2442307 -0.75448585 20
0.44748947 3.6656687 -0.71782345 18
0.50362813 4.1076555 -0.65546048 26
0.60094303 4.8802137 -0.60374081 1
0.76011193 6.1374874 -0.54106283 3
1.0104759 8.1241655 -0.42905018 3
1.6380953 13.114075 -0.2306859 13
5.3226666 43.919914 0.77223408 19
nan nan nan nan
2.7876704 22.802485 2.0098114 6
3.7631078 30.603951 3.7859933 11
3.7715437 30.540421 4.8738728 13
3.9653354 31.97204 6.262351 13
3.7960694 30.433439 7.0805597 86
3.8092213 30.409241 8.2118111 17
0.37309623 2.9165108 -0.78784519 38
0.40967932 3.1892159 -0.74233854 36
0.46753672 3.6196196 -0.70942789 25
0.53229272 4.1040392 -0.65546048 21
0.62705159 4.8148766 -0.59618485 7
0.7925939 6.05301 -0.5340904 3
1.0505065 7.9901791 -0.42235121 3
nan nan nan nan
5.623558 43.838047 0.7714662 19
nan nan nan nan
3.9588757 30.607147 2.7000849 19
3.975136 30.565121 3.7845309 35
3.9874635 30.534895 4.8773141 13
4.1843624 31.912434 6.2562456 27
4.0092068 30.411993 7.0819097 100
4.0222001 30.387651 8.2133636 17
0.38957059 2.885118 -0.78008062 25
0.42984006 3.1708295 -0.73873931 45
0.4935886 3.6221035 -0.71057272 22
0.55530864 4.059123 -0.64889026 26
0.65741158 4.7867813 -0.59325999 13
0.82311666 5.962461 -0.526595 6
1.0843294 7.8243823 -0.41397744 5
0.76930261 5.5298948 -0.097454235 25
nan nan nan nan
nan nan nan nan
nan nan nan nan
4.1873446 30.528757 3.783556 35
4.2002702 30.504354 4.8770013 27
4.2446685 30.707811 6.0257483 24
4.2235847 30.398701 7.0855088 100
4.2345147 30.360744 8.2138815 17
0.40209076 2.8287745 -0.76558679 27
0.4527919 3.1735389 -0.740089 27
0.5149641 3.5913618 -0.70523006 21
0.5819447 4.043416 -0.64701301 29
0.68399972 4.7349224 -0.58741027 19
0.85613245 5.8974185 -0.52136564 6
0.80891472 5.5516782 -0.29402342 67
0.8073138 5.520432 -0.09738443 31
1.5428282 10.826962 0.19089442 3
1.5112606 10.56582 0.55936676 2
4.3844056 30.539028 2.6992133 59
4.4003735 30.498781 3.783556 23
4.4139781 30.480152 4.8779402 27
4.4386139 30.537544 5.9982719 96
4.4503355 30.468744 7.1089034 35
4.4513988 30.364849 8.2231989 17
0.42496553 2.8469162 -0.77128083 31
0.47493482 3.1703007 -0.740089 17
0.53417957 3.5488515 -0.69759774 15
0.60720837 4.0197225 -0.64388436 29
0.70781577 4.6691899 -0.57985443 21
0.842987 5.5347862 -0.48981526 60
0.8464433 5.5379987 -0.29360473 40
0.84522498 5.5107079 -0.097314619 31
1.586714 10.604317 0.18715961 1
2.1550434 14.351181 0.76054621 3
4.5969219 30.503735 2.6988647 59
4.6125793 30.463394 3.7830684 23
4.6260543 30.444691 4.8773141 13
4.6777263 30.676605 6.0318542 24
4.668251 30.471609 7.117002 52
4.6618094 30.323486 8.2206106 17
0.4442333 2.8400626 -0.77024549 11
0.49403453 3.1476562 -0.73559004 11
0.55221367 3.5023715 -0.68920213 20
0.63247657 3.9978254 -0.64106852 17
0.73199046 4.6111999 -0.57327342 15
0.88160652 5.5287662 -0.48981526 45
0.88540077 5.533927 -0.29370943 45
0.88367641 5.504673 -0.097314619 48
1.6777468 10.701634 0.18907937 3
2.212039 14.06154 0.74599677 13
4.8110085 30.478767 2.6995618 59
4.8301153 30.461819 3.7869682 35
4.8403621 30.423355 4.8791914 13
4.8890052 30.625753 6.02842 12
5.4421124 33.93832 7.9353738 24
4.8721662 30.282572 8.2185402 17
0.45825872 2.8045614 -0.76144564 28
0.51639432 3.1499896 -0.73693973 18
0.57572353 3.496594 -0.68882048 23
0.65001768 3.9349587 -0.63168246 19
0.76466143 4.6139441 -0.57424843 15
0.91790819 5.5147767 -0.48911804 60
0.92501962 5.5395918 -0.29433745 67
0.92079216 5.4965587 -0.097279713 46
1.5537434 9.4881592 0.16782233 1
2.2892387 13.93382 0.74003047 9
5.0176973 30.441385 2.6992133 59
5.0373659 30.428234 3.7869682 23
5.0483065 30.39555 4.8801303 27
5.2887039 31.740145 6.2547193 13
5.1030602 30.494682 7.1381474 17
5.0797801 30.258232 8.2211285 17
0.4755533 2.7879634 -0.75782222 31
0.53442866 3.1232576 -0.73154086 25
0.59546399 3.4654014 -0.68347788 16
0.67344654 3.906965 -0.62792808 19
0.79381013 4.5908885 -0.57205474 14
0.95843387 5.5200109 -0.49016386 54
0.96127445 5.5192256 -0.29360473 52
0.95983386 5.4939356 -0.097349517 29
1.5283014 8.9409409 0.15832824 1
2.3611434 13.769858 0.73218012 19
5.2351623 30.435066 2.701828 19
5.251009 30.400152 3.7879431 11
5.2637429 30.379034 4.8832588 27
nan nan nan nan
5.293716 30.331612 7.1084538 17
5.2955623 30.248672 8.2283754 17
0.49432907 2.7807713 -0.75678688 45
0.54766816 3.0714886 -0.72029334 23
0.62068039 3.4669571 -0.6846227 17
0.69721264 3.8827257 -0.62479931 19
0.81457919 4.5227175 -0.56425512 14
0.99669099 5.5172811 -0.49051252 24
1.0008518 5.5182753 -0.29391876 42
1.0010284 5.50284 -0.097628765 27
1.4563733 8.1760397 0.14495969 3
2.4516037 13.721581 0.73050535 13
5.4601784 30.468376 2.7081032 9
5.4638171 30.366659 3.7884309 35
5.4739456 30.331823 4.8816943 27
5.4959998 30.363066 5.9978905 36
5.4976177 30.281454 7.1053047 35
5.5090189 30.224272 8.2319994 17
0.51197219 2.7677543 -0.75419873 39
0.56518626 3.046514 -0.71534437 25
0.63816148 3.4298394 -0.67813522 19
0.72471434 3.8837149 -0.62573791 21
0.83041734 4.4330215 -0.55377436 17
1.0296665 5.4808168 -0.48789781 6
1.0376482 5.50741 -0.29370943 52
1.0375605 5.4858937 -0.097454235 44
1.441362 7.7844787 0.13818815 3
2.5456696 13.708504 0.73071468 9
5.674931 30.441269 2.7091491 9
5.6718497 30.336571 3.7894058 35
5.6821017 30.30357 4.8832588 27
5.7013178 30.289225 5.9910212 36
5.7226243 30.3151 7.1224008 52
5.7193074 30.210745 8.2387276 17
0.52752244 2.7471306 -0.74953997 45
0.58185816 3.0215466 -0.71039551 35
0.6546374 3.3867497 -0.67050284 16
0.74729741 3.8552897 -0.62198347 16
0.85754269 4.4116774 -0.55182445 17
1.0492123 5.3776741 -0.47935659 5
1.0795258 5.5176721 -0.29465145 60
1.0744953 5.4767413 -0.097419336 29
1.4235114 7.3991632 0.13152133 1
2.6329806 13.647255 0.72841191 16
5.880857 30.396069 2.708626 9
5.8903122 30.331308 3.793793 24
5.8984308 30.288368 4.8873258 27
5.9231482 30.330647 6.0070491 48
6.8903284 35.152813 8.2701006 27
5.9315553 30.177666 8.240799 17
0.53724825 2.6960161 -0.73659903 22
0.60217315 3.0135891 -0.70949566 26
0.66745633 3.3281989 -0.65981752 19
0.76406902 3.7996273 -0.61384892 22
0.88165081 4.3725019 -0.54768091 13
1.0756626 5.3155398 -0.47447586 5
1.1172233 5.5060868 -0.29444212 52
1.1158907 5.4847832 -0.097698569 36
2.7470887 13.76033 0.24492706 17
2.7348633 13.661832 0.73019135 19
6.0968542 30.373806 2.7103693 9
6.1050572 30.305016 3.795743 24
6.1159978 30.277431 4.8923321 13
6.1448846 30.338585 6.0169711 12
7.1945782 35.394131 8.3384857 28
6.1436334 30.143093 8.2428694 17
0.56230903 2.7224703 -0.74488121 21
0.62240696 3.0054953 -0.70859587 27
0.68588179 3.3003919 -0.65523815 19
0.78372663 3.7613249 -0.6085301 30
0.90850168 4.3487525 -0.54548723 14
1.1062051 5.276701 -0.47168687 2
1.1544032 5.4922895 -0.29412812 35
1.1529176 5.4709897 -0.097593859 34
2.829716 13.676195 0.2437752 31
2.9774439 14.352297 0.76818722 6
6.3193035 30.381218 2.7149014 59
6.3189111 30.273315 3.7972052 36
6.3328896 30.261065 4.8967123 13
6.3613758 30.318003 6.0215507 36
7.4567575 35.415501 8.3555822 28
6.3611045 30.13349 8.2521868 17
0.58291894 2.7260346 -0.74695182 33
0.63643122 2.9686842 -0.70094752 25
0.71138173 3.3070395 -0.6575278 20
0.80954838 3.7538314 -0.6082173 28
0.93128639 4.3073792 -0.54109991 16
1.1345685 5.229907 -0.46820062 2
1.1914452 5.4782414 -0.29381409 32
1.1940663 5.4764843 -0.097838193 38
2.9925573 13.970918 0.24939489 18
2.9282825 13.635985 0.73092401 9
6.5354438 30.355839 2.7166445 59
6.53262 30.240107 3.7986679 24
6.5465059 30.227699 4.8985891 27
6.5778785 30.295874 6.0261297 49
7.8241172 35.914764 8.4860544 29
6.5754433 30.10722 8.2573633 17
0.59776461 2.7030358 -0.74177545 27
0.65376669 2.9489481 -0.6973483 36
0.72976458 3.2809114 -0.65333003 22
0.83315766 3.7365196 -0.60634005 18
0.95310932 4.2639642 -0.53646892 17
1.1544827 5.147984 -0.46157682 2
1.2327254 5.4834309 -0.29454678 37
1.2287506 5.4524088 -0.097558953 38
3.1509914 14.22497 0.25431648 32
3.0277317 13.634708 0.73197079 13
6.7532549 30.336702 2.7190847 39
6.7479029 30.213133 3.801105 24
6.760829 30.19668 4.9010925 13
6.7733159 30.178337 6.0120101 24
6.8062243 30.226194 7.1529942 53
6.789299 30.077541 8.262022 17
0.6118862 2.6780808 -0.73608136 28
0.67477202 2.9462123 -0.69779825 42
0.74913484 3.2604296 -0.65027708 38
0.85478961 3.7113621 -0.60321134 19
0.98151457 4.2514033 -0.53573769 14
1.1809561 5.0990367 -0.45791626 5
1.2732379 5.4844189 -0.29507017 40
nan nan nan nan
3.2118597 14.034985 0.25131464 28
3.1268651 13.630758 0.73291278 19
8.1476469 35.432419 3.180836 12
6.9693608 30.211718 3.8069549 36
6.9776926 30.175694 4.9054728 13
6.9869237 30.143705 6.0146813 36
nan nan nan nan
7.0030618 30.046347 8.2666807 17
0.61637789 2.613575 -0.71951699 37
0.69218582 2.9281542 -0.69464886 30
0.76553541 3.2283766 -0.64493442 34
0.87017119 3.6611021 -0.59601539 13
1.0028882 4.2096891 -0.53135037 17
1.1961991 5.0094881 -0.45059517 5
nan nan nan nan
2.1576414 8.9872189 -0.16133004 6
3.3368926 14.127042 0.25337404 28
3.2136734 13.573611 0.73102868 19
7.1803212 30.256897 2.7206535 9
7.1837859 30.177773 3.8089049 24
7.1936903 30.149302 4.9092269 27
7.2045026 30.124744 6.0207872 24
nan nan nan nan
7.2148972 30.006117 8.269269 18
0.6336959 2.6054537 -0.71848166 58
0.70614982 2.8967443 -0.68835026 35
0.78609461 3.2173693 -0.64378959 26
0.87815666 3.5860217 -0.58475208 24
1.0294119 4.1910181 -0.52988791 14
1.2263801 4.9816689 -0.44885206 5
1.5544629 6.3001585 -0.34007907 2
2.2087979 8.9253502 -0.16049233 3
3.4703298 14.257497 0.25613153 22
3.3092988 13.565006 0.7317614 19
8.652935 35.361652 3.1850195 12
7.3909249 30.135887 3.8098798 24
7.4062886 30.130331 4.9142327 13
7.4212313 30.100395 6.0261297 36
nan nan nan nan
7.4268856 29.988186 8.2780685 18
0.65282398 2.6067021 -0.7200346 46
0.7201581 2.8691895 -0.68295145 31
0.80901623 3.213707 -0.64417118 35
0.90365374 3.5817192 -0.58506501 28
1.0515894 4.1588955 -0.52671933 13
1.2557415 4.9517422 -0.44693464 2
1.5964406 6.2814097 -0.33966038 2
2.2398889 8.7938385 -0.15839803 3
3.4632423 13.808145 0.24848737 18
3.0445874 12.112066 0.65451354 5
3.5190201 13.968531 1.260272 2
7.6040511 30.095102 3.8113422 36
7.6237307 30.106613 4.9189262 13
7.6278644 30.056801 6.0276566 36
7.6615148 30.101248 7.1709905 18
7.6427317 29.961817 8.2853155 18
0.6700415 2.5983396 -0.71899933 32
0.74017131 2.8640919 -0.68295145 35
0.82453662 3.1813741 -0.63882852 35
0.92764354 3.5714991 -0.58443922 28
1.0695974 4.109189 -0.52135712 15
1.2746806 4.8830934 -0.441531 5
1.6175079 6.1831608 -0.33495015 11
2.2535555 8.5961618 -0.15511699 3
3.5770504 13.851398 0.24970903 36
3.1030443 11.989973 0.64907056 8
3.5799384 13.802836 1.2475473 13
7.8219647 30.072021 3.8152421 36
7.8337288 30.052658 4.9189262 27
7.846447 30.037006 6.0345254 24
7.859128 29.999897 7.1597424 18
7.859076 29.935757 8.2930794 36
0.67974132 2.5618558 -0.71019953 29
0.76014698 2.858855 -0.68295145 12
0.83509308 3.1319098 -0.63005131 26
0.94286603 3.528676 -0.57849473 30
1.0915841 4.0766935 -0.51818854 16
1.2949806 4.8261957 -0.43717319 5
1.6372825 6.084928 -0.33023992 2
2.2760303 8.441205 -0.15260385 3
3.652617 13.746849 0.24827793 36
3.7858851 14.218411 0.7711181 3
3.6813495 13.796758 1.2492903 18
8.0440168 30.06271 3.8210919 24
8.053051 30.033491 4.9248705 13
8.0625763 30.006144 6.0394869 37
8.068738 29.966402 7.1646919 36
8.0804663 29.926788 8.3060217 18
0.69506764 2.5477293 -0.70761132 33
0.77289391 2.8271613 -0.67665279 43
0.85587341 3.1242595 -0.62966973 31
0.95745075 3.4878879 -0.5728631 20
1.117909 4.0613184 -0.51721358 18
1.3175151 4.7767038 -0.43351269 5
1.649929 5.9696889 -0.32458761 5
2.3028622 8.3094864 -0.15050955 3
3.7724304 13.818123 0.25002316 33
3.2417135 11.849725 0.64383703 8
3.7470086 13.659279 1.2391803 15
8.2568932 30.037878 3.8249915 24
8.2667522 30.012255 4.9305019 13
8.28127 29.983189 6.0463557 37
8.3141174 30.040815 7.1961846 54
8.2870817 29.882261 8.3091269 18
0.7123934 2.5429392 -0.70761132 20
0.79317188 2.8255875 -0.67755258 22
0.87181276 3.0974202 -0.62547189 30
0.97695166 3.4640079 -0.57004726 26
1.1336532 4.0115881 -0.51185131 16
1.3391442 4.7292838 -0.43002641 5
1.7068418 6.0118208 -0.32751846 2
2.3188794 8.151288 -0.1479266 3
3.9120164 13.945481 0.25281557 12
3.3173354 11.80181 0.64247626 11
3.8566358 13.692911 1.244584 18
8.4771709 30.017714 3.8298662 36
8.4900465 30.003235 4.9386368 28
8.49158 29.948793 6.0509353 24
10.837716 38.147224 9.155508 36
8.5018482 29.845974 8.3153391 18
0.72371978 2.515625 -0.70139962 33
0.80154395 2.780659 -0.66810465 31
0.89396417 3.0951867 -0.62623513 33
0.99611324 3.4420981 -0.56754434 35
1.1538856 3.9768865 -0.50843894 16
1.3676766 4.704515 -0.42863193 14
1.7242612 5.9195266 -0.32312223 2
2.3348074 7.9947758 -0.14537854 6
3.4016454 11.816241 0.21462969 20
3.4025724 11.796227 0.64341831 17
3.9532499 13.669478 1.2449325 18
8.6857347 29.974567 3.8318162 24
8.6973944 29.956127 4.9405136 14
8.7158194 29.941563 6.0616207 37
11.218355 38.463501 9.2499886 37
8.718895 29.835623 8.3287973 18
0.74137306 2.5124934 -0.70191729 24
0.81327039 2.7508445 -0.66225594 22
0.90997159 3.0700474 -0.62241894 33
1.0206833 3.4369528 -0.56785715 24
1.1781 3.9594257 -0.50722027 18
1.3982089 4.6872153 -0.42793471 19
1.7386646 5.8174043 -0.31820264 11
2.3971994 8.0055189 -0.14586721 12
4.1090212 13.907476 0.25312969 21
3.4621663 11.69558 0.63923144 8
4.0388327 13.617423 1.2426665 13
8.904954 29.947451 3.8362033 12
8.9119415 29.913612 4.9436426 14
8.9312153 29.921047 6.0696344 37
11.58719 38.720287 9.3309708 38
8.9253101 29.768476 8.3272438 55
0.75385863 2.4906154 -0.69725859 33
0.8335861 2.7488296 -0.66315573 24
0.93081146 3.0617414 -0.62203735 30
1.0354422 3.3995094 -0.56285131 22
1.1993382 3.9302204 -0.50453913 18
1.4215721 4.6468558 -0.42514572 23
1.7564124 5.7306504 -0.31412044 8
2.4172273 7.8719792 -0.14373802 12
3.5836954 11.825008 0.21567684 22
3.5721657 11.764769 0.64436036 2
3.6820924 12.104009 1.1068779 2
9.1282873 29.932024 3.8422971 12
9.1326828 29.890339 4.950213 28
9.147357 29.882374 6.0745955 25
9.1862049 29.934551 7.2290277 18
9.1476774 29.753452 8.340703 55
0.75805932 2.4428554 -0.68535286 30
0.86201274 2.7727172 -0.67035419 12
0.95041126 3.0495458 -0.62089252 30
1.0550288 3.3789985 -0.5606612 26
1.2309911 3.9329033 -0.50600159 19
1.4444426 4.6064 -0.42235672 21
1.7873982 5.6896663 -0.31255037 2
2.4386544 7.7438555 -0.14171354 18
3.6483567 11.742413 0.21462969 24
3.6714268 11.794847 0.64739585 20
3.6674485 11.760365 1.0777678 12
9.3465061 29.897881 3.8461969 12
9.3606167 29.88806 4.9605374 14
9.371541 29.849865 6.0814648 37
9.431201 29.984951 7.2569218 18
9.3627062 29.712822 8.3474321 55
0.78547812 2.4686637 -0.69415271 40
0.85460746 2.6810699 -0.64965874 15
0.97048354 3.0390956 -0.62012929 28
1.0677391 3.3356168 -0.55471671 28
1.2468987 3.8882987 -0.50137055 21
1.4783922 4.6018949 -0.42287967 16
1.7950072 5.5740705 -0.30689809 2
2.4502981 7.5953255 -0.13930511 11
3.8115408 11.971985 0.21930695 21
3.775768 11.831064 0.65085006 17
3.7242012 11.648424 1.0699239 20
9.5568075 29.837578 3.8469281 73
9.5881395 29.863571 4.9677334 28
9.5905237 29.817352 6.0883336 37
12.739787 39.537518 9.5901146 41
9.5899305 29.691021 8.3603735 56
0.80269229 2.4631202 -0.69415271 27
0.86302143 2.6435456 -0.64201033 37
0.98548943 3.0115483 -0.61593145 32
1.0940769 3.337467 -0.55628103 27
1.2660152 3.852874 -0.49795815 15
1.507547 4.579843 -0.42183378 16
1.8238677 5.531055 -0.30522332 7
2.4587743 7.4389939 -0.13675706 17
3.9169614 12.005239 0.22042391 29
3.8086376 11.652541 0.64247626 11
3.8203168 11.667582 1.0741073 16
9.7849321 29.813694 3.852778 73
9.8056326 29.824057 4.9724264 14
9.8239241 29.809492 6.1009269 25
13.041934 39.504555 9.6045113 41
9.8115377 29.667366 8.372797 56
0.81662714 2.4463184 -0.69104689 34
0.88377023 2.6428468 -0.64336008 36
0.99401659 2.9673638 -0.60829914 32
1.1097573 3.305208 -0.55221373 37
1.2840228 3.8176007 -0.49454582 15
1.5203991 4.5125637 -0.41660443 23
1.8525369 5.4856935 -0.30344391 2
2.4882169 7.35535 -0.13553539 23
4.0032125 11.985187 0.22056352 25
3.900161 11.649611 0.64383703 8
3.8980086 11.622946 1.0725386 18
10.006754 29.786049 3.85814 61
10.03079 29.788692 4.9783711 14
10.040581 29.76623 6.1062698 38
13.33363 39.460545 9.6162081 42
10.048368 29.669586 8.3935013 19
0.82909089 2.4298787 -0.68794107 20
0.90001833 2.6332393 -0.64246029 27
1.0122845 2.9549565 -0.60715425 23
1.1393479 3.3201964 -0.55596817 30
1.2976986 3.7752099 -0.49015856 27
1.5366725 4.4628205 -0.41294393 18
1.870635 5.4204226 -0.30051309 2
2.5166912 7.280097 -0.13445334 17
4.072413 11.921708 0.21990032 44
3.9960907 11.678288 0.64687246 14
3.980818 11.613801 1.0741073 14
10.224749 29.7623 3.8639896 49
10.242921 29.764469 4.9855671 14
10.255692 29.750952 6.1169553 38
10.283108 29.779867 7.2735677 57
10.263247 29.655233 8.408514 19
0.84412467 2.4185596 -0.68638813 31
0.92095238 2.6342499 -0.64425987 27
1.0265334 2.9313219 -0.60371965 32
1.1462271 3.2676284 -0.54845929 24
1.3286316 3.7791672 -0.49186471 19
1.5572026 4.4219151 -0.41015494 13
1.8928707 5.366127 -0.29821032 2
2.4954698 7.0587325 -0.13068362 11
4.1626968 11.920141 0.22038898 27
4.0688953 11.631965 0.64582574 23
4.0670795 11.600766 1.0755018 20
10.445515 29.744457 3.8708143 49
10.466261 29.753691 4.9955788 28
10.478795 29.72307 6.1261144 25
10.475173 29.66326 7.2627707 37
10.501573 29.688501 8.4380188 58
0.86056775 2.4127576 -0.68638813 37
0.94410807 2.6426008 -0.6478591 28
1.0416785 2.9092972 -0.60066676 31
1.1696783 3.2614057 -0.54877216 19
1.3502964 3.7588272 -0.49040228 16
1.5799344 4.3884411 -0.40806317 18
1.8909879 5.2438102 -0.29213932 2
2.5122063 6.9550686 -0.129078 16
4.2437963 11.88514 0.22028428 31
4.1809421 11.689782 0.65064067 28
4.1513195 11.587822 1.0768963 18
10.69853 29.797855 3.8873885 37
10.688431 29.720791 5.0024619 14
10.697519 29.697226 6.1356544 39
10.72437 29.706709 7.291564 57
10.740787 29.70348 8.4633827 58
0.87739098 2.4066911 -0.68638813 42
0.95718533 2.6213017 -0.64425987 21
1.0707363 2.9259214 -0.60562783 28
1.1795036 3.2179205 -0.54282767 16
1.3628237 3.7120385 -0.48552752 16
1.5864543 4.3118596 -0.40196225 14
1.9068315 5.1742592 -0.28899917 2
2.5149984 6.8135462 -0.12677428 16
nan nan nan nan
4.2727365 11.688447 0.65221077 20
4.2999349 11.743779 1.0941532 19
10.936372 29.804443 3.8981133 25
10.918135 29.70664 5.0127869 29
10.922203 29.669724 6.145576 26
14.542058 39.417957 9.6998901 43
10.963295 29.669449 8.4752893 19
0.89552015 2.4041274 -0.68742341 29
0.97205615 2.6054263 -0.64201033 38
1.0856352 2.9036641 -0.60257488 27
1.2067879 3.2225575 -0.54501772 20
1.3782467 3.6745548 -0.48187143 22
1.6256331 4.3249235 -0.4042283 22
1.9400959 5.1533437 -0.28858051 2
2.5667412 6.8070478 -0.12698372 16
4.4267879 11.871572 0.2211569 25
4.3290706 11.590979 0.64844257 20
4.3259654 11.564187 1.0802083 18
11.151148 29.745953 3.9005504 75
11.139147 29.666677 5.0190434 29
11.150495 29.649717 6.1574063 26
4.188035 11.11264 2.7417037 2
8.1055698 21.473452 6.1500583 24
0.90335071 2.3743448 -0.6806941 31
0.98883271 2.5949352 -0.64111054 33
1.1058801 2.8960142 -0.60257488 23
1.2250222 3.2029836 -0.54314053 20
1.3981855 3.6500134 -0.47992152 20
1.646503 4.2892885 -0.40196225 23
1.9502211 5.0725622 -0.2848123 7
2.576113 6.6900592 -0.12513375 21
nan nan nan nan
4.4234161 11.595927 0.65043133 17
4.4314866 11.598844 1.0863092 27
11.378415 29.719286 3.9073751 75
11.362255 29.630611 5.0262399 14
11.379742 29.629797 6.1696181 39
4.0737267 10.584809 2.6184304 34
8.0655966 20.92424 6.0087433 23
0.91430831 2.3535745 -0.67655301 39
1.0033916 2.5788879 -0.63886106 36
1.1196527 2.8717606 -0.59914029 30
1.232983 3.157552 -0.53688318 15
1.4279715 3.6512558 -0.48138395 22
1.6778412 4.2835474 -0.40248519 20
1.9753703 5.0327945 -0.28334689 14
2.5686176 6.5341926 -0.1225508 18
4.2913384 11.035157 0.2066714 5
4.5477548 11.676428 0.65671164 8
4.5275593 11.606603 1.0899696 17
11.608745 29.698292 3.915175 37
11.590445 29.605751 5.0356264 14
4.3415546 11.072658 2.3118417 36
4.1492424 10.565905 2.6206799 36
8.0303841 20.407217 5.8762279 29
0.93356663 2.3543169 -0.67862362 33
1.0199338 2.5681975 -0.63796127 39
1.1268393 2.8330607 -0.5926528 25
1.2434819 3.1215591 -0.53219014 17
1.440915 3.6098561 -0.47724038 20
1.7069654 4.2698798 -0.40231091 15
1.9739484 4.930232 -0.27832264 4
2.5747104 6.417738 -0.12070084 26
4.0713744 10.262191 0.19270948 3
4.6957107 11.817821 0.66644609 3
4.6040559 11.563605 1.0889238 19
13.889966 34.833138 4.6044679 15
4.4331498 11.100518 1.8931701 3
4.4143748 11.031142 2.3095522 17
4.1192355 10.27801 2.5563438 46
8.0035944 19.939735 5.7571712 28
0.94377476 2.3335807 -0.67448246 28
1.0308059 2.54494 -0.63391209 24
1.1384689 2.8051143 -0.58845496 31
1.2793767 3.1475718 -0.53813463 17
1.4563493 3.575808 -0.47407177 27
1.7103963 4.1932898 -0.39620999 17
2.0604348 5.0439081 -0.28554502 9
2.6194487 6.3996077 -0.12070084 18
nan nan nan nan
4.7083144 11.612615 0.65671164 2
4.732883 11.655681 1.1006026 14
8.8794727 21.823809 2.8929348 8
4.5060601 11.058325 1.8912928 10
4.3109455 10.558381 2.216819 36
4.165812 10.187675 2.5410473 40
4.220654 10.306388 2.9841838 28
0.9663462 2.341053 -0.67862362 68
1.0363344 2.5068829 -0.6262638 27
1.1512643 2.7807729 -0.58502042 30
1.2897571 3.1091423 -0.53312874 15
1.466046 3.5288901 -0.46919701 23
1.7097809 4.1095057 -0.38941187 23
2.0995495 5.0364089 -0.28596368 16
2.6486576 6.3442569 -0.12000275 15
4.1852598 10.134109 0.19138309 10
4.8997283 11.840688 0.67157507 15
4.8207388 11.632561 1.1016486 17
8.9167223 21.48443 2.8561301 64
8.9342623 21.484344 3.6852834 15
4.2886887 10.297858 2.1683536 33
4.6666632 11.188929 2.7988412 29
4.2622666 10.199276 2.9619253 36
0.97666979 2.3200057 -0.67448246 65
1.046997 2.4834256 -0.62221462 34
1.1703696 2.7706549 -0.58463877 30
1.3175871 3.1146173 -0.53563172 17
1.4999371 3.5405037 -0.47212186 16
1.7322016 4.0827966 -0.38801736 24
2.1182508 4.9830289 -0.28376558 21
2.651371 6.228096 -0.1181528 20
4.2312694 10.041245 0.19019634 10
5.0940995 12.071168 0.68664783 12
4.8964081 11.585773 1.1004283 29
9.0911226 21.469433 2.8627112 96
4.556284 10.744369 1.8484299 48
4.4448929 10.466443 2.2103314 12
4.2390075 9.9671211 2.500556 6
4.0024152 9.3926268 2.7357175 20
0.98674703 2.2989287 -0.67034137 32
1.0735439 2.49754 -0.62761348 23
1.1829932 2.7481973 -0.58158582 30
1.3262467 3.0765517 -0.53062576 20
1.5246179 3.5299456 -0.47212186 13
1.7796456 4.1144915 -0.39220083 19
2.1235392 4.9025183 -0.27999741 21
2.6804538 6.1764159 -0.1175245 5
4.3318658 10.087548 0.19162743 7
5.2881861 12.296756 0.7015112 9
5.0780826 11.78552 1.1227403 14
nan nan nan nan
4.6238284 10.700414 1.8462398 21
4.283854 9.894659 2.0958462 3
4.4216652 10.198321 2.566242 2
4.0893426 9.4183235 2.7512465 24
1.0054685 2.2992387 -0.67241186 48
1.0827019 2.4723241 -0.62311447 24
1.1918945 2.7165008 -0.57662481 28
1.3413345 3.0527506 -0.52812284 24
1.5382169 3.4958658 -0.46895328 16
1.8116279 4.1113992 -0.3930724 17
2.1431966 4.8546839 -0.27811331 35
2.6795824 6.0610929 -0.11567455 15
4.1375723 9.4525375 0.18010885 8
5.1846714 11.827838 0.67680866 9
5.1253519 11.675882 1.1155934 4
4.7502775 10.800946 1.4487829 16
4.7063808 10.685949 1.8493685 13
4.4303274 10.044904 2.1340079 13
4.6004157 10.415772 2.6287782 36
nan nan nan nan
1.0112729 2.2692242 -0.66568261 37
1.0983472 2.4611459 -0.62221462 27
1.220771 2.7316258 -0.58158582 30
1.3217367 2.953397 -0.51247936 32
1.5593365 3.4777963 -0.46797833 20
1.8362061 4.0895634 -0.39220083 21
2.1696372 4.8254118 -0.27727592 30
2.7119758 6.020359 -0.11525569 22
4.3312926 9.71455 0.18565871 10
5.3334594 11.945465 0.68560106 15
5.3336544 11.923536 1.142786 6
4.7141323 10.523791 1.4158782 26
4.706244 10.491455 1.8212101 18
nan nan nan nan
4.5866446 10.191478 2.5801888 46
4.5490098 10.093729 2.9665842 22
1.0338811 2.2781205 -0.67034137 56
1.1070114 2.4358714 -0.6177156 28
1.2308617 2.7033832 -0.57738805 30
1.3791987 3.0249803 -0.52655846 19
1.5780262 3.4562666 -0.46651587 19
1.8580821 4.06215 -0.39080635 19
2.1949546 4.7919884 -0.2762292 26
2.7145391 5.9181504 -0.11365007 15
4.3369799 9.5475264 0.18304084 8
5.3530474 11.767955 0.67754138 18
5.3287969 11.698388 1.1246576 4
4.6993032 10.297389 1.389798 35
4.8475213 10.607467 1.8471783 12
4.7032003 10.277423 2.196975 14
4.3279548 9.4400024 2.3975286 26
4.6282368 10.081035 2.9722779 32
1.0400326 2.2498047 -0.66412973 45
1.1313579 2.444 -0.62176478 42
1.245576 2.6858182 -0.57547992 22
1.3986208 3.011694 -0.52593273 27
1.6071395 3.4559658 -0.46797833 23
1.8847109 4.0454674 -0.39045769 19
2.2114654 4.7403498 -0.27413577 20
2.7363255 5.8573837 -0.11284725 15
4.3380251 9.3754606 0.18031827 14
5.5836854 12.051056 0.69606829 12
4.9248109 10.614459 1.0237314 22
4.7861395 10.296734 1.3941854 30
4.688889 10.07371 1.7598881 31
4.7350245 10.158923 2.1786571 43
4.6279054 9.911026 2.5253007 24
4.3810101 9.3694811 2.7714343 4
1.0581812 2.2477329 -0.66568261 36
1.1492225 2.4378052 -0.62221462 34
1.2642962 2.6770568 -0.57547992 35
1.4111673 2.9839988 -0.52280408 30
1.6380243 3.4590147 -0.46992823 15
1.9043698 4.0142093 -0.38871458 18
2.2342236 4.7031455 -0.27287969 20
2.7110052 5.6990933 -0.11015959 16
4.4067822 9.3521824 0.18045788 7
5.6225104 11.916048 0.69052064 18
5.0481653 10.684299 1.0338414 31
4.8850794 10.320487 1.401985 8
nan nan nan nan
4.7898331 10.091923 2.1714065 9
4.7605815 10.01223 2.5594933 14
4.410605 9.2636662 2.749176 36
1.0730126 2.2385485 -0.66516501 31
1.1662135 2.4297225 -0.62221462 33
1.2701921 2.6416256 -0.56975567 36
1.4139677 2.9366987 -0.5162338 23
1.6466132 3.4153092 -0.46554092 15
1.9193501 3.9739053 -0.38609993 20
2.2313504 4.6137147 -0.26858816 22
2.7228358 5.6224356 -0.10904264 14
4.3897963 9.1499081 0.17714193 12
5.8205972 12.115941 0.70444208 9
nan nan nan nan
4.9389138 10.248578 1.3968666 32
3.5095596 7.2728333 1.2790084 17
3.4858313 7.2140002 1.5573832 3
3.6026039 7.4424062 1.9089347 6
5.1408415 10.605985 3.1581101 9
1.0852257 2.2240582 -0.6630944 48
1.172883 2.4005101 -0.61681581 33
1.2980973 2.6520908 -0.57395351 22
1.4379127 2.9338508 -0.51748526 35
1.6511761 3.3645251 -0.4601787 17
1.9331726 3.9339273 -0.38348526 20
2.2555668 4.5818973 -0.2676461 20
2.6497371 5.3754992 -0.10460973 6
4.5220122 9.2591953 0.17986451 10
5.7786865 11.816648 0.68936932 12
3.3462744 6.8336196 0.66569555 3
nan nan nan nan
4.7638397 9.6984835 1.7113932 10
3.4910522 7.0978799 1.537539 39
4.5468917 9.2323656 2.3759332 16
4.7967882 9.7226572 2.9049852 24
1.1041633 2.2233486 -0.66516501 63
1.1818027 2.3765597 -0.61276674 28
1.3126191 2.6361637 -0.57242703 31
1.4560868 2.92046 -0.51685953 26
1.6764003 3.356467 -0.46066615 20
1.9481149 3.8953869 -0.38104489 32
2.2831254 4.5592947 -0.26722744 24
2.7517552 5.4855647 -0.10712288 19
4.4710431 8.9989729 0.17539668 14
5.1410685 10.333966 0.60489905 23
5.1543918 10.342637 1.0110066 15
5.168386 10.357129 1.4212404 55
