# .PCD v0.7 - Point Cloud Data file format
VERSION 0.7
FIELDS x y z intensity
SIZE 4 4 4 4
TYPE F F F F
COUNT 1 1 1 1
WIDTH 1491
HEIGHT 1
VIEWPOINT 0 0 0 1 0 0 0
POINTS 1491
DATA ascii
-10.296115 43.386433 8.6676903 35
nan nan nan nan
nan nan nan nan
-0.82765567 3.5482216 -0.97626543 5
-0.9602223 4.1263089 -0.97808719 6
-1.1432583 4.9284425 -0.98342961 4
-1.4229604 6.1488256 -0.99961638 3
-1.8004849 7.7987528 -0.98275441 26
-2.3852255 10.356276 -0.92977744 9
-3.8912201 16.949194 -0.91137844 13
-3.8933315 16.999197 -0.30440488 14
-10.157801 43.615963 0.78169328 40
nan nan nan nan
-10.110719 43.620518 3.9174762 22
-10.042432 43.463917 5.4772959 25
-10.010568 43.429661 7.0589495 36
-9.9687719 43.352024 8.6467009 35
nan nan nan nan
nan nan nan nan
-0.8003118 3.5426068 -0.97315967 5
-0.92368215 4.0986924 -0.969989 4
-1.1006422 4.8958859 -0.97541571 2
-1.3637832 6.0812693 -0.98710161 3
-1.7403661 7.7859478 -0.97958583 21
-2.3054957 10.339617 -0.9268142 9
-3.7805388 16.996733 -0.91252983 19
-3.7910151 17.100149 -0.30573127 14
-9.8395243 43.590469 0.78001785 19
-9.8486156 43.737347 2.3495705 44
-9.7596731 43.483978 3.8989995 22
-9.7198935 43.413105 5.4624281 25
-9.6880236 43.37727 7.0395522 36
-9.643692 43.320911 8.6268568 35
nan nan nan nan
nan nan nan nan
-0.77370059 3.5366492 -0.97005379 5
-0.89409804 4.0972695 -0.96818942 4
-1.059345 4.8708363 -0.9689281 4
-1.3087338 6.0327272 -0.97771555 3
-1.7104198 7.9043245 -0.99299151 28
-2.2127836 10.251851 -0.91757566 9
-3.6722875 17.071526 -0.91514659 26
-3.7059937 17.272198 -0.30834913 7
-9.5174723 43.578003 0.7785868 19
-9.47756 43.504509 2.3334513 43
-9.446537 43.471527 3.8920267 22
-9.3955669 43.382896 5.4502416 25
-9.3645182 43.349232 7.0242209 36
-9.3308096 43.303028 8.6104469 35
nan nan nan nan
nan nan nan nan
-0.74259645 3.5117235 -0.96177161 5
-0.85742849 4.0652761 -0.95919138 3
-1.0156552 4.8279839 -0.95900601 4
-1.2587129 5.9989643 -0.97083241 3
-1.6535702 7.9082999 -0.99201655 23
-2.1399379 10.261197 -0.91705269 9
-3.5804038 17.213453 -0.92142695 13
-3.617789 17.454296 -0.31114152 14
-9.1925163 43.508732 0.77621323 19
-9.1639175 43.485931 2.3290551 43
-9.11868 43.421371 3.8817425 21
-9.0854206 43.375896 5.4414668 25
-9.0429955 43.286282 7.0038848 35
-9.0026608 43.244102 8.5860233 34
nan nan nan nan
nan nan nan nan
-0.71364886 3.4920907 -0.9550423 6
-0.82701463 4.057651 -0.95604199 4
-0.97489381 4.8003249 -0.95213693 4
-1.201511 5.9320984 -0.9586305 3
-1.5894862 7.8687811 -0.98567933 2
-2.0580275 10.225103 -0.91252059 9
-3.4554269 17.214531 -0.92017084 13
-5.7024879 28.486412 -0.50709713 25
-8.8693581 43.477802 0.7745378 19
-8.8386021 43.443161 2.3234026 43
-8.7975311 43.357475 3.8705866 21
-8.7583618 43.319584 5.4265985 24
-8.7233791 43.263161 6.9901185 35
-8.6879721 43.204296 8.5661793 34
nan nan nan nan
nan nan nan nan
-0.68663543 3.4837208 -0.95141882 6
-0.79227555 4.0308194 -0.9483937 6
-0.93079311 4.7530675 -0.94145161 4
-1.1479522 5.8783016 -0.94861871 3
-1.5162992 7.786159 -0.97397989 2
-1.9668645 10.137513 -0.90345639 9
-3.2725725 16.914684 -0.90289998 12
-5.4701543 28.352739 -0.50402552 25
-8.5443993 43.430744 0.772618 19
-8.5151215 43.401886 2.3179598 43
-8.4778128 43.331795 3.8629167 21
-8.4348316 43.272507 5.4131932 24
-8.4007788 43.218292 6.9732232 35
-8.3689518 43.175236 8.548625 34
-8.3255663 43.112488 10.137196 49
nan nan nan nan
-0.66013741 3.4770415 -0.94831306 5
-0.76013041 4.0151901 -0.94344479 4
-0.89540249 4.7478747 -0.93916196 4
-1.0981216 5.839581 -0.94110984 3
-1.4348286 7.6521749 -0.95594323 2
-1.8663205 9.9822407 -0.88846558 8
-3.0205648 16.218479 -0.86459005 11
-5.285955 28.464951 -0.5053519 25
-8.22684 43.414673 0.77129161 19
-8.1922588 43.356262 2.312412 43
-8.1544352 43.280281 3.8531554 21
-8.1127729 43.224979 5.4000311 24
-8.0857925 43.20599 6.9619603 35
-8.0479012 43.128387 8.528017 34
-8.0205297 43.106846 10.122799 48
nan nan nan nan
-0.63237625 3.4625616 -0.94313669 5
-0.72754216 3.9954753 -0.93759608 6
-0.85675359 4.719089 -0.93229276 4
-1.052017 5.8119316 -0.93547827 3
-1.3588336 7.5369749 -0.94034398 2
-1.7824912 9.9165878 -0.88149315 8
-2.9907787 16.688866 -0.88855994 12
-5.0435205 28.257057 -0.50102371 25
-7.9110346 43.359501 0.76933694 38
-7.8805084 43.320633 2.3075972 42
-7.8410716 43.275383 3.8477516 21
-7.8049512 43.204967 5.390769 24
-7.7718825 43.151157 6.9444394 34
-7.7292805 43.086903 8.5089369 33
-7.695375 43.027512 10.091305 48
nan nan nan nan
-0.60545123 3.447758 -0.93796021 6
-0.69898474 3.9926569 -0.9357965 4
-0.81906646 4.6978779 -0.92695016 4
-0.99788564 5.7412863 -0.92296344 3
-1.2919098 7.4560757 -0.92913198 2
-1.7105069 9.9130831 -0.8800987 8
-2.862684 16.642414 -0.88500118 11
-4.8787899 28.452347 -0.50388587 25
-7.5926027 43.325039 0.76776624 19
-7.5606947 43.276218 2.3023636 42
-7.526495 43.213909 3.8376415 20
-7.4858332 43.158657 5.3783383 24
-7.456326 43.122608 6.9312992 34
-7.422811 43.063061 8.4940538 33
-7.3809519 42.999516 10.072409 48
nan nan nan nan
-0.57783735 3.4309459 -0.93226624 6
-0.66657668 3.9705334 -0.92949778 4
-0.77848279 4.6570086 -0.91779137 5
-0.95128614 5.7091422 -0.91670603 3
-1.2287668 7.3983321 -0.92084479 2
-1.6298815 9.8559837 -0.87399781 8
-2.7236898 16.524046 -0.87767404 17
-4.6508589 28.308121 -0.50074446 25
-7.2723861 43.272472 0.76591629 19
-7.2385864 43.209759 2.2960832 42
-7.2075567 43.163204 3.8285773 20
-7.1687174 43.115868 5.3666391 23
-7.1370058 43.06448 6.9137788 34
-7.1066351 43.020859 8.4757357 33
-7.0688777 42.978851 10.055763 47
nan nan nan nan
-0.55018026 3.4120095 -0.92605454 3
-0.63265651 3.9366088 -0.92049974 4
-0.73912585 4.6196809 -0.90939575 3
-0.90580666 5.6805315 -0.91107446 3
-1.1671168 7.3439946 -0.91304523 2
-1.56135 9.8690891 -0.87417209 8
-2.5507097 16.177677 -0.85830981 21
-2.951664 18.78462 -0.33190987 16
-6.9564719 43.237289 0.76441544 18
-6.9336071 43.239513 2.2950366 42
-6.8944321 43.139679 3.8221281 20
-6.8559966 43.092327 5.3576207 23
-6.825666 43.046921 6.903141 34
-6.7907968 42.972466 8.4566555 66
-6.7550287 42.940529 10.035518 47
nan nan nan nan
-0.52575982 3.4119484 -0.92501926 7
-0.60308987 3.9274466 -0.91735041 4
-0.70566982 4.6169653 -0.90786928 3
-0.8530398 5.600791 -0.89730817 3
-1.0991368 7.2420568 -0.89939582 2
-1.4959791 9.9033899 -0.87626386 12
-2.4127419 16.029186 -0.84951729 5
-2.8308406 18.873981 -0.33313155 8
-6.6416879 43.201794 0.76294941 18
-6.6206608 43.215801 2.2912683 42
-6.5804434 43.104038 3.8148067 20
-6.5377131 43.025311 5.3434834 23
-6.5102105 42.995869 6.8874979 33
-6.4777598 42.933403 8.4398642 33
-6.4429283 42.905697 10.016622 47
nan nan nan nan
-0.50024188 3.404068 -0.9219135 6
-0.57283318 3.9122794 -0.91285139 4
-0.66776097 4.5829244 -0.9002369 5
-0.80739361 5.5616474 -0.89011216 2
-1.0343463 7.1513205 -0.88720888 2
-1.4375893 9.9885311 -0.8828876 13
-2.1831312 15.225169 -0.80607843 4
-2.714843 19.004141 -0.3350862 8
-6.3274274 43.162033 0.7614485 37
-6.2991672 43.126579 2.2841506 42
-6.2698913 43.083866 3.8090546 20
-6.2286453 43.010967 5.3361716 23
-6.1971698 42.952293 6.8734188 33
-6.1694698 42.919285 8.4284153 32
-6.1261463 42.830025 9.9887276 47
nan nan nan nan
-0.47352037 3.3864319 -0.91621947 5
-0.54174054 3.8891618 -0.90655279 4
-0.63251585 4.5641384 -0.89565748 3
-0.76530463 5.5436664 -0.88635778 2
-0.97465974 7.0875702 -0.8784343 2
-1.3702565 10.016089 -0.88445646 8
-2.0479381 15.028289 -0.7948786 4
-2.633745 19.403084 -0.34178793 8
-6.0154696 43.12989 0.76012212 18
-5.9825616 43.05872 2.2782891 41
-5.9539537 43.018036 3.7994673 20
-5.9176393 42.976707 5.3266654 23
-5.8861489 42.914268 6.8605909 33
-5.8577271 42.873779 8.4112425 32
-5.8180633 42.806095 9.9734306 46
nan nan nan nan
-0.44554794 3.3570991 -0.90741962 7
-0.51330084 3.883189 -0.90430325 3
-0.59833354 4.5509243 -0.89222288 5
-0.72068244 5.5038257 -0.87916183 2
-0.91796446 7.0390873 -0.87160963 2
-1.2808213 9.875248 -0.87120879 4
-1.9642072 15.206627 -0.8035664 9
-3.7784722 29.373465 -0.5169403 26
-5.7016244 43.075676 0.75844663 18
-5.6750226 43.047955 2.2755678 41
-5.6457047 42.99929 3.7942379 20
-5.6077142 42.942177 5.3174038 23
-5.5757279 42.87204 6.8474503 33
-5.5481815 42.835751 8.395978 32
-5.5128341 42.797356 9.962183 46
nan nan nan nan
-0.41969222 3.3409598 -0.9022432 7
-0.48279226 3.8596067 -0.89800465 2
-0.55976248 4.5004396 -0.88153762 5
-0.67544538 5.4538312 -0.87040144 2
-0.8595677 6.9704576 -0.86234754 2
-1.1953602 9.7494736 -0.85935563 4
-1.8255589 14.954309 -0.78954029 4
-3.0106444 24.769907 -0.43554226 18
-5.3938007 43.058876 0.7574693 18
-5.3649592 43.011211 2.2715902 41
-5.3343248 42.948685 3.7863939 19
-5.2970796 42.893593 5.3066792 23
-5.2709846 42.866787 6.8405671 33
-5.2392354 42.793537 8.380331 32
-5.2077956 42.7845 9.9504852 46
nan nan nan nan
-0.39408368 3.3246243 -0.89706683 7
-0.45149624 3.8261123 -0.88945651 1
-0.52558529 4.4808393 -0.87695819 5
-0.6297937 5.3936663 -0.86007679 2
-0.79988587 6.8816414 -0.85064811 2
-1.0929642 9.4606972 -0.83320886 3
-1.7101613 14.871449 -0.78451604 9
-2.470602 21.583752 -0.37920588 12
-5.0829906 43.01009 0.75596845 18
-5.0547523 42.96431 2.267194 41
-5.0276356 42.927494 3.7813389 19
-4.9876261 42.844738 5.2961984 22
-4.9636312 42.833862 6.8296165 33
-4.931354 42.75106 8.3650675 32
-4.8981214 42.724949 9.9284401 46
nan nan nan nan
-0.36915341 3.3119345 -0.89292574 8
-0.42112318 3.7962444 -0.88180816 2
-0.49084878 4.4531765 -0.87085229 5
-0.58996952 5.3782954 -0.85694808 2
-0.74320656 6.8081226 -0.84089851 2
-1.0268939 9.4680967 -0.83320886 3
-1.5805864 14.644737 -0.77195543 9
-2.312609 21.532873 -0.37801915 12
-4.7733049 42.961056 0.75450248 18
-4.7459006 42.919144 2.2630069 41
-4.7208486 42.89817 3.7757611 19
-4.6840973 42.839046 5.2913237 22
-4.6527004 42.759464 6.8124084 32
-4.6264138 42.725891 8.3536186 63
-4.5895123 42.663158 9.906395 45
nan nan nan nan
-0.34401524 3.295217 -0.88774931 7
-0.393803 3.7913387 -0.88000858 5
-0.4565264 4.4252481 -0.86474639 5
-0.54877985 5.3469124 -0.85131645 5
-0.68880624 6.7460012 -0.83261144 2
-0.9422884 9.2766485 -0.81577778 3
-1.460268 14.476569 -0.76253498 9
-2.1690128 21.616142 -0.37920588 12
-4.4678831 42.941616 0.75359488 18
-4.4412174 42.903553 2.2604947 41
-4.4134917 42.854774 3.7691371 19
-4.3792343 42.815414 5.2844992 22
-4.3492913 42.74374 6.8049002 32
-4.3221068 42.698547 8.3421698 63
-4.2919779 42.623611 9.8901987 45
nan nan nan nan
-0.31913018 3.2783105 -0.88257295 7
-0.36582249 3.7784781 -0.87640935 5
-0.42526296 4.4165282 -0.86245668 5
-0.50634354 5.2875996 -0.84130466 2
-0.63793331 6.711122 -0.82773668 2
-0.86550218 9.1560535 -0.80462182 3
-1.3454334 14.313175 -0.75342852 13
-2.0288248 21.746241 -0.38123038 12
-4.1700897 42.915302 0.75261754 18
-4.1398773 42.83736 2.2554705 41
-4.1071815 42.811157 3.7626874 19
-4.0786676 42.749374 5.2727995 22
-4.0515256 42.701561 6.7936368 32
-4.0161786 42.645588 8.3261414 63
-3.9892168 42.598209 9.8776016 45
nan nan nan nan
-0.29663545 3.2784829 -0.88205534 8
-0.33730307 3.749826 -0.8692109 4
-0.39162916 4.3881021 -0.85635084 5
-0.46522719 5.2437825 -0.83379585 2
-0.58386636 6.6203928 -0.81603718 2
-0.79237109 9.0386772 -0.79381454 3
-1.2392466 14.250588 -0.74966031 13
-1.9010749 21.994635 -0.38534915 13
-3.8685677 42.923462 0.75226855 18
-3.8367734 42.821457 2.2531679 41
-3.8098259 42.772633 3.7569354 19
-3.7755778 42.725395 5.2664623 22
-3.7478027 42.665833 6.7836251 32
-3.7207029 42.613262 8.3146925 31
-3.6979876 42.610786 9.8744526 45
nan nan nan nan
-0.27181235 3.2573719 -0.87584364 5
-0.3088617 3.7249007 -0.8629123 4
-0.35981455 4.3671861 -0.85177141 5
-0.42662191 5.2113891 -0.82816416 2
-0.53185523 6.5530787 -0.8072626 2
-0.71740413 8.897028 -0.78091538 3
-1.1412668 14.246748 -0.74903226 17
nan nan nan nan
nan nan nan nan
-3.5406168 42.790848 2.250237 40
-3.505585 42.730675 3.7510087 19
-3.4791634 42.682838 5.2581754 22
-3.454567 42.656883 6.778306 32
-3.4183819 42.579494 8.3032446 62
-3.6228981 45.425095 10.520512 54
nan nan nan nan
-0.24948627 3.2572205 -0.87532604 3
-0.28202179 3.7074854 -0.85841328 6
-0.32695636 4.3382683 -0.84566551 5
-0.38683847 5.1689339 -0.82096815 5
-0.47899604 6.4456873 -0.7936132 2
-0.64064294 8.7031193 -0.7634843 3
-1.0423535 14.262336 -0.74945098 17
-2.147114 29.59169 -0.5178827 54
nan nan nan nan
-3.2381747 42.766724 2.2477248 40
-3.2119761 42.717781 3.7478712 19
-3.1749237 42.62294 5.2479377 22
-3.1505823 42.597221 6.7651658 32
-3.2587628 44.375702 8.6489906 35
-3.4924266 48.016785 11.114833 61
nan nan nan nan
-0.22459508 3.2280478 -0.86704385 15
-0.25532633 3.6976991 -0.85571384 5
-0.29385236 4.2993131 -0.83765155 7
-0.34874049 5.1419454 -0.81627518 2
-0.43118903 6.4072814 -0.78849471 2
-0.57430774 8.6238842 -0.75616324 3
-0.95447689 14.446635 -0.75876677 27
-1.9373339 29.558069 -0.51704502 53
nan nan nan nan
-2.9356744 42.732498 2.2447941 40
-2.9099922 42.685497 3.7431648 18
-2.8748765 42.608414 5.2435508 22
nan nan nan nan
-3.0930481 46.567875 9.0718231 40
nan nan nan nan
nan nan nan nan
-0.2021758 3.2314653 -0.86756152 17
-0.2297484 3.7032814 -0.85661364 2
-0.26202735 4.2718658 -0.83192724 5
-0.31055626 5.106792 -0.81033063 5
-0.38274407 6.3487091 -0.78093886 2
-0.50484812 8.4725513 -0.74256694 3
-0.86255336 14.604473 -0.76672184 27
-1.7277914 29.516972 -0.51610255 26
-1.6149381 25.957851 0.45397198 8
-2.6336052 42.692146 2.2416539 40
-2.6065888 42.617268 3.7354949 18
-2.5758858 42.603672 5.2406259 22
nan nan nan nan
-2.9182768 49.120396 9.5648737 46
nan nan nan nan
nan nan nan nan
-0.17896645 3.2212248 -0.86445564 22
-0.20195974 3.669771 -0.84851539 2
-0.23155865 4.2618289 -0.82963753 5
-0.27203086 5.0555778 -0.80188316 2
-0.33714491 6.3274393 -0.77801394 2
-0.43982744 8.3644495 -0.73280543 3
-0.76950353 14.781672 -0.77572364 4
-1.5266219 29.624172 -0.51777798 26
nan nan nan nan
-2.3317859 42.641689 2.238095 40
-2.3054452 42.568775 3.7297428 18
nan nan nan nan
-2.5419123 48.021343 7.6164823 45
-2.6515441 50.594311 9.8480349 49
nan nan nan nan
nan nan nan nan
-0.15591151 3.2108181 -0.86134982 27
-0.17521304 3.6477334 -0.84311658 6
-0.20031464 4.2319646 -0.82353163 5
-0.23543653 5.0297279 -0.79750299 2
-0.28965878 6.2582517 -0.76923937 2
-0.37869263 8.2756948 -0.72478712 2
-0.64668983 14.351722 -0.75290513 4
nan nan nan nan
-1.2588011 26.111694 0.45631063 17
-2.0304191 42.58112 2.2341175 40
nan nan nan nan
-2.0447457 44.011654 5.409781 24
-2.3124683 50.342728 7.9819131 50
-2.5150349 55.385231 10.776893 57
nan nan nan nan
nan nan nan nan
-0.13381286 3.2195492 -0.86342037 30
-0.14734563 3.5904548 -0.82961953 5
-0.17070913 4.2136135 -0.81971544 12
-0.19985291 4.9976597 -0.79218423 4
-0.24276556 6.1787953 -0.75924611 2
-0.31704929 8.1785936 -0.71607161 2
-0.53097361 13.884783 -0.72820258 4
nan nan nan nan
-1.0840945 26.193583 0.45760211 59
nan nan nan nan
-1.7702127 44.073978 3.859082 21
nan nan nan nan
-1.7211519 44.001453 6.9744754 35
-2.2166395 57.700676 11.224149 61
nan nan nan nan
nan nan nan nan
-0.1113598 3.2049398 -0.85927927 31
-0.12290271 3.5913749 -0.82961953 13
-0.13997486 4.1754599 -0.81208313 4
-0.16404808 4.971293 -0.78780407 4
-0.19954529 6.1445918 -0.75485879 2
-0.25665376 8.077055 -0.70700741 2
-0.42055097 13.456954 -0.70559341 4
nan nan nan nan
-0.90333337 26.262468 0.45868415 51
-1.4943771 44.118118 2.3134589 43
nan nan nan nan
nan nan nan nan
-1.4098415 43.886036 6.9544511 34
nan nan nan nan
nan nan nan nan
nan nan nan nan
-0.088552043 3.1901903 -0.85513818 35
-0.097296685 3.572665 -0.82512051 30
-0.10967555 4.1331592 -0.80368757 17
-0.1281565 4.9268985 -0.78060806 2
-0.1553757 6.0962238 -0.74876529 2
-0.19646104 7.9252834 -0.6935854 2
-0.31768513 13.092174 -0.68633378 4
nan nan nan nan
nan nan nan nan
-1.2534549 46.62315 2.4442987 47
nan nan nan nan
nan nan nan nan
nan nan nan nan
nan nan nan nan
nan nan nan nan
nan nan nan nan
-0.066319808 3.1926622 -0.85565579 45
-0.071643986 3.538187 -0.81702226 35
-0.080892757 4.1377497 -0.80445075 21
-0.092514753 4.8624973 -0.7702834 7
-0.11145353 6.0237246 -0.73974699 2
-0.14121759 7.8547225 -0.68731016 2
-0.21965103 12.710656 -0.66623676 3
nan nan nan nan
nan nan nan nan
nan nan nan nan
nan nan nan nan
-0.81969345 43.886707 5.3895502 24
nan nan nan nan
nan nan nan nan
nan nan nan nan
nan nan nan nan
-0.044162385 3.2027059 -0.858244 32
-0.046734247 3.5230124 -0.8134231 31
-0.051952623 4.0773487 -0.7926206 22
-0.058910087 4.8215351 -0.76371318 2
-0.068737023 5.9667916 -0.73267853 2
-0.085461475 7.771842 -0.6799891 2
-0.12927862 12.344381 -0.64697713 3
-0.37892199 38.768246 -0.67673451 51
nan nan nan nan
nan nan nan nan
-0.54410267 43.906902 3.8416507 21
nan nan nan nan
nan nan nan nan
nan nan nan nan
nan nan nan nan
nan nan nan nan
-0.022266779 3.1894093 -0.85462052 31
-0.022966666 3.5563767 -0.82107139 38
-0.023520023 4.0835018 -0.79376549 32
-0.025320388 4.8356562 -0.76590323 18
-0.02790552 5.9214644 -0.72707254 2
-0.032391217 7.7323961 -0.67650288 2
-0.0419241 12.009446 -0.62939227 3
-0.11587485 39.049885 -0.68162119 52
-0.25970656 39.157173 0.68350607 14
nan nan nan nan
nan nan nan nan
nan nan nan nan
-0.19082886 43.732452 6.9266062 34
nan nan nan nan
nan nan nan nan
nan nan nan nan
3.7826922e-08 3.1721005 -0.84996176 28
0.0018518801 3.536963 -0.81657237 19
0.0042555355 4.0639343 -0.7899493 35
0.0074807294 4.7626271 -0.75432706 18
0.01330867 5.8659329 -0.72024786 2
0.021235812 7.6049213 -0.66534692 2
0.038577661 11.63397 -0.60971397 3
0.15666729 39.029747 -0.68127215 52
0.0072487378 41.645657 0.72692764 16
nan nan nan nan
0.06116803 43.810612 3.8329351 20
0.083980694 43.745399 5.3712697 72
nan nan nan nan
nan nan nan nan
nan nan nan nan
nan nan nan nan
0.021274799 3.1256635 -0.83753842 30
0.026139803 3.5660987 -0.82332087 20
0.032500949 4.0481 -0.78689629 29
0.040358305 4.7190027 -0.74744397 22
0.052750159 5.8121114 -0.71366698 2
0.071814723 7.4810777 -0.65453959 2
0.11638318 11.30189 -0.59233844 3
0.42176864 38.975784 -0.68036461 52
0.28158259 39.349003 0.68685693 14
nan nan nan nan
0.35918048 43.785275 3.8308434 20
nan nan nan nan
nan nan nan nan
nan nan nan nan
nan nan nan nan
nan nan nan nan
0.042990476 3.1177123 -0.83546793 47
0.050339703 3.5171158 -0.81207335 26
0.059734423 4.0261917 -0.78269857 29
0.070719026 4.6040602 -0.72929758 21
0.093736626 5.8374043 -0.71683556 2
0.12298015 7.416647 -0.64896166 2
0.18777105 10.977327 -0.57538158 3
0.69279277 38.911911 -0.67931753 52
0.54319996 38.902287 0.67910808 14
nan nan nan nan
nan nan nan nan
nan nan nan nan
nan nan nan nan
nan nan nan nan
nan nan nan nan
nan nan nan nan
0.064915642 3.1250618 -0.83753842 27
0.074353188 3.4913509 -0.80622464 24
0.087721504 3.9883683 -0.77544779 24
0.10312945 4.5797377 -0.72554308 23
0.13284363 5.7651634 -0.70806098 2
0.17406324 7.3319197 -0.6416406 2
0.25866342 10.660229 -0.55884337 3
0.9650082 38.930111 -0.67973632 52
0.8200441 38.825424 0.67785144 14
nan nan nan nan
nan nan nan nan
nan nan nan nan
nan nan nan nan
nan nan nan nan
nan nan nan nan
nan nan nan nan
0.086783223 3.1264637 -0.83805609 28
0.098723926 3.4907465 -0.80622464 27
0.11465536 3.9562597 -0.76934189 39
0.13463348 4.5631099 -0.72304016 25
0.16987133 5.6569481 -0.69489902 2
0.22304255 7.2588339 -0.63536537 2
0.32534859 10.410623 -0.54586405 3
1.2361516 38.902439 -0.67938727 52
1.0906272 38.802765 0.67757225 14
nan nan nan nan
nan nan nan nan
1.3014705 43.595043 5.3551831 23
nan nan nan nan
nan nan nan nan
nan nan nan nan
nan nan nan nan
0.10760169 3.0968215 -0.83029151 21
0.12212988 3.462707 -0.79992604 28
0.14184716 3.9435911 -0.76705217 37
0.16461149 4.5107331 -0.71490556 24
0.20642012 5.5762753 -0.68514949 2
0.26951155 7.1456056 -0.62560391 3
0.38611427 10.096753 -0.52953523 3
nan nan nan nan
1.3599521 38.75024 0.67680436 14
nan nan nan nan
1.5764252 43.614811 3.8182929 20
nan nan nan nan
nan nan nan nan
nan nan nan nan
nan nan nan nan
nan nan nan nan
0.12784943 3.0631819 -0.82149172 32
0.14737085 3.4870811 -0.80577475 22
0.16861679 3.9248519 -0.76361769 27
0.19463938 4.4759245 -0.7095868 32
0.24333739 5.5290856 -0.6795435 2
0.31618699 7.0718951 -0.61932868 3
0.44251391 9.7825575 -0.51320642 3
nan nan nan nan
1.6297737 38.723816 0.67652506 14
nan nan nan nan
nan nan nan nan
nan nan nan nan
1.9290946 43.486637 6.8943806 34
nan nan nan nan
nan nan nan nan
nan nan nan nan
0.15007766 3.0795805 -0.82615042 22
0.17056118 3.4626105 -0.80037588 22
0.19444598 3.8922062 -0.75751179 30
0.2258825 4.4744563 -0.7095868 22
0.27768457 5.4439859 -0.66930646 2
0.36205745 7.0258045 -0.61549383 3
0.49620843 9.4999952 -0.49855235 3
nan nan nan nan
1.9008616 38.727474 0.67680436 14
nan nan nan nan
nan nan nan nan
2.2139974 43.55426 5.3546958 23
2.2326415 43.472107 6.8943806 34
nan nan nan nan
nan nan nan nan
nan nan nan nan
0.17060602 3.0610983 -0.82149172 26
0.19396438 3.4477158 -0.79722661 24
0.2203784 3.8809919 -0.75560367 36
0.25350842 4.4235115 -0.70176506 22
0.31212276 5.3804803 -0.66175061 2
0.40528002 6.9236565 -0.60677826 3
0.55497825 9.3967075 -0.49331877 3
nan nan nan nan
2.1612837 38.657738 0.67582703 14
nan nan nan nan
nan nan nan nan
2.666254 46.241352 5.6871552 28
nan nan nan nan
nan nan nan nan
nan nan nan nan
nan nan nan nan
0.19059247 3.0463693 -0.81786817 27
0.21644454 3.4307568 -0.79362738 31
0.24459286 3.8342955 -0.74682647 30
0.28349671 4.4078355 -0.69957501 26
0.34398425 5.3049374 -0.65273225 2
0.44369963 6.7695613 -0.5935306 3
0.6097647 9.2291851 -0.48473567 3
nan nan nan nan
2.4325125 38.663654 0.67621094 14
2.4699993 38.934193 2.0445566 33
2.7849779 43.538372 3.8168986 20
nan nan nan nan
nan nan nan nan
nan nan nan nan
nan nan nan nan
nan nan nan nan
0.21038057 3.0237656 -0.8121742 23
0.23875515 3.4058344 -0.78822857 15
0.26913497 3.8011608 -0.74072057 31
0.31285468 4.386045 -0.6964463 30
0.37546259 5.2251868 -0.64322644 2
0.4874889 6.7186065 -0.58934712 3
0.6616618 9.0533953 -0.47573388 3
nan nan nan nan
2.7061429 38.699593 0.67715341 14
nan nan nan nan
nan nan nan nan
3.1103742 43.391964 5.3415337 47
3.1287127 43.329674 6.8806143 33
nan nan nan nan
nan nan nan nan
2.2645121 30.617359 8.226305 17
0.22912613 2.9914036 -0.80389202 32
0.26192877 3.3963125 -0.78642893 30
0.2949039 3.7894027 -0.73881245 24
0.34331316 4.3817849 -0.69613349 28
0.40943211 5.1907749 -0.63932663 4
0.52469355 6.6078811 -0.5799343 3
0.71464336 8.9211407 -0.46903491 3
nan nan nan nan
2.9974036 38.954903 0.68197024 14
nan nan nan nan
nan nan nan nan
3.4129198 43.365234 5.3410459 23
3.4312909 43.30875 6.8809276 33
nan nan nan nan
nan nan nan nan
2.4747756 30.558441 8.2149172 17
0.25032502 2.9935815 -0.80492729 33
0.28187478 3.3497379 -0.77608114 18
0.31887043 3.7657886 -0.73461467 31
0.3679345 4.3183303 -0.68643451 18
0.4412455 5.1363668 -0.63298941 4
0.56669474 6.5564175 -0.57575083 3
0.7597785 8.7369919 -0.45961443 3
nan nan nan nan
3.7434213 44.672604 0.78249609 20
nan nan nan nan
3.6846745 43.335506 3.8050454 20
nan nan nan nan
nan nan nan nan
3.1402552 36.184196 7.0599327 19
1.9950749 22.849741 5.2953482 9
2.6850901 30.567829 8.2221642 17
0.27017367 2.9860363 -0.80337435 31
0.30184177 3.3166907 -0.76888275 20
0.34389594 3.7497854 -0.73194337 28
0.38899931 4.2173057 -0.67079103 24
0.47179431 5.0858064 -0.62713969 4
0.60723507 6.5087657 -0.57191598 3
0.80916673 8.6081867 -0.45312473 3
1.6233104 17.172821 -0.30108893 6
4.0526714 44.6175 0.78200746 20
nan nan nan nan
3.9815907 43.331242 3.8069627 20
nan nan nan nan
nan nan nan nan
2.1354969 22.803553 4.4519558 7
2.8792319 30.572969 7.0895576 17
2.8960414 30.523338 8.2154341 17
0.28688976 2.941777 -0.79198635 30
0.32289904 3.2931685 -0.76393384 26
0.36710253 3.7239122 -0.72736394 34
0.41906238 4.2283196 -0.67298114 22
0.50157088 5.0251055 -0.62007129 1
0.64271396 6.4052463 -0.56320041 3
0.86172462 8.5428658 -0.44998461 3
1.5578431 15.336737 -0.26908121 10
4.3539252 44.564999 0.78158855 20
nan nan nan nan
nan nan nan nan
4.5794935 46.043339 5.6813059 28
3.0640035 30.643324 4.8776274 13
3.0914547 30.701216 5.9978905 84
3.09319 30.557941 7.0909076 17
3.1041465 30.506762 8.2164698 17
0.3040975 2.9128566 -0.78473938 57
0.34469584 3.2850802 -0.76258409 20
0.39143971 3.7056396 -0.72431099 24
0.44627544 4.2036839 -0.66953957 22
0.53390056 4.995821 -0.61690265 1
0.67805707 6.3134384 -0.55553067 3
0.91148955 8.4452972 -0.44516969 3
1.5620763 14.379199 -0.2524665 10
4.639504 44.290886 0.77733016 19
nan nan nan nan
nan nan nan nan
3.266726 30.668892 3.7869682 11
3.2738645 30.583864 4.8716826 13
3.3059101 30.68084 5.9982719 84
3.3022392 30.496857 7.0819097 51
3.3164065 30.478588 8.2149172 17
0.32600531 2.9202056 -0.78732753 60
0.36602226 3.2631633 -0.75808507 18
0.41532165 3.6852586 -0.7208764 31
0.47055754 4.1493502 -0.66140497 21
0.56426829 4.9525256 -0.61202788 3
0.71531624 6.2491674 -0.55030131 3
0.95818818 8.3195105 -0.43888938 3
1.5987651 13.817698 -0.24279788 19
4.9441762 44.21767 0.77663213 19
nan nan nan nan
4.0428085 35.760735 3.1485884 12
2.5886676 22.791201 2.8164008 7
3.4953256 30.583206 4.8754373 13
4.5683246 39.787014 7.7846255 8
3.5139501 30.463379 7.0796599 86
3.5330849 30.44256 8.2118111 17
0.34683973 2.9216952 -0.78836286 51
0.38671789 3.2431135 -0.75403601 21
0.44074687 3.6743951 -0.71934998 27
0.49691483 4.1243911 -0.65796345 21
0.59596783 4.9248171 -0.60910302 3
0.75123358 6.1807303 -0.54472339 3
0.99879164 8.169879 -0.431353 3
1.6522939 13.456878 -0.23665462 18
5.2344575 43.96273 0.77279258 19
nan nan nan nan
2.7406228 22.814207 2.0103345 6
3.6966252 30.592054 3.783556 23
3.7080371 30.552176 4.8744984 13
3.9007294 31.999765 6.2661676 13
3.7291441 30.459381 7.084609 100
3.745764 30.419069 8.2123289 17
0.36578044 2.9077022 -0.78525704 50
0.40128815 3.1765337 -0.73918921 31
0.45956877 3.6226189 -0.70980954 18
0.52372712 4.1111155 -0.65639907 21
0.61923671 4.8339 -0.59837854 3
0.7831803 6.0883865 -0.53705364 6
1.0351899 8.0143299 -0.42350259 6
1.6838728 12.965118 -0.22820766 8
5.5225844 43.838787 0.77125674 19
nan nan nan nan
3.8947673 30.61537 2.7000849 19
3.9042706 30.562246 3.7830684 35
3.9169192 30.534065 4.8757501 27
4.1175046 31.921129 6.2562456 13
3.9404483 30.422943 7.0823593 86
3.9554744 30.41394 8.2180223 17
0.38454884 2.897485 -0.7831865 26
0.42187282 3.1660013 -0.73738962 38
0.48537126 3.6232138 -0.71057272 24
0.54899424 4.0819073 -0.65233177 22
0.64495373 4.7764578 -0.59179759 10
0.81092411 5.9741859 -0.5274666 6
1.0719645 7.8664017 -0.41607088 5
0.7591939 5.5494571 -0.097768381 21
nan nan nan nan
nan nan nan nan
nan nan nan nan
4.1175399 30.534246 3.7830684 23
4.1315818 30.517723 4.8776274 13
4.1765747 30.729033 6.028038 12
4.153008 30.396622 7.0828094 100
4.1682324 30.389416 8.219058 17
0.39995089 2.8602915 -0.77386898 16
0.44802696 3.1919265 -0.74413812 22
0.50681472 3.592521 -0.70523006 19
0.57332349 4.0486379 -0.6476388 26
0.67213798 4.728601 -0.58643532 17
0.8433165 5.9032898 -0.52171427 6
0.79773182 5.5633845 -0.29454678 62
0.79307514 5.5103736 -0.097175002 27
1.5207585 10.848256 0.19120856 1
nan nan nan nan
4.3131714 30.535086 2.697993 59
4.3350587 30.536203 3.7869682 11
4.3417339 30.46858 4.8744984 13
4.3729186 30.572802 6.003233 48
4.3734336 30.424755 7.0963063 52
4.3786335 30.348103 8.2159519 17
0.41906711 2.8516955 -0.7723161 23
0.46973124 3.1848652 -0.74323833 21
0.5246858 3.5403445 -0.69568962 16
0.59779447 4.0191364 -0.6435715 29
0.69663215 4.6668568 -0.57936692 19
0.82798266 5.5269775 -0.4889437 45
0.83536303 5.5497799 -0.29412812 37
0.83391494 5.5205207 -0.097454235 31
1.5728558 10.67713 0.18838128 5
4.5215855 30.583134 1.6202167 17
4.5256562 30.500288 2.6976445 59
4.5469651 30.497341 3.7859933 35
4.5575542 30.459017 4.8779402 27
4.5973434 30.615303 6.0177345 24
4.5946569 30.488705 7.1183515 88
4.5926962 30.332075 8.2200937 17
0.43720019 2.8372443 -0.76921022 15
0.48778674 3.1545463 -0.73693973 13
0.54847276 3.5347507 -0.69530803 17
0.61815006 3.9700811 -0.63637549 17
0.72520792 4.6363835 -0.57619828 15
0.86685711 5.5230312 -0.48911804 39
0.87156361 5.534101 -0.29360473 37
0.87243247 5.5145645 -0.097454235 48
1.6521989 10.709655 0.18914919 5
2.1905019 14.1498 0.75039297 10
4.7384639 30.467953 2.6976445 59
4.7538366 30.461763 3.785506 35
4.7638602 30.421432 4.8770013 13
4.8195095 30.636766 6.02842 12
5.367074 34.001564 7.9470716 24
4.7978592 30.292475 8.2180223 17
0.45527381 2.8265736 -0.76713973 23
0.50644827 3.1338389 -0.73289061 13
0.56873107 3.5037053 -0.68996537 22
0.64616698 3.9676187 -0.63668835 21
0.75450921 4.6176262 -0.57449216 17
0.9070099 5.5266747 -0.48998958 45
0.91018033 5.5278811 -0.29360473 60
0.90995139 5.5084982 -0.097454235 53
1.5647181 9.6930237 0.17138264 1
2.2595358 13.950808 0.74065852 19
4.9514956 30.47039 2.7007821 49
4.9644656 30.416075 3.7840433 11
4.9774027 30.395231 4.878253 13
5.2141171 31.736561 6.2516661 13
5.622704 34.074787 7.9731655 25
5.0117483 30.273493 8.2221642 17
0.47018829 2.7947505 -0.75937515 34
0.52734125 3.1244621 -0.73154086 18
0.59022492 3.4822285 -0.68653083 22
0.66722786 3.9240625 -0.630431 19
0.77804959 4.5613685 -0.56815493 17
0.94523227 5.5182447 -0.48981526 51
0.94942391 5.5253296 -0.29381409 52
0.94668746 5.4921579 -0.097279713 29
1.5675215 9.297349 0.16457619 1
2.3412211 13.842137 0.73573893 9
5.1644316 30.437046 2.7009563 39
5.1806898 30.404158 3.7869682 23
5.1901455 30.363636 4.8788786 13
5.4415255 31.734217 6.2585359 13
5.2304931 30.376192 7.1161017 52
5.2249331 30.249189 8.2252693 17
0.48801747 2.7818859 -0.75678688 37
0.54542482 3.0995932 -0.726592 31
0.61008036 3.4528902 -0.68156981 16
0.69184893 3.9037483 -0.62792808 17
0.80466354 4.5265093 -0.5644989 15
0.98408395 5.5134721 -0.48998958 33
0.99043852 5.5323281 -0.29454678 45
0.98535764 5.4873834 -0.097314619 31
1.4662092 8.3408203 0.14782189 1
2.4218464 13.734976 0.73092401 22
5.3899822 30.474802 2.7075803 9
5.3949075 30.378979 3.7884309 35
5.4047685 30.342222 4.881382 27
5.4326382 30.406376 6.0039964 72
5.4334855 30.289064 7.1044044 35
5.4404325 30.236694 8.2319994 17
0.50430447 2.761307 -0.75212818 39
0.56178546 3.0669568 -0.71984339 28
0.63203907 3.4369617 -0.67928004 17
0.71621722 3.8832822 -0.62542504 19
0.8293823 4.4836941 -0.5598678 15
1.0192773 5.4888377 -0.48842075 9
1.028306 5.5213518 -0.29433745 45
1.0254786 5.4901996 -0.097489148 42
1.4524127 7.9369745 0.14084093 3
2.5068595 13.658801 0.72778392 22
5.6033263 30.44035 2.7079289 9
5.6075826 30.344479 3.7889183 23
5.6189857 30.317347 4.8835716 27
5.6340041 30.309805 5.9925475 36
5.6512599 30.284874 7.1125031 35
5.6546044 30.215061 8.2366571 17
0.5216471 2.7502186 -0.75005764 39
0.5746358 3.0209448 -0.70994556 32
0.65137041 3.4113669 -0.67508227 16
0.73743415 3.851155 -0.62104493 16
0.84865433 4.4194598 -0.55255568 27
1.0422856 5.4074302 -0.48179695 5
1.0643488 5.506381 -0.29391876 57
1.0628256 5.4830918 -0.097489148 46
1.4238938 7.4927425 0.13312696 1
2.6008959 13.647307 0.72809792 9
5.8107719 30.403461 2.7081032 9
5.8177271 30.325102 3.7913554 24
5.8281903 30.293915 4.8860745 27
5.8371968 30.255335 5.9894948 36
6.7957377 35.091831 8.2521048 27
5.8615999 30.183458 8.2387276 17
0.53747535 2.7294509 -0.74539888 24
0.59344685 3.0053887 -0.70724612 28
0.65455878 3.3027437 -0.65447485 23
0.75544465 3.8013515 -0.61384892 19
0.87482977 4.3900661 -0.54963076 8
1.0706334 5.3531332 -0.47761348 5
1.1023719 5.4968581 -0.29381409 52
1.10305 5.4853406 -0.097663663 27
2.7112176 13.742985 0.24450821 17
2.717814 13.738538 0.73395956 9
6.0302525 30.399286 2.7114151 9
6.0300694 30.287642 3.7918432 36
6.0426483 30.267984 4.8885775 27
6.0760369 30.352448 6.0169711 12
7.1035099 35.356865 8.3258886 28
6.0775185 30.168316 8.2459745 17
0.5576781 2.7313099 -0.74695182 14
0.61676055 3.0126269 -0.70994556 27
0.68234152 3.3211706 -0.65905434 12
0.77797914 3.7766371 -0.61072022 30
0.89496952 4.3292618 -0.54280609 14
1.0990829 5.3026075 -0.47377861 5
1.1435651 5.5027161 -0.29454678 40
1.1430904 5.4812222 -0.097733475 31
2.8002768 13.690418 0.24391484 28
2.7883747 13.595967 0.7273652 9
6.2471337 30.379866 2.7135067 29
6.2486062 30.279797 3.7962303 36
6.261416 30.261816 4.8945222 27
6.2994504 30.338951 6.023077 36
7.3727965 35.415161 8.3515339 28
6.2903533 30.136499 8.2490807 17
0.57360727 2.7102399 -0.742293 31
0.63263816 2.9814487 -0.70364696 21
0.70183438 3.2990434 -0.65561974 20
0.80457181 3.7690415 -0.61040735 27
0.92517167 4.3229084 -0.54280609 14
1.1252053 5.2441568 -0.46924651 2
1.1845937 5.502202 -0.29496548 42
1.1800629 5.4672441 -0.097628765 38
2.9828086 14.081355 0.25124484 28
2.9150767 13.714373 0.73479688 16
6.4705958 30.363615 2.7161214 49
6.4639945 30.25485 3.7986679 24
6.4794602 30.223959 4.8957734 27
6.5152421 30.313423 6.0268936 61
nan nan nan nan
6.511137 30.115263 8.2558098 17
0.59251434 2.7061694 -0.742293 31
0.65134817 2.967442 -0.70139742 42
0.72626829 3.2977712 -0.65638298 17
0.82618052 3.7421143 -0.60696578 22
0.94803607 4.2833948 -0.53866255 17
1.1449578 5.1603155 -0.46244836 5
1.2247107 5.5015965 -0.29538417 45
1.2195067 5.4647284 -0.097733475 42
3.114768 14.202239 0.25379291 18
2.9905927 13.602006 0.72987735 13
6.6832738 30.321592 2.71647 59
6.6863284 30.234955 3.8020802 36
6.6988564 30.21656 4.9020309 13
6.7245812 30.257618 6.0249853 24
6.7372065 30.239656 7.152544 89
6.7233443 30.078499 8.2583981 17
0.60926074 2.6925457 -0.73970485 27
0.66816926 2.9457183 -0.6973483 51
0.74304003 3.2678645 -0.65142196 31
0.84460944 3.7055886 -0.60195988 18
0.9721663 4.2515144 -0.53549391 14
1.1698296 5.1036448 -0.45809054 5
1.2585553 5.47756 -0.29454678 35
nan nan nan nan
3.1353941 13.845257 0.24778928 30
3.0959382 13.637815 0.73291278 9
6.9058566 30.322762 2.7208281 9
6.8937297 30.196487 3.803055 36
6.9078903 30.185669 4.9045339 27
6.9185085 30.135313 6.0101018 36
8.3641663 36.344975 8.6102266 30
6.9322548 30.050863 8.2635746 17
0.61922878 2.6525924 -0.72986972 31
0.68243128 2.916435 -0.69149959 32
0.76000345 3.2377503 -0.64646095 30
0.87000626 3.6976786 -0.60164702 15
0.99287915 4.2100215 -0.53110665 22
1.1953378 5.0526991 -0.45425573 5
nan nan nan nan
2.1469519 9.0329466 -0.16206305 6
3.3162079 14.183257 0.25424665 31
3.1960795 13.637262 0.73406422 22
7.0966058 30.209108 2.7149014 9
7.108912 30.166948 3.8054924 24
7.1284623 30.178999 4.911417 13
7.1320815 30.123816 6.0173526 24
nan nan nan nan
7.1476965 30.026167 8.2703047 18
0.62913996 2.6125195 -0.7200346 54
0.70277655 2.9115994 -0.69149959 42
0.7839731 3.2380903 -0.64760572 28
0.87623465 3.610889 -0.58850652 19
1.0227156 4.204916 -0.53135037 13
1.2187778 4.9958401 -0.44989792 5
1.5398421 6.2975798 -0.33976504 5
2.1952062 8.9575291 -0.16098098 3
3.3659151 13.955645 0.25058165 21
3.2775977 13.558317 0.73102868 19
8.5778465 35.402493 3.1869369 12
7.3240461 30.135872 3.80793 24
7.3356905 30.115067 4.9092269 13
7.3501129 30.105717 6.0238404 36
nan nan nan nan
7.3640656 30.003674 8.2780685 18
0.64643264 2.6043136 -0.71899933 51
0.71649992 2.8801467 -0.68520099 37
0.7975297 3.196346 -0.64035505 33
0.8995052 3.597018 -0.58725506 27
1.044325 4.1668649 -0.52745056 13
1.2356542 4.9157152 -0.44344842 2
1.5705962 6.2343836 -0.33693892 2
2.2185261 8.7868776 -0.15818861 12
3.4193554 13.75521 0.24740532 21
3.397274 13.635884 0.73647165 9
7.557282 30.265587 2.7291949 10
7.5448651 30.126368 3.813292 36
7.5520058 30.088026 4.9132943 27
7.5677743 30.084133 6.0299463 24
nan nan nan nan
7.5809145 29.981503 8.2863512 18
0.6622048 2.590379 -0.71641117 36
0.7370733 2.8769622 -0.68565083 26
0.81640649 3.1773896 -0.63768369 37
0.91819149 3.5657823 -0.58318776 22
1.0684296 4.1402516 -0.52501315 13
1.256961 4.8568201 -0.43891633 2
1.6110736 6.2116675 -0.33631086 8
2.2496331 8.6550522 -0.15609433 3
3.5366275 13.814304 0.24890622 39
3.0814016 12.009986 0.64980328 8
3.5663979 13.870123 1.2529509 15
7.760951 30.096027 3.8162169 24
7.7737389 30.080471 4.9208031 13
7.7820468 30.04767 6.0333805 24
7.8036318 30.044582 7.166491 18
7.7949066 29.946545 8.2915277 36
0.67486614 2.5651419 -0.71071708 28
0.75465488 2.862325 -0.68340135 18
0.83555788 3.1602244 -0.63539398 30
0.93446213 3.5268238 -0.577869 34
1.0866098 4.0924006 -0.51989466 18
1.2582304 4.7287765 -0.42810899 4
1.5380307 5.7641468 -0.31265503 2
2.2821083 8.5348177 -0.15420946 3
3.6294169 13.775742 0.24866189 27
3.1330574 11.866523 0.64320898 2
3.6284955 13.71391 1.2410978 23
7.9769664 30.06414 3.8191419 24
7.9906425 30.052198 4.9251833 13
7.9966698 30.011583 6.0371971 36
8.0069389 29.987007 7.1655912 36
8.0117769 29.921251 8.2998095 18
0.69376689 2.5640979 -0.71175241 39
0.75728083 2.7930381 -0.66810465 28
0.84881216 3.1241508 -0.62928808 25
0.95585054 3.5108519 -0.57630467 36
1.1088781 4.0617356 -0.5169698 13
1.3153945 4.8082795 -0.43612733 2
1.6110218 5.876821 -0.31935403 8
2.2992353 8.3644238 -0.15141708 3
3.7565489 13.874249 0.2508958 28
3.202769 11.804443 0.64101082 14
3.7278094 13.701702 1.2423179 18
8.190835 30.043613 3.823529 24
8.204402 30.031408 4.9308152 13
8.2158661 29.990997 6.0444479 24
8.2367411 30.005543 7.1835876 54
8.2203827 29.884651 8.304986 18
0.71223861 2.5630386 -0.71278769 27
0.7872526 2.8272426 -0.67755258 16
0.86479616 3.0973482 -0.6250903 27
0.97182387 3.4736555 -0.57129872 30
1.1257852 4.0158648 -0.51209503 19
1.3378578 4.7627687 -0.4328154 5
1.6909959 6.0038481 -0.32689041 2
2.3083172 8.1792221 -0.14834546 3
3.8897715 13.978688 0.25326934 37
3.2872472 11.789492 0.64142954 14
3.8520768 13.787309 1.2524281 15
8.4110756 30.023933 3.8284039 36
8.4175835 29.986715 4.9330053 27
8.4304352 29.972181 6.0520802 24
10.733484 38.083561 9.1348133 35
8.4393244 29.863714 8.3153391 18
0.72163111 2.5282812 -0.70450544 29
0.80107719 2.8010678 -0.67260373 21
0.87828618 3.0649683 -0.61974764 35
0.99544412 3.4669604 -0.57129872 33
1.1493986 3.9926476 -0.51014513 19
1.3534037 4.6920547 -0.42723745 11
1.7174058 5.9423122 -0.32416895 2
2.3180592 7.9996486 -0.14537854 6
3.3752441 11.817571 0.21452498 14
3.3883016 11.83981 0.64540708 8
3.8971317 13.581974 1.236217 17
8.6273279 30.007954 3.8337662 12
8.6291714 29.955294 4.9373851 14
8.6525488 29.957863 6.0612388 50
11.105274 38.374596 9.2229939 36
8.6520748 29.83898 8.3246565 18
0.7328524 2.5029163 -0.69881141 31
0.810799 2.7637613 -0.66495538 22
0.89966232 3.0587621 -0.61974764 32
1.0112479 3.4315042 -0.56660569 24
1.1749946 3.9769104 -0.50917011 16
1.3872585 4.6863122 -0.42758605 19
1.7276134 5.8248625 -0.31841198 11
2.3829663 8.0139399 -0.14593703 6
3.5060468 11.958748 0.21752679 8
3.4444196 11.725801 0.64048749 8
3.994554 13.572334 1.2377858 12
8.8433409 29.969843 3.8366911 24
8.8520756 29.941681 4.9452071 14
8.8692942 29.923079 6.0665812 25
11.498306 38.718315 9.3246717 38
8.8568878 29.766735 8.3215504 36
0.75296736 2.5050087 -0.70088202 31
0.82605839 2.7429614 -0.66135615 25
0.92326307 3.0599248 -0.62127411 32
1.0340616 3.4185078 -0.56566709 22
1.1975483 3.9515128 -0.50697654 19
1.4135739 4.6555424 -0.42566866 26
1.7523845 5.7569408 -0.31537652 5
2.427773 7.9607663 -0.14527383 12
3.5692902 11.866956 0.21630514 18
3.6862288 12.2248 0.66916758 9
3.6404111 12.050024 1.1013 2
9.0615559 29.937775 3.840591 12
9.079299 29.921049 4.9524026 28
9.0859766 29.886728 6.0719242 37
9.122344 29.949999 7.2281275 18
9.0837564 29.748787 8.3344908 55
0.76076531 2.4683061 -0.69208211 33
0.84576404 2.7389891 -0.66180605 18
0.94629532 3.0569913 -0.62203735 37
1.0438575 3.3659244 -0.55815822 28
1.2233371 3.9373696 -0.50624532 15
1.442112 4.6300898 -0.42427412 21
1.7776593 5.6969013 -0.3127597 7
2.4158683 7.7279506 -0.14132959 12
3.6352475 11.779965 0.21518818 24
3.6133807 11.687385 0.64111555 11
3.7061729 11.965316 1.0958962 8
9.286149 29.90629 3.8449781 12
9.3073292 29.91918 4.9627275 14
9.3037491 29.852558 6.0780301 37
9.3416576 29.900696 7.2321768 55
9.307394 29.736269 8.3489857 55
0.78321576 2.4795141 -0.69674093 37
0.85663396 2.7070067 -0.65550739 13
0.96405381 3.0390816 -0.61974764 38
1.0691271 3.364202 -0.55909681 27
1.2405596 3.8965766 -0.50210178 16
1.4731873 4.6161137 -0.42392552 21
1.7985302 5.6253791 -0.30951488 2
2.4551177 7.6651921 -0.14049187 21
3.760808 11.891578 0.21770133 25
3.7359009 11.791347 0.64823323 8
3.7148671 11.703673 1.0742816 16
9.4983196 29.852083 3.8464406 49
9.5207767 29.868528 4.9652305 28
9.5274611 29.835503 6.0879521 37
12.640097 39.487659 9.5721178 41
9.5277281 29.711039 8.3603735 56
0.79336905 2.4519298 -0.69052929 34
0.86589587 2.6713004 -0.64830899 30
0.97614688 3.0042698 -0.61402339 26
1.0883077 3.3435075 -0.55690676 33
1.2603477 3.8651731 -0.49917686 19
1.5021018 4.598403 -0.42322829 16
1.8147662 5.5424547 -0.30564201 10
2.4506123 7.4711556 -0.13724573 11
3.8881073 12.002003 0.22021447 25
3.8341587 11.81437 0.65095466 8
3.7792351 11.6244 1.0694009 18
9.7187815 29.822794 3.8513153 73
9.744379 29.848284 4.973052 14
9.7568645 29.833576 6.1013088 38
12.948613 39.522942 9.6018114 41
9.7427549 29.66766 8.3671026 37
0.80256927 2.4224916 -0.68379998 33
0.88513774 2.6670394 -0.64875889 42
0.99347538 2.9882412 -0.61211532 35
1.1004285 3.304162 -0.551588 41
1.2784992 3.8299196 -0.49576455 16
1.5107868 4.5178914 -0.41677874 23
1.8518134 5.5280809 -0.30553734 2
2.4797971 7.3856196 -0.13598914 23
3.9671955 11.967667 0.22007485 21
3.8647621 11.638255 0.64268559 8
3.8722579 11.633649 1.0727129 20
9.9391499 29.808676 3.85814 49
9.9573517 29.811239 4.9780583 14
9.973629 29.790796 6.1066513 38
13.247785 39.501778 9.6189079 42
9.9567747 29.63728 8.3774548 37
0.82524025 2.4352691 -0.68897635 20
0.88823766 2.6166651 -0.63796127 28
1.0054613 2.9552114 -0.6067726 26
1.1228334 3.2945287 -0.55127513 35
1.3019755 3.8136134 -0.4947896 22
1.5389273 4.4999619 -0.41608149 21
1.8592764 5.4243293 -0.30051309 2
2.5040333 7.2929182 -0.13459297 17
4.0525761 11.945359 0.22017956 51
3.9639122 11.663939 0.64561641 8
3.9577713 11.625885 1.074456 16
10.153408 29.757351 3.8605773 61
10.180549 29.78586 4.9855671 28
10.185718 29.750076 6.1123753 25
10.228291 29.823463 7.2789669 57
10.197351 29.665701 8.4054079 19
0.83969039 2.422147 -0.68690574 34
0.91351569 2.6306503 -0.64291012 24
1.0216823 2.9371738 -0.60448295 33
1.1387314 3.2681561 -0.54814643 23
1.3167856 3.7706976 -0.49040228 16
1.5610936 4.4627805 -0.41364115 18
1.8836099 5.3757339 -0.29852432 2
2.5032089 7.1280923 -0.13187039 11
4.1501746 11.964729 0.22105218 25
4.0576358 11.678192 0.64791918 17
4.0388389 11.597972 1.074456 18
10.371416 29.732534 3.8664272 49
10.397395 29.756901 4.9924502 14
10.409386 29.724567 6.1219158 38
10.407866 29.67042 7.2591705 18
10.425285 29.670334 8.426631 38
0.85809237 2.4218385 -0.68845868 42
0.94117767 2.6519189 -0.64965874 27
1.0322937 2.9022238 -0.5987587 33
1.1635085 3.2657092 -0.54908502 26
1.3357493 3.7429507 -0.4879649 22
1.579363 4.4182801 -0.41050354 18
1.896168 5.2928848 -0.29465145 2
2.5138445 7.0054874 -0.12991571 19
4.210206 11.869503 0.21983051 29
4.1544456 11.692867 0.65032667 23
4.1484194 11.656556 1.0824744 18
10.613414 29.756628 3.8791015 37
10.622176 29.731947 5.0005846 14
10.629349 29.702929 6.1322198 26
10.637217 29.675926 7.2780666 57
10.679848 29.729549 8.4644184 58
0.87103301 2.4048903 -0.68535286 37
0.94571221 2.6068134 -0.64021075 24
1.0634233 2.9264987 -0.60524619 26
1.1762519 3.2317259 -0.54470485 20
1.3570876 3.7204795 -0.48625872 13
1.5869254 4.3435187 -0.40457696 15
1.9143083 5.2310882 -0.29192999 2
2.5241332 6.8826303 -0.12796104 16
4.2949843 11.851851 0.22003995 19
4.2414308 11.684971 0.65147805 14
4.2201605 11.601097 1.0800339 16
10.869403 29.831043 3.8983569 37
10.832424 29.681231 5.0043392 29
10.856672 29.683317 6.1436687 39
10.887693 29.719887 7.3073106 19
10.889283 29.676115 8.4701128 58
0.88981271 2.404186 -0.68690574 39
0.9672749 2.6092837 -0.64246029 29
1.0658778 2.8691239 -0.59494245 33
1.1979697 3.2195237 -0.54407912 24
1.3712413 3.6792934 -0.48211515 26
1.6116339 4.3174019 -0.40318248 22
1.9446893 5.1985512 -0.29088327 2
2.5384476 6.7749567 -0.12628561 16
4.400526 11.877068 0.22108708 36
4.3152099 11.628107 0.65001267 14
4.3100672 11.595633 1.0822999 16
11.087441 29.76552 3.9000633 75
11.066635 29.662178 5.0143509 14
11.08013 29.650936 6.1528273 26
14.727638 39.348995 9.6998901 43
8.1134996 21.631468 6.190434 25
0.90042561 2.3816526 -0.68224704 29
0.99029708 2.6152248 -0.64560956 38
1.1000016 2.9003518 -0.60295647 22
1.2191536 3.2094486 -0.54376626 15
1.3983068 3.6733413 -0.48260266 19
1.6310891 4.2781205 -0.40056777 23
1.9472573 5.0993638 -0.28606835 2
2.5742457 6.7271895 -0.12572713 22
4.4812746 11.846836 0.22108708 27
4.4140787 11.650758 0.65294349 17
4.3965783 11.580159 1.0836946 24
11.301081 29.719049 3.9039629 75
11.296407 29.660006 5.026866 14
11.302262 29.613213 6.1612225 26
4.2292242 11.063656 2.7345052 14
8.0747433 21.090427 6.0511894 23
0.91453099 2.3700609 -0.6806941 28
0.99824184 2.5829751 -0.63931096 30
1.120223 2.8926015 -0.60295647 23
1.235101 3.184284 -0.54095048 16
1.4145684 3.6394362 -0.47943404 22
1.6760943 4.3056192 -0.4042283 18
1.9675746 5.0465679 -0.28387025 11
2.5789416 6.6010232 -0.12370266 15
nan nan nan nan
4.6149282 11.928871 0.67031902 9
4.4788933 11.559256 1.084566 23
11.52984 29.694944 3.9112751 75
11.526823 29.641172 5.0371904 29
4.3155055 11.074409 2.3103154 17
4.1830783 10.717986 2.6562223 38
8.044549 20.580122 5.9207449 22
0.93146622 2.3634565 -0.6806941 31
1.0109757 2.5612648 -0.63571173 33
1.1230688 2.8408916 -0.59379762 27
1.2323929 3.1110857 -0.53000003 19
1.4340839 3.6147115 -0.47748414 23
1.7039032 4.2882586 -0.40370542 15
1.9726067 4.9544239 -0.27947402 7
2.5782998 6.465838 -0.12150366 26
3.8012033 9.6400547 0.18087673 7
4.6664095 11.810097 0.6655041 12
4.5922866 11.604719 1.0918871 19
13.811134 34.847385 4.6025181 15
11.75176 29.590977 5.0428219 14
4.3905373 11.038538 2.3091705 25
4.1380877 10.387997 2.5815384 48
8.0075455 20.060925 5.7877116 28
0.94001395 2.3371804 -0.67500007 34
1.0331995 2.5649903 -0.6384111 24
1.1352849 2.8127568 -0.58959985 30
1.2814738 3.1701682 -0.54157621 13
1.4451327 3.5696502 -0.47285309 27
1.7120913 4.2227125 -0.39865038 17
2.0244348 4.9830918 -0.28188148 4
2.5826781 6.3476596 -0.11961879 21
4.2323027 10.512281 0.19780558 3
4.7136416 11.690171 0.66058451 3
4.6806512 11.59085 1.0936302 19
14.0661 34.762386 4.6044679 15
4.4863119 11.070615 1.8919187 22
4.4734006 11.022171 2.3122237 23
4.1503377 10.210819 2.5446465 22
4.200861 10.314471 2.9841838 32
0.95704103 2.3323483 -0.67551774 64
1.0377485 2.52527 -0.63031286 24
1.1469326 2.786809 -0.58578366 26
1.2894732 3.1284981 -0.53594452 15
1.4669875 3.5521352 -0.47187814 27
1.7095472 4.1333299 -0.39132929 21
2.0988181 5.0669923 -0.28742909 16
2.6399643 6.3608718 -0.12021218 15
4.0652995 9.9023666 0.18684547 5
4.8158951 11.713229 0.66372466 6
4.8024378 11.657368 1.103043 17
8.8921404 21.552607 2.8627112 48
8.8756895 21.480827 3.6812162 23
4.2581005 10.28505 2.163774 30
4.2162914 10.168996 2.5414972 22
4.2391105 10.208921 2.9619253 46
0.97140259 2.322216 -0.67448246 65
1.0473825 2.5001743 -0.62581384 34
1.1595216 2.7624416 -0.58234906 33
1.3013313 3.095746 -0.53187722 17
1.4942112 3.5493865 -0.47285309 19
1.727519 4.0955939 -0.38888893 21
2.1046059 4.9823036 -0.28345159 19
2.6504755 6.2654052 -0.11874618 18
4.199204 10.028687 0.18977746 10
5.0713277 12.093746 0.68727589 9
4.8616185 11.576648 1.098511 21
9.0370111 21.477192 2.8610051 80
4.5004506 10.680041 1.8356022 22
4.3409915 10.286575 2.1702616 16
4.2203965 9.9813643 2.5019059 20
4.4993529 10.625591 3.0918524 15
0.98835003 2.3171542 -0.67500007 29
1.0640472 2.4910088 -0.62536401 27
1.1834122 2.7651093 -0.58463877 36
1.3244684 3.0902171 -0.53250295 17
1.5072098 3.5115061 -0.46919701 16
1.7663023 4.1072283 -0.39115497 23
2.1298575 4.9454765 -0.28219551 23
2.6806889 6.2155333 -0.1181528 7
4.3900352 10.282346 0.1951528 10
5.2514291 12.282093 0.70004582 9
4.9587898 11.580889 1.1021715 12
9.1968927 21.437298 2.8641734 8
4.5655398 10.626586 1.8318479 18
4.4763207 10.403901 2.2015543 20
4.4303832 10.277351 2.5837882 22
4.0719061 9.432188 2.7527995 24
0.99911052 2.2977962 -0.67137665 46
1.0744098 2.4674392 -0.62131482 24
1.1940533 2.7369854 -0.580441 28
1.3396832 3.0664141 -0.53000003 19
1.5277095 3.4918048 -0.46797833 15
1.8142073 4.1407328 -0.39551273 17
2.1354311 4.8646493 -0.2784273 28
2.6725132 6.0795069 -0.11591888 12
4.3124785 9.9085732 0.18862562 12
5.3889165 12.364141 0.70684952 3
5.112844 11.713982 1.1182082 14
9.3749638 21.438046 2.8729482 8
4.6499171 10.617976 1.8359152 16
4.3485665 9.9157171 2.1046233 20
4.1711187 9.4975729 2.3948293 20
4.1034179 9.3257313 2.7300234 31
