# .PCD v0.7 - Point Cloud Data file format
VERSION 0.7
FIELDS x y z intensity
SIZE 4 4 4 4
TYPE F F F F
COUNT 1 1 1 1
WIDTH 1455
HEIGHT 1
VIEWPOINT 0 0 0 1 0 0 0
POINTS 1455
DATA ascii
2.6463354 -0.50673044 -0.42675328 7
3.0021915 -0.57650095 -0.3753576 8
3.421706 -0.65953606 -0.30487078 2
3.970948 -0.76755941 -0.21196064 3
4.4858088 -0.8695156 -0.079757497 4
5.2963905 -1.0065088 0.094103374 6
5.2678289 -1.0039393 0.28104413 63
nan nan nan nan
nan nan nan nan
14.552407 -2.7997177 2.3471429 2
14.409595 -2.7800674 2.8525946 3
11.599704 -2.246351 2.7277567 6
nan nan nan nan
1.9959109 -0.39302936 -0.54507297 12
2.1680093 -0.42809784 -0.51018906 11
2.3995442 -0.47555777 -0.47549605 8
2.6524208 -0.52711803 -0.42831761 9
2.9980938 -0.59744591 -0.3753576 6
3.4365551 -0.68731523 -0.30661389 3
3.9498267 -0.79212129 -0.21112327 3
4.5109963 -0.90711874 -0.080315977 3
5.2911963 -1.0438468 0.09413828 4
5.2548137 -1.039528 0.2807301 56
nan nan nan nan
nan nan nan nan
14.425963 -2.8799736 2.3299353 2
14.316684 -2.865953 2.838093 3
11.572275 -2.3249736 2.7250571 16
14.097486 -2.8399911 3.8532979 2
2.0082607 -0.41004556 -0.54921407 12
2.166877 -0.44361371 -0.51063895 10
2.3923199 -0.49150786 -0.47473282 8
2.656415 -0.54721659 -0.42956907 9
3.001626 -0.619968 -0.37633255 4
3.4415522 -0.71271116 -0.30748546 3
3.9481106 -0.82048935 -0.2113326 3
4.500639 -0.93777329 -0.080246165 3
5.3131676 -1.0867716 0.094661854 6
5.2474284 -1.0761881 0.2807301 43
nan nan nan nan
nan nan nan nan
14.428719 -2.9854178 2.3336897 2
14.323238 -2.9714146 2.8434358 3
11.567629 -2.4060705 2.7277567 2
14.077315 -2.9383404 3.8532979 2
1.9902288 -0.42085835 -0.54507297 12
2.1637273 -0.45873043 -0.51063895 10
2.3831577 -0.5065558 -0.47358796 9
2.660357 -0.56693232 -0.43082058 7
2.98946 -0.6392476 -0.3753576 5
3.4403889 -0.73755544 -0.30783406 3
3.9619613 -0.85154098 -0.21237932 3
4.5018015 -0.9708569 -0.080385789 3
5.3134718 -1.1245679 0.094801471 6
5.2419353 -1.1122954 0.28083476 38
nan nan nan nan
nan nan nan nan
14.421586 -3.0864551 2.3358798 2
14.300226 -3.0709245 2.8430541 3
14.168141 -3.0503211 3.3459222 3
14.049436 -3.0324626 3.8512278 2
1.9892051 -0.43480805 -0.54559058 12
2.1700726 -0.4755334 -0.51288843 11
2.3853157 -0.52444559 -0.47473282 8
2.6524758 -0.58464074 -0.43019485 7
3.000546 -0.66300768 -0.37730753 6
3.4469604 -0.76354152 -0.30887994 3
3.9676178 -0.88177955 -0.21300736 5
4.5146074 -1.0058255 -0.080734834 3
5.2937708 -1.1590689 0.094592042 10
5.2457476 -1.151433 0.28146279 26
nan nan nan nan
nan nan nan nan
14.426689 -3.1930368 2.34026 2
14.301991 -3.1732941 2.8476336 3
14.185096 -3.1551516 3.3549201 3
14.054319 -3.1363616 3.8584745 2
1.9880055 -0.4491103 -0.54610825 12
2.164799 -0.4902412 -0.51243854 10
2.3950922 -0.54371202 -0.47740412 9
2.6407306 -0.60092866 -0.42894334 7
2.9881032 -0.68217176 -0.37633255 6
3.4396036 -0.78714257 -0.30870563 3
3.9576306 -0.9078725 -0.21279801 3
4.5035777 -1.0364217 -0.080665022 3
5.2818584 -1.1941935 0.094522238 12
5.2494755 -1.1897613 0.28209084 15
nan nan nan nan
10.80951 -2.4637978 1.3612807 1
14.508611 -3.3149211 2.3571548 2
14.373257 -3.2945557 2.8663328 3
14.305167 -3.286833 3.3886631 3
14.205841 -3.271843 3.9060972 2
1.9924282 -0.46438578 -0.54817873 12
2.155719 -0.50363505 -0.51108885 9
2.3874152 -0.55952358 -0.47664091 8
2.6403167 -0.62025309 -0.42956907 7
2.9949839 -0.70522511 -0.37779501 5
3.4437199 -0.81342626 -0.3095772 3
3.9511962 -0.93547958 -0.21279801 3
4.5197663 -1.072593 -0.081083886 3
5.2597618 -1.2278563 0.094277903 13
5.2254834 -1.2227398 0.28125346 12
nan nan nan nan
nan nan nan nan
14.508186 -3.4215698 2.3609092 2
14.360052 -3.3945725 2.8682408 3
14.274288 -3.3848226 3.3868632 3
14.167619 -3.3673646 3.9019563 2
1.9985293 -0.48054227 -0.55076694 12
2.1597288 -0.52049875 -0.51288843 9
2.3872674 -0.57709974 -0.47740412 10
2.6551206 -0.64332241 -0.43269777 7
2.9861295 -0.72517973 -0.37730753 6
3.4611866 -0.84310627 -0.31166893 3
3.9406886 -0.96209371 -0.21258868 3
4.5082831 -1.1031699 -0.081014074 3
5.2802229 -1.2715687 0.094801471 10
5.2284689 -1.2620023 0.28188148 3
nan nan nan nan
nan nan nan nan
14.487784 -3.5237057 2.3615351 2
14.381782 -3.5059004 2.8773999 3
14.261666 -3.4871695 3.3895628 3
14.155022 -3.4689488 3.9050617 2
1.9763745 -0.48983544 -0.54559058 11
2.1692812 -0.53885221 -0.51603776 10
2.3717499 -0.590904 -0.47511441 9
2.6505647 -0.66184282 -0.43269777 7
2.9925482 -0.74890047 -0.37876993 8
3.445554 -0.86482406 -0.31079736 3
3.9609928 -0.99640262 -0.21405408 3
4.4888377 -1.1316833 -0.080804639 3
5.2731581 -1.3088821 0.094836384 12
5.2582951 -1.3081161 0.28397492 1
nan nan nan nan
nan nan nan nan
14.466663 -3.6257229 2.3621607 2
14.387422 -3.6138704 2.8835056 3
14.244534 -3.5885532 3.3913624 3
14.175413 -3.5790343 3.9174852 2
1.9803942 -0.50553238 -0.54766113 12
2.1711302 -0.55543232 -0.51738745 10
2.3827806 -0.61135072 -0.47816736 10
2.6344011 -0.67737949 -0.43082058 9
2.9949365 -0.77175546 -0.37974492 8
3.4375033 -0.88835877 -0.31062305 3
3.9539402 -1.024031 -0.21405408 3
4.4924412 -1.1660078 -0.081014074 3
5.2580795 -1.3441777 0.094731666 10
5.2877297 -1.3547074 0.28606835 1
nan nan nan nan
nan nan nan nan
14.437173 -3.7256429 2.3615351 2
14.369444 -3.7161911 2.8850322 3
14.249315 -3.6957386 3.3985608 3
14.120166 -3.6701336 3.9092031 2
1.982422 -0.52081835 -0.54921407 12
2.1483545 -0.56561458 -0.51288843 9
2.3784544 -0.6279707 -0.47816736 9
2.6334269 -0.69676495 -0.43144631 7
2.9971507 -0.79468006 -0.38071984 8
3.4564095 -0.91838771 -0.3128891 4
3.9582741 -1.0546949 -0.21468212 3
4.5073757 -1.2035329 -0.081432931 3
5.2485671 -1.3808529 0.094731666 10
nan nan nan nan
nan nan nan nan
nan nan nan nan
14.448997 -3.8364806 2.3677924 2
14.34315 -3.8164172 2.8850322 3
14.246425 -3.7986691 3.4039595 3
14.112863 -3.7736108 3.9143794 2
1.9806025 -0.53514934 -0.54973167 12
2.1518774 -0.58263612 -0.51468807 9
2.3835986 -0.646716 -0.48007545 9
2.6400604 -0.71778339 -0.43332353 7
2.9876993 -0.81454033 -0.38023239 8
3.4576018 -0.94459563 -0.31358635 3
3.9432979 -1.0795039 -0.21426344 3
4.5027208 -1.2360294 -0.081502736 3
5.2583504 -1.421766 0.095080711 7
nan nan nan nan
nan nan nan nan
nan nan nan nan
14.315828 -3.905627 2.3502717 2
14.255559 -3.8998797 2.8728204 3
14.185729 -3.8887608 3.3958614 3
14.098026 -3.8726563 3.9174852 2
1.9880831 -0.55171788 -0.55283749 12
2.1478617 -0.59726989 -0.51468807 9
2.36957 -0.66070431 -0.47816736 9
2.6311798 -0.73513365 -0.43269777 7
2.9706161 -0.83164692 -0.37876993 8
3.4470863 -0.96763396 -0.31323773 3
3.9529696 -1.1118741 -0.21520546 5
4.4942031 -1.2666496 -0.081502736 3
5.2444429 -1.4573703 0.095010899 6
nan nan nan nan
nan nan nan nan
nan nan nan nan
14.274899 -4.0017424 2.3480816 2
14.175762 -3.9819572 2.8621352 3
14.04944 -3.957058 3.369767 3
13.962811 -3.9405508 3.8874621 2
1.9693202 -0.56134725 -0.5486964 12
2.1548827 -0.61546123 -0.51738745 10
2.3573501 -0.67506886 -0.47664091 8
2.6411738 -0.75784332 -0.43520072 7
2.9914474 -0.86004424 -0.3821823 6
3.4364181 -0.9905718 -0.3128891 4
3.9527864 -1.1416605 -0.21562417 5
4.4775667 -1.2957703 -0.081363119 3
5.2418327 -1.496143 0.095150515 6
nan nan nan nan
nan nan nan nan
7.6030078 -2.1844358 0.97129875 1
nan nan nan nan
14.192889 -4.0938835 2.8712938 3
14.070146 -4.0691209 3.3814645 3
13.931251 -4.0368581 3.8864269 2
1.9709156 -0.57670945 -0.55024934 12
2.1561432 -0.63213468 -0.51873714 10
2.3732994 -0.69759983 -0.48083872 9
2.6301339 -0.77458936 -0.4342621 9
3.0044098 -0.88652557 -0.38461968 8
3.4028473 -1.0060314 -0.31044877 3
3.9523795 -1.1714985 -0.21604285 5
4.4760795 -1.329275 -0.081502736 5
5.229341 -1.5321389 0.095115617 9
nan nan nan nan
nan nan nan nan
7.5875716 -2.2374616 0.97129875 1
7.5170646 -2.2209485 1.241464 1
7.4773073 -2.2134597 1.5157868 2
5.1901298 -1.5393575 1.2498281 1
7.3235602 -2.1776822 2.0472586 33
1.9686917 -0.59101033 -0.55076694 12
2.1479454 -0.64604938 -0.51783735 9
2.374135 -0.71543747 -0.48198354 9
2.6210184 -0.79133207 -0.43363637 9
2.9905477 -0.90517813 -0.38364473 6
3.4109938 -1.0343885 -0.31184325 3
3.9462245 -1.1989547 -0.21614751 3
4.4858193 -1.3663177 -0.08185178 3
5.218791 -1.5676981 0.095115617 9
nan nan nan nan
nan nan nan nan
nan nan nan nan
nan nan nan nan
nan nan nan nan
5.0412927 -1.5335844 1.2165354 1
nan nan nan nan
1.9646232 -0.604397 -0.55076694 12
2.1379113 -0.65893286 -0.51648766 9
2.3765857 -0.73431277 -0.48351002 9
2.6267524 -0.81311566 -0.43551362 9
2.9900048 -0.92727691 -0.38437593 4
3.4170074 -1.0623169 -0.31306344 3
3.9396648 -1.227069 -0.21625218 5
4.4955049 -1.4027765 -0.082200833 3
5.2172747 -1.6070368 0.095290139 7
nan nan nan nan
nan nan nan nan
nan nan nan nan
nan nan nan nan
nan nan nan nan
4.991395 -1.5565581 1.2070874 3
nan nan nan nan
1.9714106 -0.62158334 -0.55387276 12
2.1425502 -0.67677695 -0.51873714 9
2.3639145 -0.74851573 -0.48198354 9
2.6134801 -0.8290447 -0.4342621 9
2.973999 -0.94512224 -0.38315722 6
3.4265933 -1.0915889 -0.31463224 3
3.9329054 -1.2551501 -0.21635687 5
4.474174 -1.4304729 -0.081991412 3
5.2154632 -1.6464311 0.095464662 4
nan nan nan nan
6.6628757 -2.1110291 0.61148465 1
nan nan nan nan
nan nan nan nan
nan nan nan nan
4.9729815 -1.5889938 1.2052878 17
nan nan nan nan
1.9651846 -0.63473731 -0.5533551 12
2.1433356 -0.69351804 -0.52008688 9
2.3623664 -0.76621211 -0.48274681 9
2.630173 -0.85459501 -0.43801656 9
2.9786544 -0.96954799 -0.38461968 6
3.4115069 -1.1124169 -0.31393498 4
3.924047 -1.2825762 -0.21635687 5
4.4678788 -1.4629177 -0.082061216 5
5.2152581 -1.686493 0.095674098 9
nan nan nan nan
6.5721717 -2.1328921 0.60451221 1
6.5145245 -2.1192119 0.8411423 1
6.4665103 -2.107337 1.0772078 1
6.4369273 -2.1014254 1.3162005 2
4.9601989 -1.622201 1.2048379 38
6.3185859 -2.071337 1.7817104 2
1.9570372 -0.64722812 -0.55231988 12
2.147691 -0.71152854 -0.52233636 9
2.3533695 -0.78103745 -0.48198354 10
2.6130481 -0.86873889 -0.43613935 9
2.979346 -0.99282944 -0.38559461 6
3.4149971 -1.1399914 -0.31498083 3
3.951215 -1.3212913 -0.21834564 5
4.4689331 -1.4978864 -0.082270645 5
5.2036576 -1.7219528 0.095674098 13
nan nan nan nan
nan nan nan nan
nan nan nan nan
nan nan nan nan
nan nan nan nan
4.9542961 -1.658646 1.2061877 57
6.2768669 -2.1050839 1.7739457 2
1.9617363 -0.66362947 -0.55490804 12
2.1446438 -0.72675633 -0.52278626 9
2.3515778 -0.79871088 -0.48274681 9
2.6069195 -0.88696003 -0.43613935 9
2.9800351 -1.0156475 -0.38656959 6
3.3958449 -1.1593478 -0.31393498 4
3.9418945 -1.3488436 -0.21834564 5
4.4737673 -1.5334576 -0.082549877 3
5.1952972 -1.7595217 0.095743902 16
nan nan nan nan
nan nan nan nan
nan nan nan nan
nan nan nan nan
nan nan nan nan
4.9613285 -1.6986424 1.2106867 77
nan nan nan nan
1.9588811 -0.67794049 -0.5554257 12
2.1284704 -0.73788106 -0.52008688 9
2.3553596 -0.81791896 -0.4846549 7
2.612016 -0.9085781 -0.43801656 9
2.9766207 -1.037734 -0.38705707 8
3.3914304 -1.1843406 -0.31428361 3
3.9345069 -1.3763031 -0.21845031 5
4.4705014 -1.5672994 -0.082689509 3
5.2002068 -1.8007331 0.096058048 14
nan nan nan nan
6.3495588 -2.2074232 0.5881269 1
6.293282 -2.1915524 0.81823081 17
6.2501469 -2.1802015 1.0484239 3
6.2269568 -2.1769896 1.2822365 1
4.9603839 -1.7371016 1.2133861 87
nan nan nan nan
1.9632063 -0.69482225 -0.55801392 11
2.1232672 -0.7527225 -0.52008688 8
2.3457465 -0.83343786 -0.48389161 6
2.6110308 -0.9292329 -0.43895519 7
2.9693034 -1.0584893 -0.38705707 8
3.3941264 -1.2126006 -0.31532949 3
3.9358411 -1.40846 -0.21907835 5
4.4556861 -1.5971214 -0.082619689 3
5.1928425 -1.8399022 0.096162759 17
5.1272039 -1.8196676 0.28512633 12
5.1757026 -1.8399317 0.48057678 1
nan nan nan nan
6.2325258 -2.2242064 1.0481111 1
6.2023635 -2.2171044 1.2803285 4
4.9478264 -1.7725526 1.2133861 89
6.0513906 -2.1714787 1.7226996 23
1.9546747 -0.70719647 -0.55697864 12
2.1307857 -0.77217501 -0.52323622 10
2.3454068 -0.85180432 -0.48503649 9
2.615618 -0.95149016 -0.44083238 7
2.9693022 -1.0819116 -0.38803205 8
3.3818352 -1.2348994 -0.31498083 3
3.9352903 -1.4393331 -0.21960169 5
4.4594483 -1.6336917 -0.08289893 3
5.1930327 -1.8808768 0.096407093 21
5.1425385 -1.8656343 0.2866964 43
5.1140442 -1.858328 0.47604465 53
nan nan nan nan
nan nan nan nan
nan nan nan nan
4.946311 -1.8110715 1.2160854 85
nan nan nan nan
1.9424418 -0.71814561 -0.55490804 12
2.1216879 -0.78567821 -0.52233636 10
2.3394029 -0.86815745 -0.48503649 10
2.6052086 -0.96835089 -0.44020665 9
2.9653974 -1.1039999 -0.3885195 8
3.3805983 -1.2612644 -0.31567809 4
3.9401135 -1.4723643 -0.22043908 5
4.4741545 -1.674598 -0.083387598 5
5.1816506 -1.917779 0.096442007 21
5.1406245 -1.9056557 0.28732443 42
5.1158881 -1.8995332 0.47743914 57
5.0623403 -1.8836733 0.66321301 60
5.0291781 -1.8743322 0.85006499 64
4.9918213 -1.8633871 1.0357113 76
4.9463234 -1.8503386 1.2192347 82
nan nan nan nan
1.9500315 -0.73646659 -0.55853152 12
2.1216192 -0.80253947 -0.52368605 10
2.3406284 -0.88725197 -0.48656297 9
2.6020782 -0.98791713 -0.44083238 7
2.9650397 -1.1274974 -0.38949445 8
3.3866053 -1.2905103 -0.3170726 4
3.9316044 -1.5005474 -0.22054374 3
4.4586182 -1.7043643 -0.083317786 5
5.1643944 -1.9524921 0.096372187 8
5.1029139 -1.9323026 0.28596368 21
5.0950508 -1.9323761 0.47674191 45
5.0453553 -1.9175584 0.66272557 61
5.0270467 -1.913613 0.85194218 67
4.9805255 -1.89889 1.0360929 72
4.9478488 -1.8903891 1.222834 80
4.8859439 -1.86967 1.401764 87
1.9430404 -0.7493673 -0.55801392 12
2.105058 -0.81311846 -0.52098668 9
2.3343773 -0.90357089 -0.48656297 10
2.595118 -1.0060589 -0.44083238 6
2.9570961 -1.1481696 -0.38949445 6
3.3963115 -1.3207533 -0.31881571 4
3.9154503 -1.5257829 -0.22022973 5
4.4652395 -1.7427201 -0.083666839 5
5.1618314 -1.9928199 0.096581623 13
5.0892997 -1.9678804 0.28596368 5
5.0962992 -1.9736551 0.47813639 42
5.0410991 -1.9563257 0.66394424 56
5.0246119 -1.9529552 0.85381943 64
4.9781241 -1.9378873 1.0383826 70
4.9384975 -1.9254397 1.2237338 80
4.8853679 -1.9086556 1.4053875 91
1.9467492 -0.76645249 -0.56060207 12
2.113833 -0.83351338 -0.52458584 9
2.3281729 -0.91943944 -0.48656297 10
2.5845363 -1.0222468 -0.44020665 7
2.9490082 -1.1687858 -0.38949445 8
3.3833046 -1.3429615 -0.31846708 4
3.9123976 -1.5553504 -0.22064841 5
4.4603953 -1.7768105 -0.083806455 5
5.161171 -2.0330391 0.09682595 13
5.1222343 -2.0208006 0.28858051 26
5.0916615 -2.0128481 0.47900796 38
5.0387397 -1.9949781 0.66540664 53
5.009366 -1.9863828 0.85350657 63
4.9754214 -1.9769434 1.0406723 67
4.9195037 -1.9577082 1.2223842 78
4.8776469 -1.9440104 1.4069405 74
1.9307309 -0.77536601 -0.55749625 11
2.1117265 -0.8493368 -0.52548569 10
2.323518 -0.93640441 -0.48694456 9
2.6066453 -1.0520948 -0.44521254 7
2.9446652 -1.1903198 -0.38998193 6
3.3738468 -1.3665485 -0.31846708 4
3.9162505 -1.5886323 -0.22148579 5
4.4593139 -1.8116462 -0.084015884 3
5.1654058 -2.0764799 0.097175002 14
5.1117072 -2.0580029 0.28878984 42
5.0889297 -2.0519295 0.48005384 53
5.032052 -2.0330811 0.66638166 63
5.0027013 -2.0242701 0.85475802 70
4.9709468 -2.0144508 1.0425804 67
4.9201608 -1.9978702 1.2259834 75
4.8711147 -1.9809262 1.4090109 79
1.9270586 -0.78955853 -0.55801392 10
2.112957 -0.86701769 -0.52728528 10
2.3223715 -0.95484233 -0.48808944 10
2.580971 -1.0627456 -0.44208387 7
2.9436245 -1.2138754 -0.39095688 8
3.3642244 -1.390069 -0.31846708 4
3.9235194 -1.6235706 -0.22253251 5
4.4650307 -1.8503894 -0.084364928 5
5.215538 -2.1390481 0.098396674 3
nan nan nan nan
nan nan nan nan
5.0360889 -2.075726 0.66881901 47
5.0030551 -2.0651758 0.857261 70
4.967648 -2.0536053 1.0448701 81
4.9114947 -2.0344079 1.2273331 82
4.8643041 -2.0178454 1.4110814 99
1.9232817 -0.80373746 -0.55853152 12
2.1014597 -0.87949061 -0.52593559 9
2.3210804 -0.97330976 -0.4892343 10
2.5807741 -1.0837976 -0.44333532 7
2.960696 -1.24517 -0.39436921 4
3.3693738 -1.4191232 -0.31986156 4
3.9047287 -1.6478161 -0.22211383 5
4.4722657 -1.8900789 -0.084748887 1
5.2355289 -2.190069 0.099059857 1
6.2927632 -2.6361921 0.35755929 4
nan nan nan nan
nan nan nan nan
nan nan nan nan
nan nan nan nan
4.9065094 -2.0715816 1.2295825 31
4.8465405 -2.0502501 1.4100462 78
1.9265101 -0.82093149 -0.56111974 12
2.0934763 -0.89337516 -0.52548569 10
2.3198175 -0.99140084 -0.49037915 10
2.5806015 -1.1044481 -0.44458681 7
2.9482822 -1.2642444 -0.39388174 5
3.3685379 -1.4465417 -0.32073313 3
3.9025955 -1.6783012 -0.22263718 5
4.4791627 -1.9299589 -0.085132837 3
5.2683272 -2.2460456 0.099967383 1
6.2948785 -2.6875906 0.35871068 6
nan nan nan nan
9.1144028 -3.9045546 1.2174748 1
9.0986185 -3.9034328 1.5680993 1
nan nan nan nan
6.1377311 -2.6420548 1.5427145 100
nan nan nan nan
1.9368256 -0.84095013 -0.56577843 12
2.0944951 -0.91071248 -0.52728528 9
2.3110399 -1.0067877 -0.48999751 10
2.5873122 -1.128756 -0.44708973 7
2.9359703 -1.282694 -0.39339426 8
3.3567886 -1.4686384 -0.32055882 4
3.8944428 -1.7071093 -0.22284654 5
4.4659219 -1.9604026 -0.085132837 5
5.2708583 -2.2907405 0.10031643 1
6.2906137 -2.7378478 0.35954806 21
nan nan nan nan
8.8176785 -3.8505163 1.1814015 1
8.8467197 -3.8687148 1.5293034 1
8.8335772 -3.8684785 1.8745077 1
6.1213899 -2.6845541 1.5431643 100
nan nan nan nan
1.9167747 -0.8481971 -0.56163734 11
2.0969944 -0.92926002 -0.52953482 9
2.3023391 -1.0216987 -0.48961592 10
2.5795691 -1.146341 -0.44708973 7
2.9305708 -1.3047743 -0.39388174 6
3.3610117 -1.4985279 -0.32195333 4
3.9082646 -1.7449777 -0.22431193 3
4.4630795 -1.9964321 -0.085342273 3
5.2844005 -2.3395174 0.10087491 1
6.3357377 -2.8089352 0.36321157 7
nan nan nan nan
8.6171455 -3.8329964 1.1580026 1
nan nan nan nan
8.6414146 -3.8564448 1.8393987 1
6.1167331 -2.7335849 1.5467635 100
8.4110489 -3.7642059 2.4691339 2
1.9109569 -0.86122453 -0.56163734 12
2.0977256 -0.94671863 -0.53133446 9
2.3005166 -1.0401735 -0.49076074 10
2.5751026 -1.1659514 -0.44771552 7
2.9286215 -1.3284818 -0.39485672 8
3.3323278 -1.5137154 -0.32021019 4
3.9014413 -1.7747008 -0.22462595 5
4.4599509 -2.0325167 -0.085551701 3
5.2533565 -2.3697739 0.10059568 1
6.3305345 -2.8596759 0.36404896 7
nan nan nan nan
8.3515091 -3.784898 1.1258291 1
8.3608274 -3.794399 1.4542149 1
8.3747969 -3.8077919 1.788262 1
6.1152358 -2.7842958 1.5512626 100
8.3740177 -3.8180251 2.466028 2
1.9082562 -0.87648952 -0.56267262 12
2.0855861 -0.95926237 -0.52998471 8
2.2914159 -1.0553875 -0.49037915 10
2.5631061 -1.182693 -0.44708973 7
2.9264839 -1.3522254 -0.39583167 6
3.3469939 -1.5486554 -0.32265055 4
3.912199 -1.813493 -0.22598669 3
4.4565358 -2.068655 -0.085761122 3
5.2766585 -2.4247608 0.10136358 1
6.3316798 -2.9149256 0.36530501 7
nan nan nan nan
7.7661653 -3.5851824 1.0502701 1
7.7955866 -3.6053691 1.3603542 1
8.1627369 -3.7803617 1.7485738 1
6.1186304 -2.8375781 1.5571113 100
8.1642761 -3.7931952 2.4121935 2
1.9055907 -0.8914274 -0.56370795 12
2.0700147 -0.96966583 -0.52773523 9
2.3086867 -1.0834341 -0.49572179 10
2.5547867 -1.2005578 -0.44708973 9
2.9061954 -1.3675517 -0.39436921 8
3.3577287 -1.582175 -0.32474229 4
3.8813815 -1.8322349 -0.22493997 5
4.4672961 -2.1116812 -0.086249799 3
5.2917709 -2.4777205 0.10199186 1
6.3220253 -2.9641445 0.36593303 4
nan nan nan nan
7.5463099 -3.5494149 1.0239463 1
7.5807962 -3.5704844 1.3271902 1
7.5732565 -3.5717797 1.6276009 1
6.09691 -2.8793926 1.5566615 100
7.7813582 -3.6815548 2.3065956 2
1.9115294 -0.91052449 -0.56733137 12
2.0737481 -0.98912716 -0.53043461 9
2.2906294 -1.0940467 -0.4934321 10
2.5572481 -1.2230337 -0.44896698 7
2.9073186 -1.3929536 -0.39583167 8
3.3573794 -1.6107486 -0.32578817 4
3.8868234 -1.8672607 -0.22598669 5
4.4632564 -2.14802 -0.086459227 3
5.2820039 -2.5171237 0.10213149 1
6.3143206 -3.0131295 0.36666575 7
nan nan nan nan
7.4020109 -3.543273 1.0076158 1
7.3853121 -3.5400336 1.2971548 1
7.4118629 -3.5591259 1.5982162 1
6.0836849 -2.9252646 1.5584611 100
7.3905916 -3.5584402 2.1978915 2
1.9000722 -0.92098677 -0.56577843 12
2.0722268 -1.0057724 -0.5317843 9
2.2882323 -1.112587 -0.49457693 9
2.5521996 -1.242586 -0.44959271 7
2.9013383 -1.4144505 -0.39631912 8
3.3388915 -1.6306508 -0.32509091 4
3.8880463 -1.9013695 -0.22682405 5
4.4664907 -2.1871448 -0.086808272 3
5.2876916 -2.5652845 0.10258525 1
6.3128929 -3.0667379 0.36781713 7
7.6235199 -3.7083614 0.74169534 1
7.1986446 -3.5079033 0.98324198 1
7.2112923 -3.5187407 1.2708738 1
7.2216535 -3.5284786 1.5623442 1
6.0876184 -2.9796591 1.5647596 100
7.2129149 -3.5351315 2.1523392 3
1.8883988 -0.931665 -0.56422555 12
2.0738907 -1.0245302 -0.53403383 9
2.2839286 -1.1302763 -0.4953402 7
2.5470026 -1.2621275 -0.45021844 6
2.9056189 -1.4417298 -0.39826906 8
3.3327785 -1.6565813 -0.32561383 4
3.9104383 -1.9462651 -0.22891749 5
4.4582725 -2.2218409 -0.086947888 3
5.2642751 -2.5994804 0.10248053 1
6.3414593 -3.1355217 0.37074795 23
7.0332165 -3.4821436 0.6866129 1
7.0388227 -3.4910398 0.96471781 1
7.0397058 -3.4960718 1.2449056 1
7.0632429 -3.5123725 1.5333412 1
6.0910883 -3.0342505 1.5710583 100
7.0151863 -3.4991717 2.1005754 3
1.8922075 -0.95002663 -0.56733137 12
2.0614643 -1.0363576 -0.53268409 9
2.2759824 -1.1461934 -0.4953402 9
2.5346014 -1.2780992 -0.44959271 9
2.8990271 -1.463769 -0.3987565 8
3.3320937 -1.6846218 -0.32665971 4
3.8842831 -1.9672006 -0.22818479 5
4.4711885 -2.2673819 -0.087506369 3
5.2477851 -2.6370661 0.10251543 1
6.3283358 -3.1842053 0.37127131 26
6.9090929 -3.4809573 0.67685145 1
6.8795938 -3.4721191 0.9461937 1
6.8776107 -3.4756379 1.2205019 1
6.8563676 -3.4694107 1.4936529 1
6.0876775 -3.0844481 1.5755572 100
6.8665552 -3.4851091 2.0633056 3
1.8889697 -0.96497107 -0.56836665 11
2.0576489 -1.0524991 -0.53358394 9
2.2803595 -1.1679235 -0.4980115 10
2.5363898 -1.3007305 -0.45146993 6
2.8816748 -1.4803437 -0.39778158 8
3.3450563 -1.7206017 -0.32910007 4
3.8867831 -2.0018249 -0.22912684 5
4.4659123 -2.3040421 -0.08771579 3
5.2920361 -2.7045763 0.1037371 1
6.3189611 -3.2335756 0.372004 38
6.8385248 -3.5054762 0.67231935 1
6.804585 -3.492579 0.93912524 1
6.8151412 -3.5025067 1.2136188 1
6.7307396 -3.4650724 1.471519 2
6.0763888 -3.1322298 1.5782567 100
6.7328062 -3.4750605 2.0301766 3
1.8926437 -0.98314971 -0.57147247 12
2.0469794 -1.064682 -0.53268409 9
2.2721503 -1.1838148 -0.4980115 10
2.5325012 -1.321147 -0.45240852 6
2.8785696 -1.5036006 -0.3987565 8
3.3523815 -1.7540729 -0.33101749 3
3.892174 -2.0391061 -0.23027822 5
4.4572091 -2.3381031 -0.087855421 5
5.2818971 -2.7460673 0.10391163 4
6.3050904 -3.2822223 0.37252739 52
6.9417143 -3.6182487 0.68486983 1
6.910253 -3.6079872 0.9571619 1
6.8938079 -3.6039956 1.232078 1
6.7765722 -3.5472252 1.4867837 1
6.0595517 -3.1772892 1.5796064 100
6.6297011 -3.4806709 2.0063653 2
1.8823177 -0.99453372 -0.57043719 12
2.0481093 -1.0835029 -0.53493363 9
2.2690349 -1.2024063 -0.49915636 10
2.5319412 -1.343424 -0.45397288 7
2.8855331 -1.5329734 -0.40119389 8
3.3453305 -1.780242 -0.33154044 4
3.8919454 -2.0737424 -0.23111561 5
4.4584212 -2.3785756 -0.088204466 5
5.2732038 -2.7884836 0.10412105 1
6.2979088 -3.3345709 0.37346941 49
6.7543364 -3.5807664 0.66883314 1
6.7832098 -3.6021416 0.94302505 1
6.7638302 -3.5963924 1.2133058 1
6.623404 -3.5261757 1.458544 1
6.0612955 -3.2323527 1.585905 100
nan nan nan nan
1.8736272 -1.0067363 -0.56991959 12
2.0473599 -1.101468 -0.53673327 9
2.2588568 -1.2172863 -0.49877474 10
2.5277162 -1.3638815 -0.4549115 9
2.8782539 -1.5549679 -0.40168139 8
3.3258119 -1.7997603 -0.33084321 4
3.8896654 -2.107523 -0.23184831 5
4.4452224 -2.41155 -0.08827427 5
5.2870703 -2.843224 0.10478425 1
6.2885442 -3.3860321 0.3743068 42
6.4134965 -3.4576449 0.63745707 1
6.6146688 -3.5720632 0.92303848 1
6.6030221 -3.5702407 1.1889021 1
6.4984884 -3.5181181 1.4364102 1
6.0505733 -3.2810924 1.5890543 24
nan nan nan nan
1.8733343 -1.0234967 -0.57199007 12
2.0379107 -1.1147991 -0.53628331 9
2.2675209 -1.2424604 -0.50259089 10
2.5129371 -1.3786445 -0.45397288 7
2.8742876 -1.5788466 -0.40265635 8
3.3445871 -1.840223 -0.3339808 4
3.8888524 -2.1423359 -0.23268569 5
4.4632983 -2.4618406 -0.088972367 3
5.2899013 -2.8925371 0.10523801 1
6.3015418 -3.4499931 0.3765049 75
6.2599154 -3.4314647 0.62455803 62
6.1893582 -3.3984098 0.86697859 1
nan nan nan nan
6.3017783 -3.4687297 1.3982484 1
nan nan nan nan
6.1731272 -3.4077489 1.889379 2
1.8663243 -1.0362244 -0.57199007 12
2.0285723 -1.1276979 -0.53583348 9
2.2607267 -1.2588211 -0.50297254 9
2.5190232 -1.4043745 -0.45678869 9
2.8669407 -1.6003096 -0.40314382 8
3.345896 -1.8707246 -0.33537531 4
3.867209 -2.1648543 -0.23226699 5
4.4534154 -2.4960747 -0.089111991 5
5.2858214 -2.9372191 0.10555216 1
6.2604594 -3.4830961 0.37545818 25
6.2520781 -3.4827211 0.62612689 72
nan nan nan nan
nan nan nan nan
nan nan nan nan
nan nan nan nan
nan nan nan nan
1.8775511 -1.0596732 -0.57768416 12
2.0274363 -1.1456673 -0.53763306 9
2.2399232 -1.2678038 -0.50030124 10
2.5074389 -1.4209523 -0.45647582 7
2.8522456 -1.6183262 -0.40265635 8
3.3362188 -1.8960061 -0.33572391 6
3.8641522 -2.1987135 -0.2329997 5
4.4324064 -2.525125 -0.089042179 3
4.7167306 -2.6642525 0.094557136 3
6.1942663 -3.5031204 0.37294605 19
6.1530614 -3.4840703 0.61863148 57
6.1125598 -3.4667749 0.86283505 56
6.132369 -3.482255 1.1169422 71
6.0878034 -3.461165 1.3612314 98
6.0183821 -3.427258 1.5989522 100
5.9745145 -3.4064207 1.8427917 100
1.8567016 -1.0650651 -0.57354301 12
2.0210786 -1.160764 -0.53808296 9
2.2361231 -1.2863472 -0.50144607 9
2.5111518 -1.4463099 -0.4589788 7
2.8683927 -1.6540654 -0.40655616 8
3.3349781 -1.9262266 -0.3369441 3
3.8659983 -2.235635 -0.23404641 5
4.4181309 -2.5580111 -0.089111991 3
4.7205606 -2.7100589 0.095010899 6
4.6701012 -2.6843429 0.28230017 5
nan nan nan nan
nan nan nan nan
6.0377622 -3.484499 1.1041147 78
6.0022955 -3.4682209 1.3474932 73
5.9892488 -3.4662621 1.5976025 80
5.9539309 -3.4499846 1.843827 100
1.842545 -1.0741096 -0.57147247 7
2.0247071 -1.1817216 -0.54123229 9
2.232173 -1.3048993 -0.50259089 10
2.4975836 -1.4618101 -0.45835301 9
2.8670516 -1.6800718 -0.40801859 8
3.3214493 -1.9494619 -0.3369441 3
3.8761263 -2.2777486 -0.23561651 6
4.4277411 -2.6050167 -0.089670464 3
4.6687083 -2.7238021 0.094347708 4
4.6495233 -2.7158735 0.28219551 1
4.633328 -2.7096679 0.46959516 8
4.6059079 -2.6979494 0.65541339 8
nan nan nan nan
nan nan nan nan
5.9195499 -3.4813173 1.5854552 78
5.8581176 -3.4493175 1.8215685 100
1.8433123 -1.0918695 -0.57406068 12
2.0097032 -1.1918517 -0.53943264 9
2.2348244 -1.3274692 -0.50526226 10
2.4907134 -1.4812303 -0.4589788 7
2.8654866 -1.7061399 -0.40948102 8
3.3282931 -1.9848483 -0.33903584 3
3.8669894 -2.3088491 -0.23603518 6
4.4334769 -2.650229 -0.090159133 4
4.7011838 -2.786921 0.09539485 4
4.6527772 -2.7615187 0.28355622 5
4.5988832 -2.7327883 0.46802634 4
4.5391974 -2.7016113 0.64858866 2
4.5698757 -2.7231114 0.84255612 4
4.5252395 -2.6997254 1.0242627 9
nan nan nan nan
nan nan nan nan
1.8588177 -1.1186574 -0.58130759 12
2.0046721 -1.2078643 -0.5403325 9
2.2288644 -1.3450675 -0.50602549 10
2.4870746 -1.5026685 -0.46023026 7
2.8569028 -1.7281578 -0.4099685 6
3.3365078 -2.0214567 -0.34130189 3
3.8558991 -2.3388965 -0.23634921 8
4.4387956 -2.6956475 -0.090647802 4
5.3154211 -3.2014074 0.10830963 3
6.1863985 -3.7304018 0.37859833 35
4.6257453 -2.7926304 0.47273275 1
4.576283 -2.7671306 0.65663213 3
4.5439939 -2.7508566 0.84130466 3
4.4777398 -2.7139525 1.0177752 4
4.467742 -2.7121594 1.2066375 1
4.4210114 -2.68696 1.3862349 8
1.8410735 -1.125561 -0.57820177 12
1.9995149 -1.2238647 -0.54123229 9
2.217746 -1.3595688 -0.50564384 10
2.4899921 -1.5282614 -0.46273321 7
2.8549163 -1.7542962 -0.41143093 8
3.3274043 -2.0478334 -0.34182483 3
3.8598816 -2.3783312 -0.23760527 8
4.4300799 -2.7328696 -0.09085723 6
5.3236446 -3.2572234 0.10893792 3
6.1312513 -3.7557638 0.37681893 15
nan nan nan nan
nan nan nan nan
nan nan nan nan
4.5238838 -2.785289 1.0326583 4
4.4370875 -2.7361238 1.2034882 5
4.392282 -2.7116692 1.383129 4
1.8298885 -1.1363481 -0.5771665 12
2.0008521 -1.2439674 -0.54393172 8
2.2132001 -1.3781315 -0.50678873 10
2.4859672 -1.5497874 -0.46398467 7
2.8459675 -1.7762865 -0.4119184 8
3.3045795 -2.0657325 -0.34095326 4
3.8736584 -2.4242923 -0.23948936 8
4.4380059 -2.7807188 -0.091415711 6
5.321157 -3.3069763 0.10935678 3
6.1710186 -3.8396266 0.38090113 30
6.0947771 -3.7966173 0.62821859 61
6.0394979 -3.7680368 0.87404704 73
5.9928961 -3.7433228 1.1191323 56
nan nan nan nan
nan nan nan nan
4.4190712 -2.7710035 1.3976228 3
1.8153747 -1.1449732 -0.57509595 12
2.0003574 -1.2631079 -0.5461812 9
2.2234366 -1.4061413 -0.5113681 10
2.4717495 -1.5649915 -0.46335894 6
2.8502634 -1.8067393 -0.41435578 8
3.3106289 -2.1009886 -0.343045 4
3.8566394 -2.4512758 -0.23948936 8
4.4286075 -2.8180749 -0.091625139 6
5.3148503 -3.3547175 0.10970583 4
6.1609468 -3.8932838 0.38194785 37
6.0832772 -3.8486612 0.62978739 25
6.034843 -3.823921 0.87721562 81
5.9883013 -3.7988255 1.1231996 57
5.944603 -3.7754712 1.3688638 85
5.8838921 -3.7412379 1.6097498 100
nan nan nan nan
1.8170978 -1.1638707 -0.57820177 12
1.9865693 -1.2738862 -0.54483151 9
2.2055531 -1.4159399 -0.50946003 9
2.4776571 -1.5924603 -0.46648762 6
2.8542724 -1.8373387 -0.41679317 6
3.3059292 -2.1305258 -0.34409088 4
3.8549693 -2.4872158 -0.24043141 6
4.4189029 -2.8554351 -0.09183456 6
5.2548509 -3.3670819 0.10893792 3
6.1628819 -3.9534626 0.38372725 37
6.0931382 -3.9147286 0.63362223 3
nan nan nan nan
5.9905391 -3.8576796 1.1285183 38
5.9296498 -3.8243284 1.3715351 78
5.8903728 -3.8033655 1.6187479 100
5.8211255 -3.7629733 1.8572855 100
1.8204708 -1.1835833 -0.58182526 12
1.9762189 -1.2863158 -0.54438156 9
2.2087715 -1.43988 -0.51251298 7
2.4615166 -1.6064796 -0.46554902 5
2.8416998 -1.8567244 -0.41679317 8
3.3109808 -2.1666448 -0.34618258 4
3.8425236 -2.5173514 -0.24074543 8
4.4294629 -2.9051883 -0.092462853 4
5.2546825 -3.4189539 0.1094266 3
6.140152 -3.9996614 0.38404128 32
6.0947204 -3.9746146 0.63658553 2
6.0347304 -3.9414999 0.88501525 7
6.0940719 -3.984812 1.153235 8
nan nan nan nan
nan nan nan nan
5.8076339 -3.8120005 1.8614267 100
1.8218369 -1.2026491 -0.58493102 12
1.9720681 -1.3033044 -0.54573131 9
2.1904798 -1.4498471 -0.51060492 9
2.471648 -1.6378099 -0.46961632 7
2.8385937 -1.8831019 -0.41825563 6
3.3206668 -2.2062457 -0.34879729 3
3.844811 -2.557389 -0.24200147 8
4.4124017 -2.9382575 -0.092532657 6
5.9097571 -3.9041708 0.12363284 11
6.130404 -4.0545492 0.38519266 30
6.108356 -4.0445652 0.64094335 2
6.0335369 -4.0010872 0.88891506 8
6.140162 -4.0764246 1.1673142 10
nan nan nan nan
nan nan nan nan
nan nan nan nan
1.8021631 -1.20781 -0.58130759 12
1.9742489 -1.3246404 -0.54888058 8
2.1868231 -1.469484 -0.51213133 9
2.4585149 -1.6539227 -0.46930346 7
2.8451359 -1.9161797 -0.42118049 8
3.3002284 -2.226032 -0.34827435 4
3.8351395 -2.5897572 -0.24252485 8
4.4182878 -2.9869089 -0.093091138 6
5.9288583 -3.9765213 0.12461019 6
6.1268206 -4.1139493 0.38676277 30
6.076663 -4.084888 0.64059472 1
6.021924 -4.0541978 0.89135242 8
6.1525049 -4.1467929 1.1751359 15
nan nan nan nan
7.8309426 -5.291986 2.1820254 2
nan nan nan nan
1.785701 -1.2149284 -0.57871938 12
1.969785 -1.341682 -0.55023032 9
2.1813762 -1.4880339 -0.51327622 7
2.4615898 -1.6810721 -0.47211927 7
2.8349667 -1.9382366 -0.42166796 6
3.2846074 -2.2490175 -0.34827435 4
3.8284984 -2.6243727 -0.24325755 8
4.4138155 -3.0289962 -0.093440183 6
5.9455814 -4.048202 0.12555261 13
6.1177554 -4.1701207 0.38801882 32
6.0809121 -4.1496716 0.64408094 2
6.0098634 -4.1073399 0.89378983 10
6.160902 -4.2152996 1.1823319 19
24.541908 -16.810488 5.7822762 10
7.7857718 -5.3410158 2.179776 14
8.6248255 -5.9232464 2.8035281 2
1.7867135 -1.2339524 -0.58182526 12
1.9619734 -1.3565093 -0.55068022 9
2.1806192 -1.5099324 -0.51556593 9
2.4335594 -1.6869622 -0.46899059 6
2.8311512 -1.9647714 -0.42313039 8
3.2884583 -2.285538 -0.35036606 5
3.8166413 -2.6555991 -0.24367623 8
4.4188151 -3.0780246 -0.093998663 4
5.9237552 -4.0941586 0.12569223 14
6.116415 -4.2320485 0.38979825 31
6.0550694 -4.1942925 0.64442956 2
6.0104008 -4.1695638 0.89817715 12
6.1799979 -4.2920117 1.1917179 43
24.423952 -16.981411 5.7822762 10
7.7418981 -5.3907847 2.1779761 6
7.4485488 -5.1923151 2.4328992 2
1.7938745 -1.2574847 -0.58700162 12
1.9444798 -1.364576 -0.54843074 9
2.1700249 -1.5251189 -0.51556593 7
2.4314163 -1.7107308 -0.47086781 8
2.8271034 -1.9913476 -0.42459282 6
3.2952156 -2.3245192 -0.35280645 7
3.8045344 -2.6867881 -0.24409491 8
4.4462042 -3.14343 -0.095045805 6
5.8753839 -4.121634 0.12527338 13
6.0965276 -4.2815328 0.39042628 34
6.0614977 -4.2616725 0.64826441 1
5.9957542 -4.2217073 0.90037078 8
6.178946 -4.3555369 1.1973495 100
24.465212 -17.264702 5.8204379 10
nan nan nan nan
7.3048792 -5.1683154 2.3976998 2
1.7819037 -1.2677379 -0.58596635 12
1.9460168 -1.3860315 -0.55158001 10
2.1657181 -1.5447916 -0.51709241 6
2.4322748 -1.7368469 -0.47337076 8
2.8099027 -2.0087268 -0.42410538 6
3.2890382 -2.353852 -0.35385233 5
3.7954249 -2.7202642 -0.24472295 8
4.4306498 -3.1790569 -0.095185429 6
6.0158815 -4.2831707 0.12890348 13
6.0860052 -4.3379006 0.39168233 34
6.0445724 -4.3131437 0.64965892 1
5.9952064 -4.2842379 0.9047581 10
6.1516018 -4.4008665 1.1979753 100
24.503698 -17.549397 5.8585997 11
26.042852 -18.672363 7.3981905 20
7.3062801 -5.2462287 2.4101231 2
1.77301 -1.2801468 -0.58596635 12
1.9426104 -1.4041495 -0.5533796 10
2.158334 -1.5617993 -0.51785564 6
2.426795 -1.757998 -0.47462222 8
2.8054512 -2.0352888 -0.42556778 8
3.2660768 -2.3720727 -0.35315505 7
3.8026676 -2.764828 -0.2463977 8
4.4196644 -3.2181506 -0.095429763 8
6.0400829 -4.362659 0.13005532 14
6.0789967 -4.3956103 0.39314777 31
6.0239964 -4.3622484 0.6507048 1
5.9916215 -4.3435884 0.90865791 10
6.1470833 -4.4612012 1.2029812 100
nan nan nan nan
nan nan nan nan
7.1798344 -5.2298689 2.3801 5
1.7595795 -1.288761 -0.58441341 12
1.9455801 -1.4265585 -0.55697882 9
2.1473782 -1.5768291 -0.51785564 7
2.4176459 -1.7772371 -0.47524795 7
2.8043234 -2.0637503 -0.42751768 8
3.2654757 -2.4066365 -0.35489815 7
3.8089876 -2.8102806 -0.24807246 8
4.4008732 -3.2505355 -0.095499568 8
6.0304465 -4.4200873 0.13050909 13
6.0771456 -4.4592104 0.39503184 31
6.0054045 -4.4114084 0.65192497 1
5.9787402 -4.3982511 0.91133898 11
6.1253314 -4.5110354 1.2048583 100
nan nan nan nan
7.2930403 -5.3847556 2.0929449 2
8.8458214 -6.5383978 2.9474313 2
1.7582922 -1.3067755 -0.58700162 12
1.9293199 -1.4354534 -0.55517924 10
2.1457632 -1.59882 -0.52014536 9
2.4146802 -1.8011587 -0.4771252 8
2.8025718 -2.0927796 -0.42946759 8
3.2549775 -2.4341486 -0.35559544 5
3.7860773 -2.8344095 -0.2478631 8
4.3892746 -3.2895744 -0.095743902 6
6.0219059 -4.4787879 0.13099776 14
6.0714989 -4.5206118 0.39670658 31
6.0207868 -4.4877563 0.65697998 1
5.9653883 -4.4529448 0.91402018 10
6.1190076 -4.5726075 1.2098643 98
nan nan nan nan
7.183527 -5.3817911 2.0722494 2
9.6530638 -7.2398252 3.2331676 2
1.7630082 -1.3294872 -0.59166032 12
1.9161409 -1.4465392 -0.55427945 9
2.1470776 -1.6232331 -0.52319831 9
2.4051971 -1.8203565 -0.47775093 8
2.7973866 -2.1194866 -0.43093005 8
3.2442536 -2.4616301 -0.35629267 5
3.7789214 -2.8704367 -0.2487005 8
4.4457903 -3.3806577 -0.097489148 21
6.0224147 -4.5448103 0.13169587 13
6.0493526 -4.5701122 0.39733464 31
5.9988441 -4.5368905 0.6580258 3
5.9436498 -4.5016737 0.91548258 10
6.1105471 -4.6331167 1.2145573 91
nan nan nan nan
7.4095197 -5.6322889 2.1487324 2
7.7574654 -5.9031887 2.6120019 2
1.7567525 -1.3441106 -0.59269565 12
1.9090897 -1.4622509 -0.55517924 9
2.1247888 -1.6298186 -0.52052695 9
2.4159315 -1.8551497 -0.48244393 8
2.7872431 -2.1425939 -0.43166125 9
3.2301464 -2.4866495 -0.35664126 5
3.7841017 -2.9162552 -0.25037524 10
4.543993 -3.5056665 -0.10017681 15
6.0365839 -4.6219983 0.1327081 11
6.0442481 -4.6328883 0.39911404 31
6.0097032 -4.6114073 0.6627323 1
5.9451327 -4.5684586 0.92060113 8
6.0952759 -4.6889119 1.2179989 87
nan nan nan nan
7.370019 -5.6838794 2.1487324 2
7.1288729 -5.503859 2.4132288 2
1.7396958 -1.3504194 -0.5901075 12
1.911145 -1.485109 -0.55877846 9
2.1257539 -1.6542585 -0.5235799 9
2.3998048 -1.8695427 -0.4818182 7
2.7769134 -2.1656623 -0.43239245 9
3.22527 -2.5189502 -0.3580358 5
3.7699437 -2.9475229 -0.25079393 8
4.588695 -3.5915346 -0.10171262 13
5.996273 -4.6578946 0.13253358 13
6.0275235 -4.6872325 0.40016076 34
5.9962292 -4.6679368 0.66482401 1
5.9444056 -4.6342616 0.9254759 10
6.0779653 -4.7435036 1.2211275 84
nan nan nan nan
7.3669934 -5.7640133 2.1595302 2
7.3594694 -5.7643409 2.5048509 2
1.7165662 -1.3517747 -0.58544868 9
1.9099127 -1.5056537 -0.56147784 10
2.1141534 -1.6690586 -0.5235799 9
2.4021924 -1.8984993 -0.48494691 8
2.7757375 -2.1960812 -0.43458611 9
3.2138522 -2.5463548 -0.35873303 5
3.7711821 -2.9911458 -0.25225934 8
4.627718 -3.6744645 -0.10314372 6
6.0609875 -4.776382 0.13469768 40
6.0307188 -4.7576504 0.40256822 31
5.9681859 -4.7133889 0.66534692 1
5.9414902 -4.6990452 0.93010694 7
6.0741272 -4.8091178 1.2270721 91
nan nan nan nan
7.2914677 -5.7874389 2.1491826 4
7.244935 -5.7566905 2.4794867 5
1.7239304 -1.3766882 -0.59114271 11
1.8965756 -1.5161854 -0.56057805 9
2.1088736 -1.6883183 -0.52510637 9
2.392297 -1.9172769 -0.48557264 8
2.7684672 -2.2211351 -0.43580481 8
3.205765 -2.575659 -0.35977891 7
3.7507348 -3.016746 -0.25225934 10
4.8035259 -3.8676581 -0.10764644 9
6.073638 -4.8537297 0.13570991 42
6.0231485 -4.8185525 0.40424296 33
5.9763985 -4.7862859 0.66987902 1
5.9186587 -4.74683 0.93156934 8
6.0643578 -4.8689017 1.2317652 85
nan nan nan nan
7.2503872 -5.8357134 2.1487324 2
7.1273584 -5.7428427 2.4525695 2
1.7262865 -1.3984181 -0.59528387 10
1.8859444 -1.5293891 -0.56057805 8
2.1077039 -1.7116632 -0.52777767 7
2.3849847 -1.938916 -0.48682413 8
2.7544327 -2.2416613 -0.43604854 9
3.2077827 -2.6143398 -0.36204496 5
3.7357726 -3.0479076 -0.25267801 6
4.8693342 -3.9769955 -0.10974073 14
6.0644588 -4.9161615 0.13626839 39
6.0126252 -4.8793616 0.40581304 33
5.9675808 -4.8479919 0.67266804 1
5.908474 -4.8068252 0.93522543 7
6.0700426 -4.943553 1.2398998 14
6.0119596 -4.9014874 1.5077728 88
nan nan nan nan
5.8889585 -4.8131948 2.0379412 18
1.7239447 -1.4165682 -0.59787202 12
1.8977964 -1.5610876 -0.56732661 10
2.0911572 -1.7225913 -0.52663285 9
2.3805349 -1.9630593 -0.48870131 7
2.7463703 -2.2671552 -0.43726721 8
3.2048092 -2.6493647 -0.36378807 5
3.72979 -3.0866473 -0.25372472 6
4.8968873 -4.056819 -0.1109973 14
6.0547028 -4.9787002 0.13682686 40
6.0061707 -4.944067 0.40769714 30
5.9581923 -4.9098082 0.675457 2
5.9023318 -4.8706999 0.93961275 5
3.8514967 -3.1817086 0.79124558 7
5.9745679 -4.9408364 1.5070095 38
5.9284744 -4.9096909 1.7771134 100
nan nan nan nan
1.7125291 -1.4273317 -0.59735435 12
1.8883481 -1.5755471 -0.5677765 10
2.0896263 -1.7459596 -0.52930421 7
2.3819244 -1.9923043 -0.49182999 7
2.7274318 -2.2837241 -0.43677977 8
3.1892886 -2.6742344 -0.36413667 9
3.7295678 -3.1305881 -0.25519016 6
4.9480557 -4.1578021 -0.11281236 10
6.032083 -5.031095 0.13710611 19
6.0052371 -5.0140386 0.40999994 35
5.958931 -4.9806724 0.67946619 1
5.9001513 -4.9385433 0.94473124 10
3.7247169 -3.1209798 0.76965761 12
5.8677297 -4.921865 1.4886919 33
5.8254147 -4.8933034 1.756418 46
5.8123102 -4.8874884 2.0348353 72
1.6995722 -1.4367583 -0.59631914 12
1.8892033 -1.5987626 -0.57137573 10
2.0833776 -1.7655827 -0.53083062 7
2.3619325 -2.003773 -0.49057853 8
2.7265527 -2.3155591 -0.43921715 8
3.1705415 -2.6964343 -0.36413667 7
3.7410774 -3.1850328 -0.25749293 8
4.9539132 -4.2220778 -0.11361516 12
6.0471931 -5.1157045 0.13825797 40
5.9959974 -5.0777831 0.41177934 30
5.9392114 -5.0350361 0.68120927 1
5.8836899 -4.9950304 0.9476561 10
nan nan nan nan
nan nan nan nan
5.791111 -4.9338527 1.756418 29
5.732482 -4.8890848 2.0187886 100
1.6982999 -1.4561334 -0.59942496 12
1.8720809 -1.6068357 -0.56957608 9
2.087378 -1.794161 -0.53502846 9
2.3568702 -2.0279438 -0.49245578 7
2.7313778 -2.3526752 -0.44262949 8
3.1606917 -2.7263112 -0.36518255 7
3.724798 -3.2162941 -0.25791162 6
4.9727283 -4.2984056 -0.11473212 10
6.0356145 -5.1786313 0.13881645 48
5.9907036 -5.145546 0.41387278 30
5.9356413 -5.1036544 0.68486983 1
5.8727436 -5.0567083 0.95155597 10
6.0239072 -5.1923623 1.2596104 91
3.7457225 -3.2320805 0.96167743 27
nan nan nan nan
nan nan nan nan
1.6953818 -1.4742924 -0.60201317 12
1.8608174 -1.6198661 -0.56957608 9
2.0792415 -1.8125601 -0.53617334 10
2.3590267 -2.0586355 -0.49589729 6
2.7089064 -2.366462 -0.44165453 8
3.1540599 -2.7582545 -0.36657706 7
3.7428222 -3.2777469 -0.26073778 6
4.9952278 -4.3791547 -0.1159538 10
6.0264664 -5.2442694 0.13944472 48
5.9681897 -5.1990504 0.41481483 27
5.9223909 -5.1646109 0.6874845 1
5.864212 -5.1210871 0.95594323 10
6.0083318 -5.2524924 1.2639905 96
3.7245448 -3.2594442 0.96205902 12
8.8285923 -7.734292 2.7097607 2
7.349689 -6.4477735 2.6197665 9
1.6966388 -1.4963146 -0.6061542 11
1.8611505 -1.6431354 -0.57317531 10
2.0565581 -1.8175702 -0.53350198 9
2.3523569 -2.0811896 -0.49746165 8
2.6893477 -2.3826835 -0.44116706 8
3.1436703 -2.7881389 -0.36762294 9
3.7039952 -3.2885606 -0.25958636 21
5.0153451 -4.4590964 -0.11714055 10
6.0161228 -5.3076587 0.1400381 42
5.9536204 -5.2580633 0.41628024 22
5.9190245 -5.234869 0.69131935 7
5.8574576 -5.1858869 0.96057427 8
5.9931378 -5.3116107 1.2683709 91
3.7927363 -3.3661652 0.98571932 6
3.8255897 -3.3989062 1.181443 8
7.3561535 -6.5425868 2.6378839 2
1.6763335 -1.4988151 -0.60253078 12
1.8542792 -1.6596648 -0.57452506 10
2.0540528 -1.8410558 -0.53617334 9
2.3377702 -2.0975611 -0.49746165 8
2.6789746 -2.4062397 -0.44214204 8
3.1300542 -2.815347 -0.36832017 7
3.7328956 -3.3611145 -0.26324987 2
3.3777144 -3.0445116 -0.079373546 6
6.0117083 -5.3788643 0.14080602 43
5.9346199 -5.3154893 0.41753629 8
5.9010563 -5.290998 0.69341105 1
5.8329268 -5.2372622 0.96252412 1
5.9764781 -5.3718085 1.272751 17
3.534766 -3.1804841 0.92427886 44
3.442728 -3.1020229 1.0698673 14
7.3074298 -6.5911946 2.6368487 4
1.6729847 -1.5169698 -0.60511893 11
1.8469762 -1.6764989 -0.57587475 9
2.0643942 -1.8764794 -0.54227924 11
2.3259919 -2.1164896 -0.49808741 8
2.662111 -2.4248838 -0.44214204 8
3.1191554 -2.8451867 -0.36936605 9
3.5618515 -3.2524171 -0.2527827 8
3.3918011 -3.1003983 -0.080211259 22
5.9962234 -5.4408588 0.14132959 45
5.9106722 -5.3688769 0.41847834 2
5.8816643 -5.3481507 0.69550282 1
3.5857613 -3.2650805 0.59545368 11
3.5781891 -3.2616136 0.76684189 4
3.5661345 -3.254046 0.93839866 24
3.3950934 -3.1023204 1.061769 30
3.4225025 -3.1306558 1.2428491 4
1.6680418 -1.533843 -0.60718954 12
1.8423961 -1.6959512 -0.57812428 11
2.0555744 -1.8948376 -0.54342401 11
2.3169663 -2.1380348 -0.49933887 8
2.6567826 -2.4541852 -0.44409195 8
3.1109166 -2.8777163 -0.37076053 5
3.6562943 -3.3857658 -0.26115644 2
3.3730071 -3.1267207 -0.080281071 38
5.981637 -5.504252 0.14188807 47
5.8950825 -5.4303069 0.42004842 2
5.8661537 -5.4093413 0.69811749 1
5.8219461 -5.376101 0.97300488 10
3.5538807 -3.2851737 0.76652896 28
nan nan nan nan
3.5105739 -3.2531037 1.1049596 13
3.5124524 -3.2582643 1.2837424 22
1.6657701 -1.5533558 -0.6102953 11
1.8276623 -1.7061125 -0.57722449 11
2.0537694 -1.9198674 -0.54647696 10
2.2962143 -2.1487594 -0.49808741 8
2.627995 -2.4618163 -0.44214204 6
3.0994694 -2.9075429 -0.37180638 5
3.6558633 -3.4330845 -0.26283121 2
3.3321552 -3.1323867 -0.079827309 21
5.9752293 -5.5758924 0.14265598 47
5.8978949 -5.5095062 0.42297927 2
5.8602633 -5.4801016 0.7019524 1
3.2819083 -3.0733049 0.55206817 20
5.9707556 -5.597115 1.2962161 85
3.5046055 -3.2887425 0.93420094 23
3.4764168 -3.2668567 1.1013604 17
3.468513 -3.2628512 1.275978 12
1.6576924 -1.5676018 -0.61133063 11
1.8256133 -1.7282083 -0.58037376 12
2.0360417 -1.9301063 -0.54533213 11
2.2954862 -2.178335 -0.50121611 8
2.6165011 -2.4855716 -0.44311696 6
3.0969329 -2.9450488 -0.37389815 3
3.2716637 -3.1155627 -0.23676789 42
3.2378356 -3.0865836 -0.078082062 21
5.9724679 -5.6518321 0.14352858 43
5.8940864 -5.5835118 0.42549136 2
3.4277711 -3.2505603 0.41329253 22
3.2675698 -3.1029766 0.55328691 20
3.2914796 -3.1289611 0.71928573 12
nan nan nan nan
3.2988906 -3.1425891 1.0518712 14
3.4638216 -3.3043213 1.2827072 9
1.645314 -1.5777992 -0.61081296 12
1.8289678 -1.7557563 -0.58532268 11
2.0299346 -1.9507221 -0.5472402 10
2.2877238 -2.2007568 -0.50278044 8
2.6076627 -2.5120411 -0.44457942 8
3.0734286 -2.9638317 -0.37354952 5
3.2245164 -3.1127913 -0.2348838 43
3.2205219 -3.1132822 -0.07818678 37
5.9656072 -5.7228098 0.1442965 43
5.8789945 -5.6456366 0.42716613 2
3.3403704 -3.212265 0.40544853 32
3.589602 -3.4555581 0.61178416 23
3.2388127 -3.1211371 0.71240264 21
3.4569333 -3.3359902 0.93381923 26
3.3020995 -3.1899145 1.0599694 4
nan nan nan nan
1.6331509 -1.5876154 -0.6102953 11
1.8211641 -1.772242 -0.58667237 12
2.0204849 -1.9689566 -0.54838508 11
2.2779598 -2.2221918 -0.5040319 8
2.6018653 -2.540828 -0.44652933 8
3.0555112 -2.9880021 -0.37389815 7
3.2283962 -3.1603756 -0.23676789 22
3.2221081 -3.1575251 -0.078745253 39
5.9484425 -5.7866278 0.14485498 40
3.3382521 -3.2508454 0.2441996 10
3.5267212 -3.4379799 0.43089798 21
3.5511856 -3.4666667 0.60934675 13
3.2141185 -3.1409106 0.71177691 21
nan nan nan nan
3.5887918 -3.5156317 1.1598477 60
3.2055197 -3.1434636 1.202991 11
1.6302822 -1.6071154 -0.61340117 11
1.8129084 -1.7890192 -0.58802211 11
2.0136721 -1.9899141 -0.55029315 10
2.2539647 -2.2297053 -0.50215465 10
2.5925269 -2.5673106 -0.44799173 6
3.0515532 -3.0260949 -0.37598985 8
3.3338239 -3.3094747 -0.24618836 6
3.2014046 -3.1813524 -0.078780167 32
5.9548774 -5.8743572 0.14600682 9
3.3424768 -3.3007355 0.24618836 37
3.5224707 -3.4821265 0.43333834 32
3.1996014 -3.1673748 0.5527994 26
3.6088412 -3.5762358 0.80469894 16
3.7005177 -3.670927 1.0131959 24
3.266917 -3.2453215 1.0631188 30
8.3094177 -8.2631388 3.139993 1
1.6340517 -1.6334813 -0.61909521 12
1.8003746 -1.801632 -0.58802211 10
2.0025046 -2.0067029 -0.55105644 11
2.2522898 -2.2593765 -0.50528342 8
2.5829449 -2.593787 -0.44945419 8
3.0444021 -3.0614526 -0.37773296 6
3.2107 -3.2320652 -0.23875666 14
3.2115135 -3.2362714 -0.079582974 29
3.3689699 -3.3701458 0.08317817 11
3.3122959 -3.3169234 0.245665 9
nan nan nan nan
3.1437874 -3.1558821 0.54694968 3
3.4723155 -3.4893262 0.77966946 16
3.2706411 -3.2901073 0.90176338 9
3.275758 -3.2998588 1.0734665 9
3.2687805 -3.2962799 1.2438843 16
1.6293916 -1.6517256 -0.62168342 11
1.8027993 -1.8294253 -0.59297103 9
1.9884466 -2.0206342 -0.55105644 10
2.2364616 -2.2750452 -0.50528342 8
2.553647 -2.6004252 -0.44750425 8
3.0201654 -3.079787 -0.37738436 6
3.2775078 -3.3457127 -0.24545565 30
nan nan nan nan
3.3200903 -3.3679497 0.082549877 24
3.3268962 -3.3783901 0.24849114 7
3.4665234 -3.5238667 0.4324668 11
3.4958909 -3.5586863 0.61251533 22
3.1075115 -3.1666455 0.70270365 34
5.8451161 -5.9625878 1.6230214 17
3.6725123 -3.7515559 1.2120364 12
3.1241274 -3.1947126 1.197297 35
1.6110854 -1.6561369 -0.61909521 9
1.7967741 -1.8489543 -0.59522051 10
1.9783932 -2.0386934 -0.55220127 10
2.2342737 -2.3047864 -0.50841206 8
2.5547643 -2.6381538 -0.45091662 6
3.0041311 -3.1065254 -0.37808162 4
3.045922 -3.1530423 -0.22975488 48
3.249331 -3.3671322 -0.081677265 35
3.150141 -3.2404921 0.078884877 34
3.3185351 -3.4172947 0.24964255 39
nan nan nan nan
3.1132302 -3.2137268 0.54938704 10
3.3765531 -3.4892035 0.76903194 15
5.7637768 -5.9623141 1.6119545 3
3.0926652 -3.2036674 1.0280263 43
3.0695639 -3.1830702 1.1848736 13
1.602159 -1.6701323 -0.62013048 11
1.7946091 -1.8727089 -0.59881973 11
1.9722565 -2.0609658 -0.55449098 10
2.2181289 -2.3203282 -0.50841206 7
2.5280583 -2.6473112 -0.44945419 6
2.9493704 -3.0928178 -0.37389815 3
3.0389886 -3.1901371 -0.23090626 37
3.0754864 -3.2318366 -0.077872641 35
3.1717238 -3.3085988 0.080001831 34
3.3153181 -3.4620166 0.25121263 37
3.177341 -3.3214138 0.40213659 32
3.1112869 -3.2569132 0.55304313 23
3.0943618 -3.2425938 0.70989966 16
3.1116147 -3.2640932 0.8765766 55
2.8243377 -2.9668834 0.94569427 10
5.6206036 -5.9104719 2.185468 57
1.5997534 -1.6911005 -0.62375391 11
1.7828298 -1.8866082 -0.59926963 12
1.9635732 -2.0800533 -0.5560174 10
2.1923909 -2.3256953 -0.50622195 6
2.5258462 -2.6822379 -0.45237905 8
2.9623787 -3.1491013 -0.3782559 4
3.2196274 -3.4261572 -0.2463977 28
3.0383615 -3.2366581 -0.077488683 37
3.1856387 -3.3698964 0.080944255 28
3.1443415 -3.3297009 0.24001274 25
3.1116931 -3.2985866 0.39673293 30
3.1012981 -3.2910178 0.55523676 43
2.9693148 -3.1542678 0.68612164 12
2.7579577 -2.9338467 0.78269857 8
2.8894539 -3.0769558 0.97448802 1
2.899823 -3.0912392 1.135698 46
1.6027038 -1.7174869 -0.62944794 12
1.7686181 -1.8972745 -0.59881973 11
