# .PCD v0.7 - Point Cloud Data file format
VERSION 0.7
FIELDS x y z intensity
SIZE 4 4 4 4
TYPE F F F F
COUNT 1 1 1 1
WIDTH 1461
HEIGHT 1
VIEWPOINT 0 0 0 1 0 0 0
POINTS 1461
DATA ascii
2.7537978 1.4636053 -0.38291353 9
3.1448121 1.6693128 -0.31149462 3
3.6778073 1.9489425 -0.2181363 7
4.2541933 2.251529 -0.084015884 22
5.5353851 2.9556224 0.10953131 13
7.1621008 3.8193908 0.4253867 28
7.062223 3.7613807 0.70003492 2
7.0442319 3.7454839 0.97958583 3
6.9837923 3.7086585 1.2524145 10
7.1301804 3.7816114 1.5688316 61
10.225654 5.4164906 2.6715188 2
10.25691 5.4238811 3.1089346 1
1.8537869 0.97408605 -0.56111974 12
2.0275331 1.064028 -0.52863503 12
2.2170842 1.1620222 -0.48656297 10
2.4571493 1.2862061 -0.43926802 9
2.7463558 1.4351493 -0.38047612 9
3.1387269 1.6380974 -0.30975151 7
3.6980724 1.9275559 -0.21855497 7
4.2556157 2.2143919 -0.083736651 21
5.5058045 2.8918393 0.10855397 14
7.1331053 3.7417862 0.42214185 20
7.0636005 3.6990452 0.69759458 1
7.0273447 3.6753721 0.97373611 3
6.9633493 3.63726 1.2442799 10
7.1302958 3.7181253 1.5631074 67
10.20791 5.3161659 2.6571219 2
10.584952 5.5054817 3.1969328 1
1.8485274 0.95491385 -0.55749625 12
2.0297165 1.0471667 -0.52728528 10
2.223597 1.1452284 -0.48618135 10
2.4557512 1.2631679 -0.43739083 9
2.7633708 1.4195694 -0.38145107 9
3.1429961 1.6125072 -0.30905426 7
3.711771 1.9010439 -0.21855497 7
4.290556 2.194643 -0.084120601 14
5.5494576 2.86429 0.10900773 9
7.1490455 3.6851602 0.42151386 25
7.0467381 3.6277549 0.69341105 2
7.0146232 3.6050293 0.96837389 3
6.9610806 3.5729058 1.239274 10
7.1124001 3.64587 1.5535669 76
10.406094 5.327364 2.6989629 1
10.696326 5.4665208 3.2186739 2
1.862039 0.94548398 -0.5595668 12
2.0265493 1.0276828 -0.52458584 8
2.2330925 1.1309533 -0.48656297 11
2.4607663 1.2446407 -0.43676507 9
2.7838454 1.4056125 -0.38291353 11
3.143502 1.5851446 -0.3080084 7
3.7067854 1.8667527 -0.21750826 7
4.3307853 2.1772106 -0.084609263 15
5.3298817 2.7051737 0.10433049 9
7.1187377 3.6084194 0.41826901 16
7.0558953 3.5703716 0.69184226 3
7.0035667 3.539288 0.96349907 3
6.9499707 3.5076363 1.2330166 10
7.0938463 3.574043 1.5440264 72
10.291583 5.1783824 2.6598215 2
nan nan nan nan
1.8718885 0.93451333 -0.56060207 12
2.0195458 1.0069085 -0.52098668 9
2.2426906 1.1162117 -0.48694456 12
2.4693961 1.2274299 -0.43676507 9
2.7758086 1.3773202 -0.38047612 9
3.1759145 1.5737759 -0.31010011 6
3.7071972 1.834628 -0.21677555 7
4.358429 2.1531248 -0.084853604 22
5.5204234 2.7535851 0.10768134 9
7.1133647 3.5434937 0.41648957 13
7.0497074 3.5071776 0.68887895 3
7.0032125 3.4779499 0.96008676 2
6.9335847 3.4388471 1.2258207 8
7.0975146 3.5139756 1.5394472 65
10.697823 5.2895141 2.7552006 2
nan nan nan nan
1.8750587 0.91939348 -0.5595668 12
2.0319498 0.99500221 -0.52233636 10
2.2398469 1.0953516 -0.4846549 13
2.4781151 1.2097301 -0.43676507 10
2.7782187 1.3544282 -0.37950116 9
3.1760762 1.5463325 -0.30905426 4
3.7399905 1.8176563 -0.21792693 7
4.3571634 2.1147864 -0.084539458 17
5.5305338 2.7105806 0.10750683 13
7.1008639 3.4740686 0.41429147 24
7.051352 3.4452708 0.6866129 7
6.9952102 3.4133041 0.9556995 3
6.9384804 3.3796282 1.2223791 12
7.1006866 3.4540379 1.5348676 67
20.560997 9.9883242 5.2773519 9
nan nan nan nan
1.8779505 0.90460384 -0.55853152 10
2.0441151 0.98332667 -0.52368605 10
2.2405486 1.0758963 -0.4831284 13
2.4882817 1.1932532 -0.43707794 10
2.798583 1.3396558 -0.38096359 9
3.1798699 1.5201283 -0.308357 7
3.7381699 1.7846183 -0.21708956 7
4.3703794 2.0826926 -0.084504552 12
5.4614964 2.6284435 0.10579649 9
7.1267428 3.4252791 0.41439614 30
7.032124 3.375268 0.68242943 8
7.0194564 3.3631604 0.9556995 2
6.9333954 3.3174646 1.2173731 10
7.0897899 3.3862154 1.5272354 67
20.790247 9.9164429 5.3178434 9
nan nan nan nan
1.87739 0.88783884 -0.55646098 10
2.0510993 0.96867418 -0.52368605 11
2.2515566 1.0619029 -0.48389161 11
2.4931819 1.1737354 -0.43645221 10
2.8006814 1.3167068 -0.37998864 9
3.1831906 1.4945046 -0.30765978 4
3.7508445 1.7578229 -0.21708956 7
4.397491 2.0580645 -0.084748887 17
5.4815207 2.5911055 0.10583139 14
7.0824342 3.3418036 0.41041863 16
7.0344687 3.3146694 0.68033773 10
6.9960642 3.2920978 0.94936228 2
6.9283495 3.254328 1.2123673 12
7.0830407 3.322463 1.5207478 76
21.088383 9.8785229 5.3763309 10
nan nan nan nan
1.8817903 0.87389684 -0.55594331 9
2.0560441 0.95351142 -0.52323622 10
2.2608795 1.0465888 -0.48427325 10
2.4941437 1.1529843 -0.43520072 7
2.8206193 1.3021144 -0.38145107 9
3.1971655 1.4739136 -0.3080084 7
3.7485089 1.7249166 -0.21625218 7
4.406301 2.0248091 -0.084644176 8
5.4817829 2.5433981 0.10548234 11
7.1273365 3.3023565 0.41167465 33
7.0266967 3.2512589 0.67737442 11
6.9725862 3.2203102 0.94302505 2
6.9186115 3.1909878 1.2067356 10
7.0757489 3.258971 1.5142603 79
21.280766 9.7880592 5.4078236 10
nan nan nan nan
1.8948762 0.86394495 -0.55801392 10
2.0466881 0.9318676 -0.51918709 11
2.2608018 1.0279258 -0.48274681 12
2.5001349 1.135165 -0.43488789 9
2.8115604 1.2741969 -0.37901369 9
3.2110078 1.4532001 -0.308357 9
3.740144 1.6903117 -0.2151008 7
4.4002781 1.9849529 -0.084260218 10
5.4170852 2.4687066 0.10391163 9
7.0587583 3.2123976 0.40644106 22
7.0328989 3.1947045 0.67580563 13
6.9618039 3.1580133 0.93863773 2
6.9149809 3.1324089 1.2023554 10
7.0625491 3.1933198 1.5066279 81
nan nan nan nan
nan nan nan nan
1.8883713 0.84549987 -0.55439043 10
2.0512052 0.91711819 -0.51873714 10
2.2625444 1.0097171 -0.48160195 11
2.4953685 1.1120543 -0.43269777 10
2.8110998 1.2509955 -0.37779501 8
3.2174325 1.4291316 -0.3080084 7
3.7573299 1.6665907 -0.21541482 7
4.3954024 1.9468589 -0.083911166 1
5.348393 2.3924532 0.1022711 27
7.086482 3.1654868 0.40675509 30
7.029007 3.1353993 0.67336524 17
6.9546666 3.0964158 0.93473798 2
6.8807249 3.0591793 1.1926565 1
nan nan nan nan
nan nan nan nan
6.9321885 3.0675814 2.0312121 40
1.8977648 0.83385098 -0.5554257 12
2.055773 0.90199375 -0.51828724 10
2.2677407 0.99310839 -0.4812203 11
2.5175509 1.1009369 -0.43520072 10
2.8270421 1.234516 -0.37876993 6
3.2108934 1.3994703 -0.30643961 9
3.7707045 1.6411158 -0.21551949 5
4.3190222 1.87707 -0.082200833 5
5.3503175 2.3486261 0.10199186 13
7.0480442 3.0894761 0.40330091 15
7.0142207 3.0702729 0.66987902 3
4.3639359 1.9065579 0.58472919 1
4.2783895 1.8665168 0.73930937 6
7.0627103 3.0768211 1.4974691 31
nan nan nan nan
6.9073625 2.9991064 2.0177534 43
1.8982178 0.81828761 -0.55387276 12
2.0781295 0.89455426 -0.52233636 10
2.2746181 0.97725344 -0.4812203 10
2.5160983 1.0794413 -0.43363637 10
2.8355911 1.2147509 -0.37876993 8
3.2203448 1.3775821 -0.30643961 7
3.793092 1.6194551 -0.21614751 5
4.4221578 1.8852971 -0.083911166 1
5.3922963 2.3222902 0.10248053 8
nan nan nan nan
4.3607922 1.8726435 0.41520998 3
4.3297009 1.8557131 0.57839197 1
6.8991575 2.9527094 1.1885892 10
7.0569382 3.015866 1.4917448 19
4.2263837 1.8035789 1.0608692 1
nan nan nan nan
1.9003257 0.80351084 -0.55283749 12
2.0681665 0.87320256 -0.51828724 10
2.2848353 0.96327323 -0.48198354 10
2.5161049 1.059224 -0.43238491 10
2.8458331 1.1956941 -0.37901369 9
3.2335582 1.3566078 -0.30678821 9
3.7727103 1.5804814 -0.2143681 7
4.4352107 1.8543807 -0.083911166 1
4.4372683 1.8752884 0.084085695 1
6.9758835 2.9438601 0.39681125 2
7.0031562 2.9496112 0.66482401 7
nan nan nan nan
4.3456078 1.8249414 0.74650538 1
7.0397978 2.9505892 1.4837308 69
19.378727 8.1102772 4.8499451 8
nan nan nan nan
1.9093199 0.79203761 -0.55387276 12
2.0632598 0.85463017 -0.51558787 11
2.2860613 0.9450497 -0.48083872 10
2.5234385 1.0416325 -0.43238491 10
2.8392234 1.1702437 -0.37706378 9
3.2429502 1.3340002 -0.30678821 9
3.7781096 1.5518278 -0.21405408 5
4.4477305 1.8241482 -0.083911166 1
5.4293447 2.2500184 0.10258525 4
nan nan nan nan
4.3401623 1.7933185 0.41085216 1
nan nan nan nan
6.8844161 2.8347414 1.1792032 10
7.0324817 2.8914039 1.4780066 76
19.373579 7.9496379 4.8346481 8
nan nan nan nan
1.9183818 0.78014416 -0.55490804 12
2.0673704 0.83947194 -0.51513797 10
2.2816863 0.92464161 -0.478549 10
2.5361426 1.0262132 -0.43332353 10
2.8362808 1.145932 -0.37560135 9
3.2447922 1.3083489 -0.30609095 9
3.779588 1.5216844 -0.21353073 5
4.3453236 1.7468073 -0.08174707 7
nan nan nan nan
nan nan nan nan
4.2325425 1.7143586 0.39952192 1
4.1722226 1.6865346 0.55255568 1
6.8728967 2.7740407 1.1738844 12
7.0361075 2.8356328 1.4745719 85
19.374365 7.792376 4.8211513 8
nan nan nan nan
1.9130138 0.76244187 -0.55180228 12
2.0804229 0.82790166 -0.51693755 11
2.2917352 0.9101392 -0.47931221 10
2.5432451 1.0084825 -0.43332353 10
2.8626688 1.1334107 -0.37803873 9
3.2501421 1.2841984 -0.30574232 9
3.8031242 1.5003915 -0.21426344 5
4.3332248 1.706903 -0.081293307 8
4.3176503 1.7190764 0.081118785 1
nan nan nan nan
4.2610755 1.6913816 0.40109071 1
4.1506743 1.6442083 0.54816836 1
6.8498459 2.7092841 1.1666883 10
7.0392976 2.7799556 1.4711374 87
19.526197 7.6955123 4.8454461 8
nan nan nan nan
1.9164903 0.74836522 -0.55128461 10
2.091599 0.81548107 -0.51828724 9
2.2962034 0.89340699 -0.47893062 10
2.537334 0.98569673 -0.43113342 9
2.8705111 1.1133993 -0.37803873 9
3.2441635 1.2557231 -0.30434784 8
3.8097801 1.4723642 -0.21405408 5
4.3487673 1.6780497 -0.081363119 7
4.2811098 1.6699948 0.080211259 1
4.3437657 1.6918161 0.24430427 1
4.226356 1.6435393 0.39673293 1
4.1213379 1.5993911 0.54280609 1
6.8538589 2.6556845 1.1641854 8
7.020083 2.7158654 1.4631234 81
19.699429 7.6053381 4.8751397 8
nan nan nan nan
1.9108423 0.73082572 -0.54817873 11
2.0826774 0.79529649 -0.51468807 11
2.2987154 0.87595654 -0.47816736 10
2.5386147 0.96585149 -0.43019485 7
2.883781 1.0954468 -0.37876993 6
3.2526352 1.2336133 -0.30434784 8
3.8012862 1.4386631 -0.21300736 5
4.3491516 1.6434097 -0.081153691 7
4.2609076 1.6279356 0.07961788 2
4.2285752 1.6130459 0.23718657 1
4.1706972 1.5884668 0.39045769 1
4.123126 1.5670515 0.54158741 10
6.8611512 2.6035657 1.1623082 10
7.0058265 2.6542695 1.4562544 76
17.975435 6.7995219 4.4369349 7
nan nan nan nan
1.9303707 0.72288859 -0.55231988 12
2.0900037 0.78142089 -0.51513797 10
2.3027856 0.85960275 -0.47778577 7
2.5543852 0.95199853 -0.43175918 9
2.8653109 1.065599 -0.3753576 5
3.2723756 1.215035 -0.30539373 9
3.794137 1.4065052 -0.21206531 5
4.3436399 1.6067631 -0.080839552 7
4.2494164 1.5904833 0.079199016 1
4.1908135 1.5660483 0.23446509 4
4.1966205 1.5648803 0.39185223 7
4.1281157 1.5368742 0.54085618 22
6.8564935 2.5485473 1.1585537 10
7.009459 2.5998363 1.4532013 77
17.87627 6.6197257 4.4009428 6
nan nan nan nan
1.9279916 0.70707154 -0.55024934 12
2.0934443 0.76650643 -0.51468807 11
2.2995102 0.84013665 -0.47587767 9
2.5646806 0.93549621 -0.43238491 9
2.8614876 1.041497 -0.37389517 4
3.2845237 1.1935209 -0.30574232 9
3.8094962 1.3820266 -0.21237932 5
4.3415895 1.5716327 -0.08059521 10
4.2679267 1.5635294 0.07933864 4
4.2110233 1.5401829 0.23498847 1
4.2221465 1.5417457 0.39324668 2
nan nan nan nan
6.840704 2.4884624 1.1529222 10
7.0089836 2.5441391 1.4493852 83
17.775475 6.4416571 4.3649507 6
10.13306 3.6661203 2.8873854 2
1.9311835 0.69260484 -0.54973167 12
2.0970409 0.75084949 -0.51423812 10
2.3034706 0.82340169 -0.47549605 9
2.5675883 0.91579258 -0.43175918 9
2.8911295 1.0294855 -0.37682006 4
3.2740026 1.1638894 -0.30399922 8
3.8324649 1.3594047 -0.21311203 5
4.3468008 1.5392818 -0.080490492 7
4.3427405 1.5566369 0.080525406 8
4.2614288 1.5241349 0.23718657 1
4.204926 1.5014435 0.39063203 1
4.17909 1.4897493 0.544756 1
6.8248353 2.427532 1.1472905 10
7.0062237 2.4879189 1.4451874 90
17.739197 6.2887535 4.3451548 6
10.082541 3.5664585 2.8656447 2
1.9286798 0.67654902 -0.54766113 12
2.1040707 0.73683619 -0.51468807 10
2.3018904 0.8043071 -0.47396958 9
2.5552676 0.89133906 -0.4286305 9
2.8907478 1.0066652 -0.37584507 8
3.2784834 1.1391236 -0.30365062 8
3.8399742 1.3319632 -0.21300736 5
4.3593302 1.5095545 -0.080525406 3
4.3499942 1.5241987 0.080455594 2
4.3059006 1.506218 0.23907068 1
4.2153058 1.472051 0.39063203 2
4.2046375 1.4650354 0.5467059 3
6.8248258 2.3739824 1.1444747 7
6.9881854 2.4267056 1.4379367 83
nan nan nan nan
nan nan nan nan
1.9297012 0.66181332 -0.54662579 12
2.1017892 0.71960324 -0.51288843 8
2.3223119 0.79329538 -0.4770225 9
2.5539489 0.87092906 -0.42737901 9
2.8995838 0.98710066 -0.37608883 9
3.286356 1.1162077 -0.30365062 8
3.8340478 1.299992 -0.21216999 5
4.4246926 1.4976766 -0.081537649 1
4.3548536 1.4918487 0.080350876 1
4.3616662 1.4916313 0.2415828 1
4.2726178 1.4586797 0.39498982 3
4.2260385 1.4394842 0.54816836 7
nan nan nan nan
nan nan nan nan
4.2046361 1.4240094 1.0248771 1
9.9044256 3.3486071 2.8014574 2
1.9452648 0.65200901 -0.54973167 12
2.0993695 0.70243895 -0.51108885 9
2.3203444 0.77457666 -0.47549605 9
2.5674636 0.85557479 -0.4286305 9
2.8951032 0.96307266 -0.3746264 9
3.2978504 1.0944924 -0.30399922 8
3.8373423 1.2713094 -0.21185598 5
4.4122581 1.4592153 -0.081118785 1
nan nan nan nan
4.4212236 1.4776069 0.24430427 1
4.329946 1.4445814 0.3993476 3
4.2793055 1.424365 0.55377436 1
6.8198137 2.2660067 1.1382173 12
6.9729366 2.3128312 1.4280145 81
4.2144752 1.3946209 1.0248771 1
nan nan nan nan
1.953441 0.63961589 -0.55076694 12
2.1060743 0.68837202 -0.51153874 10
2.3238292 0.75774896 -0.47511441 9
2.5771308 0.83885241 -0.42925623 9
2.8923166 0.93977046 -0.37340769 8
3.2978292 1.0689865 -0.30330199 8
3.8480244 1.2451035 -0.21196064 5
4.479424 1.4468149 -0.082165927 1
4.5121036 1.4756562 0.082864024 1
6.918653 2.2586942 0.38142449 2
4.362658 1.4217255 0.40143937 3
4.260828 1.3852489 0.55011827 7
nan nan nan nan
nan nan nan nan
17.563984 5.6763988 4.2614727 6
10.13039 3.2681231 2.852186 2
1.9467096 0.62277263 -0.54766113 14
2.1181366 0.6763916 -0.51333833 10
2.3214507 0.7395311 -0.47358796 9
2.5790157 0.820095 -0.4286305 9
2.9082675 0.92255652 -0.3746264 9
3.2974317 1.0441068 -0.30260473 8
3.862124 1.2206877 -0.21227466 7
4.4550872 1.4046836 -0.081537649 1
5.205874 1.6634102 0.09539485 3
nan nan nan nan
4.4026103 1.4016654 0.4042283 1
4.245563 1.3484026 0.54694968 3
4.2367835 1.3431728 0.70395517 1
nan nan nan nan
10.042479 3.1702409 2.4312711 2
9.1095219 2.8704784 2.5592029 2
1.9474277 0.60767537 -0.54662579 13
2.1266437 0.66237628 -0.51423812 10
2.3265569 0.72330624 -0.47358796 9
2.5810444 0.80044872 -0.42800474 9
2.9241188 0.90516698 -0.37584507 8
3.3046403 1.0210625 -0.30260473 9
3.87076 1.1930197 -0.21227466 5
4.4533176 1.3700191 -0.081328213 1
4.4022069 1.3728216 0.080490492 1
4.355844 1.3550254 0.23907068 1
6.8975482 2.1417439 0.63187915 10
6.8601298 2.1261878 0.88184667 3
6.792172 2.0999296 1.1260154 10
6.9673171 2.1500833 1.4173293 91
10.086717 3.1069329 2.4366701 2
nan nan nan nan
1.9534711 0.59462661 -0.54714346 12
2.1163001 0.6429804 -0.51063895 10
2.3335521 0.70720869 -0.47396958 9
2.5827882 0.78126627 -0.42737901 9
2.9189644 0.88128811 -0.37438264 8
3.3078728 0.99681717 -0.30225611 6
3.8694298 1.1630948 -0.2117513 5
4.4646878 1.3394724 -0.081363119 3
5.1829519 1.5756902 0.094557136 4
6.8421216 2.0761881 0.37472549 7
6.9047041 2.0912311 0.6311819 40
6.8406014 2.0679069 0.87745935 10
6.7839713 2.0456166 1.1222609 14
6.7189636 2.0221775 1.3639028 88
nan nan nan nan
6.5617599 1.9673733 1.8355448 100
1.9593252 0.58186692 -0.54766113 12
2.1168902 0.62745363 -0.5097391 10
2.3477254 0.69409132 -0.47587767 9
2.5842571 0.76254952 -0.42675328 9
2.9134703 0.85803407 -0.37292022 8
3.3107584 0.97315437 -0.30190748 8
3.8753412 1.1361656 -0.21164663 7
4.4525914 1.3028716 -0.080979168 10
5.1993079 1.5420825 0.094661854 6
6.8541789 2.0290036 0.37462083 10
6.9015813 2.0391061 0.6296131 33
nan nan nan nan
nan nan nan nan
6.6911292 1.9642334 1.3555073 92
6.6034093 1.9347278 1.5886045 100
6.5731435 1.9221238 1.8350271 100
1.9688072 0.57012868 -0.54921407 12
2.1192403 0.61248875 -0.50928926 11
2.3410769 0.67483211 -0.47358796 9
2.5912859 0.74548745 -0.42706612 10
2.9230592 0.83927852 -0.37340769 8
3.3327947 0.95440525 -0.30330199 8
3.8829846 1.1097625 -0.21164663 5
4.4536643 1.2703419 -0.080839552 10
5.1981587 1.5033205 0.094452426 6
6.6663451 1.924142 0.36363026 2
6.8980708 1.9871142 0.62804425 40
6.7845154 1.9492744 0.86673486 55
6.7390327 1.9323877 1.1103719 78
6.6911316 1.9148614 1.3528358 97
6.6130085 1.8875072 1.5877047 100
6.5622501 1.8693045 1.8282977 100
1.9597242 0.55269921 -0.54559058 12
2.1365955 0.60137463 -0.51243854 10
2.3362801 0.65581888 -0.47167987 9
2.6078405 0.73057604 -0.42894334 10
2.930759 0.81938577 -0.37365144 9
3.3201849 0.92576349 -0.30155888 6
3.8925614 1.0831624 -0.2117513 5
4.4566441 1.2376132 -0.080734834 12
5.1989036 1.4642832 0.094277903 4
6.1989298 1.7424405 0.33746228 2
6.8618984 1.9249166 0.62351215 8
6.7883997 1.8991879 0.86551613 83
6.7333331 1.879981 1.1072433 87
6.6835337 1.8623054 1.3486381 92
6.6203914 1.8397317 1.586355 100
6.5472155 1.8157049 1.8205333 100
1.963535 0.53900433 -0.54559058 12
2.1388621 0.58592886 -0.51198864 9
2.3445892 0.64052731 -0.4724431 9
2.5919132 0.70663667 -0.42550179 9
2.9344926 0.79838407 -0.37340769 8
3.322721 0.90151817 -0.30121022 6
3.9173794 1.0606588 -0.21269335 7
4.434288 1.1981241 -0.080176361 14
5.1781416 1.4194961 0.093719423 3
6.2167215 1.7007054 0.3377763 6
6.871325 1.8759185 0.62316358 40
6.786171 1.8475778 0.86356628 82
6.7253246 1.8272305 1.1038017 85
6.6812134 1.8114902 1.3455851 90
6.6161423 1.78889 1.5823058 100
nan nan nan nan
1.9672498 0.52528411 -0.54559058 12
2.1316023 0.56797308 -0.50928926 9
2.3509014 0.62464756 -0.47282472 9
2.5967832 0.68852443 -0.42550179 9
2.9361567 0.77686256 -0.37292022 5
3.328934 0.8782993 -0.30121022 6
3.8995798 1.0266738 -0.2113326 5
4.4444785 1.1676458 -0.080211259 7
5.1821299 1.3817631 0.093614712 6
6.2419548 1.6608549 0.33850899 2
6.8765516 1.8258532 0.62246627 37
6.7720375 1.7930464 0.86015391 81
6.7245479 1.7767054 1.1016116 36
nan nan nan nan
nan nan nan nan
4.9051223 1.2868353 1.3588001 4
1.9689993 0.51105201 -0.54507297 13
2.1317425 0.55210066 -0.50838941 8
2.3552046 0.60822105 -0.47282472 10
2.6034393 0.67087281 -0.42581466 7
2.9434307 0.756841 -0.37316394 9
3.3348348 0.85562116 -0.30121022 5
3.8969779 0.99694967 -0.21080926 5
4.4486465 1.1355997 -0.080141447 7
5.1819706 1.3430427 0.093440183 9
6.2185922 1.6082361 0.33662489 2
6.8891311 1.7778015 0.62246627 6
nan nan nan nan
5.1047292 1.3106713 0.83473444 4
5.0113239 1.2838926 1.0055635 8
4.97683 1.2722789 1.1859421 4
4.9589138 1.2640139 1.3712233 6
1.9800122 0.49918136 -0.54714346 12
2.137435 0.53767926 -0.50883931 9
2.3497694 0.58978474 -0.47091663 9
2.5964484 0.65025556 -0.42393744 6
2.939013 0.73386908 -0.37194526 8
3.3523266 0.83520871 -0.30225611 6
3.9056113 0.97088426 -0.21091393 3
4.4739342 1.1088464 -0.080455594 5
5.2006879 1.3101841 0.093614712 6
5.2085948 1.3092763 0.28146279 5
5.1600862 1.2932537 0.46541166 4
5.0860128 1.2718593 0.64371389 3
5.1001153 1.2725488 0.83254427 3
5.0658889 1.2602506 1.0147223 5
4.9912648 1.2389114 1.1872917 4
4.9636526 1.2292989 1.370188 6
1.9758584 0.48385525 -0.54507297 12
2.1467242 0.52450627 -0.51018906 9
2.3423846 0.57057917 -0.46862692 9
2.6143613 0.63537991 -0.42612755 9
2.9497278 0.71525013 -0.37267649 9
3.354203 0.81084681 -0.30190748 6
3.9317105 0.94827533 -0.21196064 3
4.4347181 1.0671372 -0.07961788 4
5.1786284 1.2662451 0.093056232 7
5.1846228 1.2648344 0.27968338 1
5.1900654 1.2632809 0.46732911 4
5.1256342 1.2438112 0.6476137 6
5.0819964 1.2304047 0.82816416 4
5.0609913 1.2225145 1.012051 5
6.6783876 1.6082735 1.585905 78
nan nan nan nan
1.9679106 0.46737102 -0.54196709 13
2.1541262 0.51040518 -0.51108885 9
2.3615961 0.55782282 -0.47167987 9
2.607197 0.61439419 -0.42425033 9
2.9449873 0.69236821 -0.37145779 8
3.355902 0.78650266 -0.30155888 6
3.9265654 0.91807717 -0.2113326 3
4.44206 1.0361533 -0.07961788 4
5.1776133 1.2277536 0.092881702 9
5.2108188 1.2327464 0.28062543 5
5.1813054 1.2229 0.46576029 8
5.1283956 1.2066333 0.64688253 3
nan nan nan nan
nan nan nan nan
6.6932483 1.5624964 1.5868049 100
6.6228819 1.5424137 1.8220862 100
1.9805386 0.45578825 -0.54455531 12
2.1443417 0.49230173 -0.50793952 10
2.365433 0.54132223 -0.47167987 7
2.5998678 0.59353954 -0.42237309 9
2.9632976 0.67487705 -0.37316394 9
3.3651969 0.76393706 -0.30190748 5
3.9172957 0.88711315 -0.21049525 5
4.4628391 1.0082011 -0.079862215 7
5.1724162 1.1884427 0.092637375 6
5.3224769 1.219988 0.28617305 1
6.9280381 1.5841883 0.62176907 56
nan nan nan nan
6.8130083 1.5491292 1.1066176 24
nan nan nan nan
nan nan nan nan
nan nan nan nan
1.9817867 0.44152927 -0.54403764 12
2.1439219 0.47647387 -0.50703973 10
2.3672373 0.52437168 -0.47129822 9
2.615521 0.57793313 -0.42425033 9
2.9640598 0.65331835 -0.37267649 9
3.358772 0.7378599 -0.30086163 5
3.9116879 0.85717857 -0.20986721 7
4.4756298 0.97830117 -0.079966925 3
5.1708274 1.1501327 0.092462853 6
6.2316909 1.3826737 0.33453146 2
6.9214211 1.5319079 0.62020022 56
nan nan nan nan
nan nan nan nan
7.2792215 1.5977782 1.448622 1
7.2417426 1.5842499 1.7114277 2
nan nan nan nan
1.9942634 0.42971766 -0.54662579 10
2.1471961 0.46149486 -0.50703973 10
2.3631618 0.50618654 -0.46977177 9
2.6194923 0.55965799 -0.42425033 9
2.953017 0.62929946 -0.37072656 9
3.3715124 0.71663731 -0.30155888 4
3.9273458 0.83192027 -0.21039055 7
4.4451771 0.93917531 -0.079303734 3
5.1748199 1.1131667 0.092393041 6
6.2060404 1.3315955 0.33264738 2
6.9124641 1.4793836 0.61845714 60
7.4570122 1.5904791 0.93620038 1
7.4657822 1.5882635 1.2089256 1
7.4630432 1.5835969 1.4829676 1
7.4315696 1.5728528 1.7537186 2
7.4400816 1.5692286 2.0374236 3
1.9934322 0.41499814 -0.54559058 12
2.1618135 0.4488714 -0.5097391 10
2.3646297 0.48969221 -0.46939012 9
2.6232407 0.54181594 -0.42425033 9
2.9612272 0.60946858 -0.37121406 9
3.3686264 0.69147974 -0.30086163 5
3.946615 0.80797064 -0.21112327 5
4.461422 0.91011989 -0.079478264 3
5.1861935 1.078729 0.092462853 4
6.2149611 1.2893186 0.33264738 2
6.8953085 1.4254392 0.61601681 60
7.6270895 1.572554 0.95618695 1
7.6389513 1.5708306 1.2352067 1
7.3777514 1.5117552 1.4638867 1
7.3106279 1.4940132 1.7226753 2
7.2064013 1.4687831 1.9706483 2
1.9905289 0.40027606 -0.54403764 12
2.1629083 0.43376181 -0.50928926 11
2.3737667 0.47432619 -0.47053501 9
2.6230848 0.52271694 -0.4236246 9
2.9692006 0.59007329 -0.37170154 11
3.3694625 0.66717303 -0.300513 5
3.9345243 0.77691805 -0.21018122 7
4.4655509 0.87934434 -0.07944335 1
5.1779127 1.0393504 0.092183605 4
6.2003093 1.241197 0.3313913 4
6.8794508 1.3734038 0.6137507 58
7.4957557 1.4909978 0.93839401 1
7.4307804 1.4740294 1.1998525 1
7.3686123 1.457688 1.4600705 1
7.3667674 1.4519798 1.7334729 2
7.3321109 1.4411615 2.0022242 2
1.9894818 0.38563555 -0.54300237 12
2.1582303 0.41717297 -0.50748962 9
2.3712368 0.45662773 -0.46939012 9
2.6189106 0.50290024 -0.42237309 9
2.9732482 0.56932855 -0.37170154 9
3.3818665 0.64512688 -0.30121022 8
3.9202313 0.74569869 -0.2091345 6
4.4755106 0.84889501 -0.079513162 1
5.1732631 1.0008974 0.091974184 3
6.2049012 1.1971236 0.33118194 2
6.8830018 1.3242135 0.61322778 61
7.5274272 1.4427451 0.94107521 1
7.5456634 1.442145 1.2167474 1
7.5502496 1.4389209 1.4940345 1
7.5375466 1.4310476 1.7712648 2
7.5299091 1.4255134 2.0534704 3
1.9978229 0.37280011 -0.54455531 12
2.149595 0.39995673 -0.50479025 11
2.3820884 0.44149449 -0.47091663 9
2.6301274 0.48604169 -0.4236246 9
2.9673889 0.54676032 -0.37048283 8
3.3784494 0.62006104 -0.300513 8
3.9155188 0.71651268 -0.20861115 4
4.4950986 0.82013959 -0.079757497 3
5.1801248 0.96475679 0.091974184 4
6.2072167 1.1526822 0.33086795 2
6.8764067 1.2732269 0.61183333 60
7.7052021 1.421123 0.96203667 1
7.7226281 1.4201567 1.2436541 1
7.7319751 1.4176908 1.5279986 1
7.7122178 1.4085003 1.8099563 2
7.6955271 1.4012889 2.0959167 3
2.0022783 0.35918468 -0.54507297 13
2.1561713 0.38562617 -0.50569004 10
2.3715827 0.42244363 -0.46824533 9
2.6295669 0.46697733 -0.42299888 9
2.9613602 0.52430034 -0.36926416 9
3.3905447 0.59784377 -0.30121022 8
3.9282939 0.69054288 -0.20902982 6
4.4810181 0.78528619 -0.079408452 3
5.1827965 0.92786437 0.091904372 3
6.1974173 1.1061611 0.32992589 2
6.8733578 1.2230951 0.61078745 62
7.8810787 1.396741 0.98275441 1
7.9210439 1.3995469 1.2740024 1
7.902164 1.3919449 1.5596728 1
7.8869338 1.3835863 1.8486478 2
7.8935151 1.3804814 2.1471629 3
1.9952178 0.34355924 -0.54248476 12
2.1664934 0.37188357 -0.50748962 11
2.372539 0.40554577 -0.46786368 9
2.6366572 0.44927174 -0.4236246 9
2.9766908 0.50560784 -0.37072656 9
3.3827486 0.57275712 -0.30016437 8
3.9369578 0.6637674 -0.20923917 4
4.4627266 0.7500087 -0.078989588 3
5.1970315 0.8930136 0.092043988 1
6.1833334 1.0591587 0.32877451 4
6.8660173 1.1723973 0.60939294 66
8.115695 1.3799503 1.0107845 1
8.0747452 1.3686379 1.2971548 1
8.1091423 1.3701009 1.5985978 1
8.0748844 1.3599648 1.8904887 2
8.0591898 1.3515404 2.1896091 2
1.9956617 0.32930613 -0.54196709 12
2.1767287 0.3580136 -0.50928926 10
2.3849313 0.390975 -0.46977177 9
2.6318562 0.43003988 -0.42237309 9
2.9742696 0.48385954 -0.36999539 8
3.3748643 0.5472154 -0.29911849 8
3.9295549 0.63504022 -0.20861115 3
4.4698281 0.71915239 -0.079024501 1
5.1872048 0.85501844 0.091764756 1
6.2002535 1.0186673 0.32929787 2
6.85044 1.1205754 0.60730124 68
8.295351 1.3524708 1.0319897 1
8.2847013 1.3462819 1.3293802 1
8.2735538 1.3385429 1.6291273 1
8.6805878 1.3997318 2.0299585 2
8.716712 1.4008747 2.3656061 2
2.001673 0.31631845 -0.54300237 12
2.1714149 0.34197709 -0.50748962 11
2.3876028 0.37431553 -0.46977177 9
2.625036 0.41013095 -0.42080876 9
2.9814174 0.46421245 -0.37048283 5
3.3903241 0.52606207 -0.30016437 8
3.9279709 0.60667855 -0.20829713 4
4.4884543 0.69083989 -0.079268835 4
5.1811957 0.81691551 0.091555327 3
6.2032685 0.97473359 0.32908851 2
6.8460979 1.0720704 0.60625535 67
8.9616613 1.3969543 1.1136422 1
8.9399996 1.3887792 1.4329399 1
9.0061474 1.3942262 1.7714708 1
9.0057716 1.3893403 2.1037424 2
8.9401398 1.3728262 2.4235816 2
2.0057428 0.30262464 -0.54352003 12
2.1583326 0.32449159 -0.5038904 10
2.382329 0.35689262 -0.46824533 9
2.6414428 0.39429614 -0.42299888 9
2.9688773 0.44105327 -0.36853293 9
3.4017978 0.50354725 -0.30086163 6
3.9320095 0.57992768 -0.20829713 6
4.4773402 0.65716463 -0.078989588 4
5.1866364 0.78162915 0.091555327 3
6.1880331 0.92922711 0.32793713 4
6.8475041 1.023366 0.60573238 70
9.088769 1.3534606 1.1282665 1
9.2775154 1.376603 1.4855019 1
9.2098808 1.3599973 1.8096325 1
9.2080488 1.3548012 2.1487324 2
9.2130537 1.3506098 2.4950156 2
2.0192289 0.29061615 -0.54662579 13
2.1701365 0.31117576 -0.50613987 10
2.3769882 0.33914176 -0.46671882 9
2.6421754 0.37556651 -0.42268598 7
2.9718106 0.42083451 -0.36853293 9
3.4052298 0.47978759 -0.30086163 6
3.9399176 0.55302 -0.20850646 6
4.4698267 0.62501359 -0.078780167 4
5.1959252 0.74596894 0.091625139 3
6.1706438 0.88261026 0.32668105 2
6.8424764 0.97504956 0.6046865 71
9.4439135 1.3390225 1.1711645 1
9.4120798 1.3294824 1.5055255 1
9.4522171 1.3301046 1.8554269 1
9.460453 1.3245293 2.2054203 2
9.4135904 1.3129433 2.5467794 2
2.0039828 0.27415559 -0.54196709 12
2.1761181 0.29654405 -0.50703973 10
2.3851345 0.32333016 -0.46786368 8
2.6486485 0.35764018 -0.42331171 7
2.9864805 0.40166473 -0.36999539 9
3.3966479 0.4544161 -0.29981574 6
3.9417026 0.525235 -0.2084018 4
4.4701171 0.59326482 -0.078710355 4
5.1930809 0.70859492 0.091485515 4
6.1944666 0.84193039 0.32762313 2
6.8293729 0.92458326 0.60294342 71
nan nan nan nan
9.6873989 1.2994628 1.5480757 1
9.7298136 1.2999667 1.90809 1
9.7090063 1.2902839 2.2612081 2
9.445509 1.2502339 2.5529912 2
2.0001004 0.25941303 -0.54041415 12
2.1935966 0.2833418 -0.51063895 10
2.3873334 0.30667207 -0.46786368 8
2.6452022 0.33838964 -0.42237309 6
2.9892118 0.38080683 -0.36999539 8
3.3957846 0.43019116 -0.29946712 8
3.9353659 0.49645406 -0.20787844 4
4.462245 0.56054753 -0.078500926 4
5.2018685 0.67283368 0.091555327 3
6.1863279 0.7968753 0.32689041 2
6.8119478 0.87383735 0.60085171 71
nan nan nan nan
10.08816 1.2815901 1.6106495 1
9.9567986 1.2596052 1.9508314 1
10.007803 1.2589601 2.3286934 2
9.4540071 1.1842659 2.5529912 2
2.0076151 0.24614964 -0.54196709 13
2.1684399 0.26471573 -0.50434029 8
2.389416 0.28999785 -0.46786368 7
2.6533835 0.32062536 -0.42331171 7
2.9996808 0.36087734 -0.37097031 8
3.4026613 0.40694845 -0.29981574 4
3.9407189 0.46920595 -0.20798311 4
4.4660492 0.52938372 -0.078500926 6
5.1786499 0.63310665 0.091066658 3
6.2095833 0.75584209 0.32783246 2
6.8119478 0.82554388 0.60032874 77
nan nan nan nan
10.292993 1.2346514 1.6419363 1
10.238266 1.2226498 2.0042579 1
10.070534 1.1954942 2.3412907 2
9.4466963 1.1164218 2.5488501 2
2.0188804 0.23323542 -0.54455531 12
2.176043 0.25023758 -0.50569004 9
2.4011352 0.27442414 -0.46977177 8
2.6594825 0.30253997 -0.42393744 7
2.9863472 0.33814007 -0.3690204 8
3.4132721 0.38466868 -0.300513 5
3.9359591 0.44079396 -0.20756441 3
4.4736114 0.49863493 -0.078570738 4
5.1988354 0.59876776 0.091345899 1
6.1948662 0.71019775 0.32678574 2
6.8155656 0.77774149 0.6001544 71
nan nan nan nan
10.497652 1.184924 1.6732231 1
10.558709 1.1862175 2.0653167 1
10.078437 1.1269184 2.3412907 2
9.4542608 1.0504397 2.5488501 2
2.016618 0.21871869 -0.54352003 12
2.1738622 0.2346216 -0.50479025 9
2.3853791 0.2561869 -0.46633717 7
2.6555879 0.28380069 -0.42299888 7
2.9945571 0.31791189 -0.36975163 9
3.4119117 0.36041322 -0.30016437 5
3.9686632 0.41712406 -0.2091345 4
4.469028 0.4665606 -0.078431122 4
5.1888747 0.56185955 0.091101564 1
6.1777129 0.66566038 0.32563433 2
6.8089433 0.72886854 0.59910858 71
nan nan nan nan
nan nan nan nan
5.2970338 0.55767637 1.0353296 1
5.2407193 0.54897338 1.2165354 29
nan nan nan nan
2.0046065 0.2036213 -0.53989661 12
2.1792865 0.220212 -0.50569004 9
2.3949234 0.24031167 -0.46786368 8
2.6614356 0.26564664 -0.4236246 7
3.0026298 0.29758552 -0.37048283 8
3.4064136 0.33580294 -0.29946712 6
3.9734662 0.38960227 -0.20923917 4
4.4681954 0.434962 -0.078361303 4
5.2105761 0.52743322 0.091415711 3
6.1623383 0.62051463 0.32458761 2
5.4379125 0.54469299 0.47813639 11
nan nan nan nan
nan nan nan nan
nan nan nan nan
5.2463632 0.51256233 1.2169853 78
5.2146215 0.50670511 1.4038346 94
2.0002422 0.18872705 -0.53834367 12
2.1808064 0.20461175 -0.50569004 9
2.3965428 0.22358724 -0.46786368 8
2.6554003 0.24586654 -0.42237309 9
2.996727 0.27588803 -0.36950788 8
3.408675 0.31201351 -0.29946712 6
3.9900758 0.36242354 -0.20997187 5
4.4830728 0.40483662 -0.078570738 3
5.198204 0.48954368 0.091136463 4
5.4686251 0.51115954 0.28784779 54
5.4317522 0.50484437 0.47726485 41
5.3864241 0.49778706 0.66418797 58
5.3505702 0.49070936 0.85100359 63
5.3062592 0.4838441 1.0357113 69
5.2672811 0.47750688 1.2210344 78
5.1854043 0.4664349 1.3950348 73
2.0207562 0.17643848 -0.54352003 12
2.1705329 0.18837093 -0.5029906 10
2.4039493 0.20693739 -0.46900854 8
2.6531157 0.22698687 -0.42174736 9
3.010448 0.25597072 -0.37097031 8
3.402879 0.28694394 -0.29876989 6
3.9905188 0.33439195 -0.20986721 5
4.4738331 0.37253335 -0.078361303 4
5.1975904 0.45198724 0.091066658 4
5.468081 0.4726249 0.28763846 40
5.4450693 0.4677639 0.47813639 41
5.3779807 0.45821881 0.66272557 57
5.3479614 0.45284086 0.85006499 60
5.2860312 0.44480959 1.0311319 67
5.2550268 0.43850893 1.2174351 80
5.1962352 0.43086362 1.3971052 81
2.0161619 0.1618619 -0.54196709 12
2.1717954 0.17321211 -0.5029906 9
2.411207 0.19061376 -0.47015342 8
2.6566052 0.20861375 -0.42206025 9
2.9923706 0.23340394 -0.36853293 8
3.4187045 0.26425686 -0.29999006 6
3.9887726 0.30622083 -0.20965785 5
4.4763246 0.34129316 -0.078361303 4
5.2085919 0.41632998 0.091206275 3
5.4573102 0.43333495 0.28690574 43
5.4342985 0.42864469 0.47691619 26
5.3671956 0.4195793 0.66101938 56
5.3450837 0.41503522 0.8491264 63
5.2948804 0.40834817 1.0322767 75
5.2482452 0.40106627 1.2151858 87
5.1971908 0.3944279 1.3965876 94
2.0114625 0.14735998 -0.54041415 12
2.1826696 0.15875378 -0.50524008 10
2.4007299 0.17292826 -0.46786368 8
2.6579969 0.19006081 -0.42206025 9
2.9978876 0.2127872 -0.3690204 8
3.4363239 0.24209885 -0.30138457 5
3.9928064 0.27850553 -0.20976254 5
4.4666286 0.30920562 -0.078151874 4
5.2113714 0.37995702 0.091206275 3
5.4522343 0.39464843 0.28648707 43
5.4212608 0.38955334 0.47552174 28
5.3660331 0.3818197 0.66053188 63
5.3301163 0.37645936 0.84631056 66
5.3093529 0.37219933 1.0345664 76
5.2430768 0.36479467 1.2133861 87
5.1863265 0.35720584 1.3929642 79
2.0162976 0.13356914 -0.54144943 12
2.1876137 0.14376758 -0.50613987 9
2.3920555 0.15594552 -0.46595559 9
2.6690853 0.17260259 -0.4236246 7
2.9992998 0.19185425 -0.3690204 8
3.4220231 0.21709538 -0.29999006 5
3.9985957 0.25157163 -0.20997187 5
4.4686785 0.27801299 -0.078151874 4
5.2178278 0.34473908 0.091276079 3
5.4508085 0.35726577 0.28627771 47
5.4278245 0.35195413 0.47587034 53
5.3645463 0.34503061 0.66004443 62
5.334527 0.34029287 0.84662342 69
5.3039842 0.33462945 1.0330399 75
5.2338266 0.32745215 1.2106867 87
5.1809249 0.32141927 1.3908936 91
2.0094464 0.11938323 -0.53937894 10
2.2021594 0.12967549 -0.50928926 10
2.3989661 0.13958414 -0.46710047 9
2.6623366 0.1535098 -0.42237309 7
3.0084639 0.17188711 -0.36999539 8
3.4194767 0.19297534 -0.29964143 5
4.0022488 0.22376154 -0.21007656 5
4.4704671 0.2475913 -0.078151874 4
5.212122 0.30783179 0.091136463 3
5.4591508 0.31955338 0.28659174 64
5.4022474 0.31338447 0.47342998 49
5.3668242 0.30757058 0.66004443 63
5.3229671 0.30226114 0.84443337 64
5.2865376 0.29741582 1.0292237 22
nan nan nan nan
nan nan nan nan
2.0160184 0.10565506 -0.54093182 12
2.1796575 0.11308672 -0.5038904 9
2.4116459 0.12343607 -0.46939012 9
2.655452 0.1345197 -0.42112163 7
3.0274341 0.15177444 -0.37218902 9
3.4247205 0.16929494 -0.29999006 5
3.9917443 0.19522974 -0.20944853 7
4.4840708 0.21695536 -0.078361303 4
5.2261262 0.27206057 0.091345899 3
5.4393082 0.28030288 0.28544036 57
nan nan nan nan
nan nan nan nan
nan nan nan nan
nan nan nan nan
nan nan nan nan
nan nan nan nan
2.0186367 0.091665655 -0.54144943 12
2.1823406 0.097954467 -0.50434029 10
2.4046037 0.1062488 -0.46786368 9
2.6681678 0.11649486 -0.42299888 6
3.0105708 0.12986532 -0.36999539 8
3.4377625 0.14589024 -0.30103594 5
3.9790413 0.16676998 -0.20871581 6
4.4854765 0.18564321 -0.078361303 4
5.2199078 0.23521113 0.091206275 4
5.427165 0.24170305 0.28470761 54
nan nan nan nan
8.0777082 0.34985599 0.99274784 1
7.9890161 0.34182405 1.2664937 1
7.9440889 0.33573499 1.545553 1
7.8739076 0.32726264 1.8194042 2
7.8058381 0.32033959 2.0933285 3
2.0192275 0.077571638 -0.54144943 12
2.1868658 0.082865089 -0.50524008 10
2.407249 0.089531891 -0.46824533 9
2.6649675 0.097719915 -0.42237309 6
3.007436 0.10870098 -0.36950788 6
3.450644 0.12230838 -0.30208179 5
3.9821048 0.13905858 -0.20882049 4
4.4826655 0.15418881 -0.078291491 4
5.2174258 0.19861144 0.091136463 3
5.4127536 0.20320639 0.28387025 52
nan nan nan nan
8.0244074 0.2914409 0.98592305 1
8.0109482 0.28675234 1.2696222 1
7.9089603 0.27895558 1.5383022 1
7.8078351 0.26992786 1.8036578 6
7.7692695 0.26452205 2.0829759 3
2.0197198 0.063472889 -0.54144943 12
2.187391 0.067595862 -0.50524008 10
2.3980033 0.072428726 -0.46633717 7
2.6576867 0.078879423 -0.42112163 7
3.0120904 0.087819621 -0.36999539 8
3.4314806 0.098249145 -0.30033869 4
3.99895 0.11170098 -0.20965785 5
4.4756374 0.122671 -0.078151874 4
5.2306776 0.1625523 0.091345899 4
5.4140406 0.16541331 0.28387025 54
nan nan nan nan
8.0064049 0.23483087 0.9834857 1
7.886384 0.22717431 1.2495986 1
7.8675408 0.222509 1.5299066 4
nan nan nan nan
7.7033362 0.20844695 2.0648584 3
2.0046635 0.048992485 -0.53730839 12
2.1975505 0.052555263 -0.50748962 9
2.3964779 0.056057271 -0.46595559 8
2.6660616 0.06096663 -0.42237309 6
3.0165992 0.066877127 -0.37048283 8
3.4320831 0.074290492 -0.30033869 4
3.9996178 0.084480256 -0.20965785 5
4.4743853 0.091381334 -0.078116976 6
5.2316628 0.12694687 0.091345899 3
5.4210315 0.12870198 0.28418428 59
nan nan nan nan
7.9601874 0.17925489 0.97763592 2
7.8976216 0.17370898 1.251163 3
7.8826427 0.16787039 1.532578 2
7.8244534 0.16253272 1.806807 21
7.7412758 0.15675016 2.0746937 9
2.0088139 0.035415076 -0.53834367 12
2.1822698 0.037330166 -0.5038904 10
2.400737 0.039390892 -0.46671882 8
2.6585217 0.042228308 -0.42112163 7
3.0249238 0.046462703 -0.37145779 8
3.4404869 0.050443422 -0.30103594 4
3.9741488 0.056186654 -0.20829713 4
4.4889002 0.06111354 -0.078361303 3
5.2284231 0.090350777 0.091276079 3
5.4217978 0.090852924 0.28418428 56
nan nan nan nan
8.0088816 0.12441796 0.9834857 3
7.9598718 0.1194881 1.260862 3
7.8894916 0.11430002 1.5337228 3
7.8351398 0.10803813 1.8090566 4
7.7363853 0.10262515 2.0731406 9
2.0186706 0.021492882 -0.54093182 12
2.188323 0.022153324 -0.50524008 10
2.4146955 0.022759151 -0.46939012 8
2.6508505 0.023596961 -0.41987014 7
3.0132644 0.025245281 -0.36999539 8
3.4487245 0.026484268 -0.30173317 4
3.9824326 0.028497661 -0.20871581 4
4.4892178 0.029773615 -0.078361303 3
5.2449231 0.054012038 0.091555327 3
5.4123135 0.052901816 0.28366089 63
nan nan nan nan
7.9738245 0.068196811 0.97909838 1
7.9308825 0.063676916 1.256169 3
7.8900967 0.059218198 1.5337228 3
7.8279076 0.053286586 1.8072569 4
7.7369132 0.048616193 2.0731406 9
2.0303624 0.0074428325 -0.54403764 12
2.1825783 0.0068580811 -0.5038904 10
2.401053 0.0058672624 -0.46671882 9
2.6707046 0.0051278886 -0.42299888 7
3.0133674 0.0042081135 -0.36999539 8
3.4448409 0.0024058481 -0.30138457 4
3.9765427 0.00069519668 -0.2084018 3
4.4693189 -0.0015600867 -0.078012258 4
5.2531714 0.017420774 0.091694944 3
5.3945761 0.015065257 0.28271887 52
nan nan nan nan
7.9939575 0.012554735 0.98153585 3
7.9252071 0.0082973735 1.2552303 3
7.8824658 0.0041256226 1.5321964 3
7.8124995 -0.0013635383 1.8036578 6
7.7351322 -0.0054001417 2.072623 6
2.0129786 -0.0066753137 -0.53937894 12
2.1962142 -0.0084328977 -0.50703973 10
2.389256 -0.010842173 -0.46442911 9
2.6647494 -0.013487623 -0.42206025 6
3.0172932 -0.016851921 -0.37048283 6
3.4328194 -0.021569323 -0.30033869 4
3.9804451 -0.027094448 -0.20861115 3
4.4691992 -0.032761529 -0.078012258 4
5.2651629 -0.019297916 0.091904372 3
5.3945498 -0.022596769 0.28271887 56
nan nan nan nan
8.0295811 -0.043444637 0.98592305 1
nan nan nan nan
9.7414656 -0.062908515 1.8935887 1
9.6966829 -0.069389202 2.238713 2
nan nan nan nan
2.014811 -0.021099819 -0.53989661 12
2.1902518 -0.024084046 -0.50569004 9
2.4048221 -0.028122563 -0.46748206 9
2.6645846 -0.032555662 -0.42206025 6
3.0250351 -0.038543765 -0.37145779 8
3.420624 -0.045972656 -0.29929283 4
3.9841435 -0.055632748 -0.20882049 3
4.4648519 -0.064683408 -0.077942446 4
5.2608905 -0.056930535 0.09183456 4
5.390255 -0.061153129 0.28250951 56
nan nan nan nan
9.7956581 -0.12310234 1.2028506 1
9.7733278 -0.12793988 1.5480757 1
9.6622429 -0.13154572 1.8783239 1
nan nan nan nan
9.6968288 -0.1438659 2.5985434 2
2.0242724 -0.035333805 -0.54248476 12
2.1861334 -0.039304115 -0.50479025 9
2.4026046 -0.044873908 -0.46710047 9
2.6642923 -0.051157031 -0.42206025 7
3.0167537 -0.059504796 -0.37048283 8
3.4281874 -0.070014529 -0.29999006 4
3.9816611 -0.083403908 -0.20871581 3
4.4762864 -0.096109673 -0.078151874 3
5.2483692 -0.093443215 0.091625139 3
5.3877006 -0.098745815 0.28240484 59
nan nan nan nan
9.7429571 -0.19047655 1.1965134 1
9.7721968 -0.1961669 1.5480757 1
9.6414614 -0.19859284 1.8745077 1
nan nan nan nan
7.7641954 -0.16941534 2.0809052 3
2.0259075 -0.049512111 -0.54300237 12
2.1877537 -0.054613754 -0.50524008 9
2.4100831 -0.061847478 -0.46862692 9
2.6599209 -0.069652483 -0.42143452 7
3.0162647 -0.080564082 -0.37048283 8
3.4355817 -0.094164237 -0.30068728 4
3.9590204 -0.11058545 -0.20756441 1
4.4835019 -0.12758496 -0.078291491 4
5.2555852 -0.13027939 0.091764756 4
5.3828864 -0.13625526 0.28219551 57
nan nan nan nan
9.7771091 -0.25943783 1.2009006 1
9.7705889 -0.26438436 1.5480757 1
9.5927382 -0.26459837 1.8653487 1
nan nan nan nan
7.7628236 -0.22361508 2.0809052 3
2.0197198 -0.063472249 -0.54144943 13
2.1912146 -0.070010163 -0.50613987 10
2.397819 -0.078286998 -0.46633717 9
2.6672668 -0.088482358 -0.42268598 7
3.0037248 -0.10121831 -0.3690204 8
3.4507701 -0.11869456 -0.30208179 4
3.9501679 -0.1379429 -0.20714574 1
4.482502 -0.15888233 -0.078291491 4
5.2745342 -0.16760191 0.0921138 3
5.3698263 -0.17344439 0.28156745 59
nan nan nan nan
9.7234755 -0.32595879 1.1945634 1
9.7685051 -0.33258894 1.5480757 1
9.6377487 -0.33318931 1.8745077 1
nan nan nan nan
7.7494903 -0.27738932 2.0777996 3
2.0134363 -0.077348419 -0.53989661 12
2.1906724 -0.085305892 -0.50613987 10
2.3932908 -0.094869368 -0.46557397 9
2.6705317 -0.10725964 -0.42331171 7
3.0069118 -0.12234703 -0.36950788 8
3.4419198 -0.14185211 -0.30138457 4
3.9610817 -0.1660185 -0.20777377 1
4.469296 -0.18966328 -0.078082062 3
5.2652431 -0.20411089 0.091974184 4
5.3664889 -0.21084994 0.28146279 56
nan nan nan nan
nan nan nan nan
nan nan nan nan
nan nan nan nan
nan nan nan nan
7.747365 -0.33148375 2.0777996 3
2.0089874 -0.091227576 -0.53886127 12
2.193917 -0.10077631 -0.50703973 10
2.4102399 -0.11197767 -0.46900854 9
2.66974 -0.12543474 -0.42331171 7
3.0297787 -0.14447069 -0.37243277 6
3.4209447 -0.16491821 -0.29964143 4
3.9877882 -0.19433773 -0.20923917 3
4.4798465 -0.22145236 -0.078291491 4
5.2517462 -0.23939888 0.091764756 3
5.3629351 -0.2472813 0.28135812 59
nan nan nan nan
nan nan nan nan
nan nan nan nan
nan nan nan nan
14.547371 -0.71403027 3.3625686 3
7.7372108 -0.38382742 2.0757289 3
2.0121784 -0.10510165 -0.53989661 12
2.1873422 -0.11539938 -0.50569004 10
2.4113598 -0.12890625 -0.46939012 9
2.6609089 -0.14364392 -0.42206025 9
3.0247607 -0.16487414 -0.37194526 8
3.4316459 -0.18945566 -0.30068728 4
3.978358 -0.22172819 -0.20882049 3
4.4822288 -0.25216502 -0.078361303 3
5.2419591 -0.27563682 0.091625139 3
5.3670607 -0.28503308 0.28167215 56
nan nan nan nan
nan nan nan nan
nan nan nan nan
nan nan nan nan
nan nan nan nan
7.7381997 -0.43805191 2.0767641 3
2.0191095 -0.11960356 -0.54196709 13
2.1787021 -0.13020197 -0.5038904 10
2.4084415 -0.14561896 -0.46900854 9
2.6637847 -0.16245741 -0.42268598 7
3.0195735 -0.185743 -0.37145779 8
3.4282513 -0.21328455 -0.300513 2
3.9607663 -0.24849626 -0.20798311 4
4.4843507 -0.28370297 -0.078431122 3
5.2359147 -0.31198773 0.091555327 4
5.3549714 -0.32189575 0.28114879 57
nan nan nan nan
nan nan nan nan
nan nan nan nan
14.617457 -0.91196877 2.8468704 3
5.2083716 -0.32859561 1.2048379 1
7.7310977 -0.49181834 2.0757289 3
2.0220804 -0.13395196 -0.54300237 12
2.1835732 -0.14579836 -0.50524008 10
2.4054074 -0.16229722 -0.46862692 9
2.6625857 -0.18105 -0.42268598 7
3.0142422 -0.20654748 -0.37097031 8
3.4286664 -0.23735043 -0.30068728 4
3.9669044 -0.27669725 -0.2084018 4
4.4702926 -0.31416139 -0.078221686 4
5.2296181 -0.34826764 0.091485515 4
5.3446231 -0.35873732 0.2807301 63
nan nan nan nan
nan nan nan nan
5.3209114 -0.36647549 0.84474617 1
14.610735 -1.0139948 2.8468704 3
5.2059503 -0.36494857 1.2048379 1
7.7467456 -0.54714024 2.0809052 3
2.0191696 -0.14792423 -0.54248476 12
2.1961062 -0.16204271 -0.50838941 11
2.4042158 -0.17908601 -0.46862692 9
2.6711061 -0.20037265 -0.42425033 9
3.0166855 -0.22788471 -0.37145779 8
3.4308991 -0.26158404 -0.30103594 4
3.9708505 -0.30484316 -0.20871581 6
4.4600143 -0.34474552 -0.078082062 3
5.2230711 -0.3844749 0.091415711 4
5.3459721 -0.39633611 0.28093943 59
nan nan nan nan
nan nan nan nan
nan nan nan nan
5.2149048 -0.39851847 1.0166303 1
5.1605301 -0.39798719 1.1949401 1
7.7311816 -0.60031158 2.0777996 3
2.0065336 -0.16108939 -0.53937894 12
2.1988065 -0.17768428 -0.50928926 10
2.4087772 -0.19634461 -0.46977177 9
2.6657045 -0.21869242 -0.4236246 9
3.0228913 -0.25012043 -0.37243277 8
3.4369314 -0.28619099 -0.30173317 4
3.9726059 -0.33289084 -0.20892516 6
4.469389 -0.37766185 -0.078291491 3
5.2322187 -0.42189348 0.091625139 3
5.3430748 -0.43364808 0.28093943 59
nan nan nan nan
nan nan nan nan
nan nan nan nan
5.2432222 -0.43844259 1.0227362 1
5.1925797 -0.43694577 1.2030382 1
7.6883025 -0.65101039 2.0674467 3
2.0111029 -0.17594869 -0.54093182 12
2.1819489 -0.19204703 -0.50569004 11
2.4132147 -0.21367562 -0.47091663 9
2.6601365 -0.23741084 -0.42299888 9
3.0250256 -0.27157292 -0.37292022 8
3.4467556 -0.31125325 -0.30277905 4
3.9661441 -0.36094737 -0.20871581 6
4.4666433 -0.40885463 -0.078291491 3
5.2132092 -0.45701355 0.091345899 3
5.3458028 -0.47239828 0.28125346 64
nan nan nan nan
nan nan nan nan
nan nan nan nan
5.1852875 -0.47007313 1.012051 1
5.1447668 -0.46911582 1.1926905 3
7.7026844 -0.70777732 2.072623 3
2.0079021 -0.18980265 -0.54041415 9
2.1727948 -0.20653749 -0.5038904 10
2.4155326 -0.23131289 -0.47167987 7
2.6603804 -0.2561655 -0.42331171 7
3.023056 -0.29268479 -0.37292022 6
3.4326005 -0.33415014 -0.30173317 4
3.9635277 -0.38862729 -0.20871581 6
4.4636803 -0.44002742 -0.078291491 3
5.2058244 -0.49392873 0.091276079 4
5.3344221 -0.50894845 0.28083476 64
nan nan nan nan
nan nan nan nan
14.836316 -1.4416429 2.3609092 2
5.193603 -0.50740695 1.0143408 1
5.141366 -0.50502133 1.1926905 4
7.7283154 -0.76457757 2.0809052 3
2.0142164 -0.20459662 -0.54248476 12
2.1829321 -0.22288898 -0.50658983 9
2.398278 -0.24614584 -0.46862692 8
2.66447 -0.27487618 -0.42425033 9
3.0209391 -0.31378239 -0.37292022 4
3.4539635 -0.3605884 -0.3038249 4
3.9667494 -0.41622218 -0.20902982 9
4.4684548 -0.47201914 -0.078431122 3
5.2341719 -0.53259081 0.09183456 4
5.3248739 -0.54463696 0.28052074 66
nan nan nan nan
nan nan nan nan
nan nan nan nan
5.2016492 -0.54487967 1.0166303 1
5.1280255 -0.53988206 1.190441 13
5.09483 -0.53908467 1.3727763 1
2.0127769 -0.21830213 -0.54248476 12
2.1968625 -0.23943155 -0.51018906 10
2.3945498 -0.26266879 -0.46824533 9
2.6683764 -0.2941201 -0.42518893 9
3.0147872 -0.33390081 -0.37243277 6
3.4315608 -0.38248557 -0.30208179 4
3.9498532 -0.44234896 -0.20829713 6
4.4691119 -0.50287092 -0.078500926 3
5.2343025 -0.56955159 0.091904372 4
5.3169708 -0.58136392 0.28031141 63
nan nan nan nan
nan nan nan nan
nan nan nan nan
5.1900153 -0.57940197 1.0151039 1
5.1280046 -0.57610416 1.1913409 17
5.1024599 -0.57593989 1.3758821 1
2.0035274 -0.23146166 -0.54041415 12
2.1990087 -0.25521189 -0.51108885 10
2.4102077 -0.28142861 -0.47167987 9
2.6584103 -0.31182107 -0.42393744 7
3.0084395 -0.35447508 -0.37194526 8
3.4327641 -0.4069019 -0.30243042 4
3.966501 -0.47227451 -0.20934384 7
4.4714494 -0.53477114 -0.078605637 3
5.2262259 -0.60561925 0.09183456 4
5.3167505 -0.61893082 0.28052074 59
nan nan nan nan
nan nan nan nan
nan nan nan nan
5.170248 -0.61376923 1.012051 1
nan nan nan nan
nan nan nan nan
2.0114501 -0.24661867 -0.54300237 12
2.1875029 -0.26936671 -0.50883931 10
2.4120808 -0.29873061 -0.4724431 9
2.6483276 -0.32939726 -0.42268598 7
3.0177102 -0.37694547 -0.37340769 9
3.4456544 -0.43284369 -0.3038249 4
3.9512181 -0.49845436 -0.20871581 6
4.4775262 -0.56723106 -0.078780167 3
5.2179017 -0.64160222 0.091764756 4
5.3182464 -0.65676761 0.28083476 64
5.2831869 -0.65524668 0.46576029 39
5.2279224 -0.65209877 0.64688253 35
5.2313967 -0.65531403 0.8350473 66
nan nan nan nan
5.1233277 -0.64813524 1.1922406 108
5.0594254 -0.64274287 1.3665646 70
2.0077639 -0.26040667 -0.54248476 12
2.1720421 -0.28287002 -0.50569004 11
2.4040966 -0.314798 -0.47129822 9
2.6616318 -0.34993789 -0.42518893 7
3.0071332 -0.39696452 -0.37243277 8
3.4346483 -0.45583963 -0.30312768 4
3.9615006 -0.52787334 -0.20944853 5
4.4774213 -0.5990063 -0.078849971 3
5.2370906 -0.68110877 0.092183605 4
5.3036299 -0.69258666 0.28031141 59
5.2784834 -0.69211394 0.46576029 61
5.2173386 -0.68780202 0.6461513 60
5.205153 -0.6889686 0.83160573 72
5.1670122 -0.68667316 1.0131959 100
5.1032257 -0.68182218 1.1886414 100
5.0643883 -0.67933255 1.3691529 84
2.0154672 -0.27572626 -0.54507297 12
2.1738756 -0.29855701 -0.50658983 9
2.3940611 -0.33050004 -0.46977177 9
2.6669505 -0.3695955 -0.42644039 7
3.0082209 -0.41849545 -0.37292022 8
3.4353287 -0.48035851 -0.30347627 2
3.9596968 -0.5557943 -0.20955318 5
4.4731302 -0.63024974 -0.078849971 3
5.2401333 -0.7187407 0.092323236 4
5.2947083 -0.72905082 0.28010207 66
5.2774701 -0.72949326 0.46610889 67
5.216342 -0.72475529 0.64663881 68
5.1982594 -0.72501737 0.83129281 87
5.1582036 -0.72218424 1.0124326 100
5.0925522 -0.71661794 1.1872917 97
5.0614352 -0.71494198 1.3696705 93
2.0039322 -0.28841403 -0.54248476 12
2.1775246 -0.31456199 -0.50793952 10
2.3878098 -0.34664148 -0.46900854 9
2.6564863 -0.38706598 -0.42518893 7
3.0052261 -0.43948641 -0.37292022 8
3.4318917 -0.50432974 -0.30347627 2
3.9735029 -0.58604717 -0.21049525 3
4.4607091 -0.66029131 -0.078710355 3
5.2547798 -0.75816154 0.092672281 4
