# .PCD v0.7 - Point Cloud Data file format
VERSION 0.7
FIELDS x y z intensity
SIZE 4 4 4 4
TYPE F F F F
COUNT 1 1 1 1
WIDTH 1480
HEIGHT 1
VIEWPOINT 0 0 0 1 0 0 0
POINTS 1480
DATA ascii
1.1945211 -4.4642453 -0.5674237 17
1.4166547 -5.3092585 -0.48075107 20
1.1742567 -4.4100814 -0.23917533 14
1.1559172 -4.3503666 -0.078570738 21
1.1286453 -4.1858492 0.07567364 12
1.1105505 -4.1273365 0.22399792 30
1.2172885 -4.5334864 0.41067785 26
1.1121216 -4.1533952 0.52793807 27
1.1040046 -4.1317382 0.67736137 18
1.2088869 -4.5337763 0.91206706 26
1.0781285 -4.0547523 0.96863931 1
1.0275407 -3.8726592 1.0735815 9
0.70295638 -2.6776068 -0.74177545 10
0.77090037 -2.9426818 -0.70229727 8
0.85644573 -3.2785602 -0.65867269 17
0.99453795 -3.8153608 -0.62448645 19
1.1688226 -4.493609 -0.57010484 19
1.2860171 -4.9583755 -0.44815481 10
1.1299288 -4.3659654 -0.23634921 50
1.1330185 -4.387373 -0.079094306 16
1.1232288 -4.2845402 0.077314161 16
1.0812037 -4.1330562 0.22389325 22
1.1896355 -4.5572963 0.41207233 13
1.1411046 -4.383903 0.55621171 38
1.0800997 -4.158464 0.68049002 33
1.0668734 -4.1164017 0.82658464 11
1.1180588 -4.3263259 1.0316256 24
1.0144687 -3.9339871 1.088593 4
0.68663383 -2.6918087 -0.74436361 13
0.75514454 -2.9668775 -0.70679629 7
0.84319508 -3.3225176 -0.66630507 15
0.97224218 -3.8394451 -0.62730229 21
1.1413136 -4.517056 -0.57205474 21
1.2158388 -4.8261948 -0.43543008 17
1.1052639 -4.3969917 -0.23760527 16
1.1403066 -4.5464664 -0.081816882 10
1.1367257 -4.4628057 0.080385789 15
1.0857776 -4.2721329 0.23101093 31
1.1484852 -4.5287967 0.4087604 17
nan nan nan nan
1.0988823 -4.3555231 0.71146405 7
1.1986678 -4.7615414 0.95442665 9
1.0456052 -4.1658053 0.99158424 10
1.0583166 -4.2258182 1.167274 19
0.67432684 -2.7227893 -0.75161052 20
0.73908895 -2.9909952 -0.71129531 11
0.82138795 -3.3340423 -0.66744989 20
0.95484513 -3.8845048 -0.63355964 17
1.1130606 -4.5384092 -0.57376093 12
1.2824402 -5.2448645 -0.4723841 20
1.0717 -4.3929586 -0.23697723 36
1.073069 -4.4085937 -0.079199016 11
1.1084218 -4.4822793 0.08059521 16
1.0329608 -4.186532 0.22598669 23
1.1282712 -4.5831356 0.41294393 11
1.6792963 -6.8420248 0.86502868 13
nan nan nan nan
1.0749981 -4.3998055 0.88039279 5
0.98375183 -4.0385737 0.95964128 1
1.033808 -4.2537527 1.1729679 5
0.65485048 -2.7255521 -0.75109291 9
0.71773559 -2.9941869 -0.71084535 12
0.80311137 -3.3606997 -0.67164773 27
0.92312163 -3.8718607 -0.630431 17
1.0845655 -4.5595875 -0.57546705 21
1.064211 -4.4879303 -0.40353107 22
1.1642349 -4.9212203 -0.26502931 13
1.0174602 -4.3108816 -0.077314161 30
1.0388519 -4.3304577 0.077733018 15
0.99673462 -4.164505 0.2244166 22
1.1036513 -4.6219072 0.41573292 35
nan nan nan nan
0.99688178 -4.1974692 0.6833058 15
nan nan nan nan
1.0101864 -4.2767224 1.0145293 12
1.05593 -4.4808674 1.2335316 9
0.64018846 -2.7488725 -0.75626928 19
0.70431215 -3.0313938 -0.71849376 8
0.79602003 -3.4369917 -0.68576753 27
0.89251137 -3.8628137 -0.62792808 14
1.0544906 -4.5747852 -0.576442 15
1.0426689 -4.5379701 -0.40736595 27
1.0142767 -4.4250145 -0.23791927 20
0.99268979 -4.3412719 -0.077733018 26
1.0393915 -4.4700503 0.080106542 5
0.97169906 -4.1888723 0.22535865 8
1.0771971 -4.6547332 0.41799891 12
1.9512818 -8.4586611 1.0658693 10
0.93875796 -4.0791974 0.66296935 19
0.99237615 -4.3225389 0.86207509 11
0.9281376 -4.0557146 0.96054101 16
1.470502 -6.4412098 1.7703223 13
0.62098205 -2.7532749 -0.75626928 16
0.6844151 -3.0419405 -0.71984339 10
0.77071702 -3.436718 -0.6846227 9
0.86724705 -3.8766613 -0.62917954 17
1.0272834 -4.6033478 -0.5791232 15
1.01053 -4.5431938 -0.40719163 24
1.0019627 -4.515831 -0.24242018 8
0.95890075 -4.3324771 -0.077453777 11
1.1118306 -4.9375982 0.088344082 13
0.95731491 -4.2618098 0.22891749 38
1.0420619 -4.6504745 0.41695309 15
1.8774699 -8.4062071 1.0575823 25
0.9304471 -4.1762724 0.67767417 7
0.88124824 -3.9652271 0.78956765 11
0.94616109 -4.2713838 1.0100303 37
1.0941325 -4.9516706 1.3588001 9
0.60387582 -2.7649875 -0.75833982 29
0.66286415 -3.0427206 -0.7189436 11
0.74647343 -3.4380472 -0.68385947 27
0.84920174 -3.921087 -0.63543689 16
1.0017939 -4.6373982 -0.58253551 19
1.2039303 -5.5920181 -0.50044823 9
0.95820194 -4.4620113 -0.23917533 38
0.95577514 -4.46209 -0.079652779 9
0.94272894 -4.3237453 0.077244349 7
0.93040568 -4.2779856 0.22944085 9
1.0374166 -4.7820745 0.42810899 10
1.8567045 -8.587594 1.0787874 7
0.8949191 -4.1496825 0.67235541 9
0.95415294 -4.4356165 0.88191921 51
1.0918993 -5.093256 1.2025884 40
0.91012841 -4.2562413 1.1662387 11
0.58615392 -2.7766967 -0.76041043 29
0.64441633 -3.0606225 -0.72209293 11
0.72930688 -3.4758391 -0.69034702 16
0.82828116 -3.9578557 -0.64044279 17
0.98115742 -4.7006321 -0.58960396 31
0.96808052 -4.6542268 -0.4159072 16
0.93027347 -4.4842372 -0.24001274 20
0.92135924 -4.4529881 -0.079373546 17
0.91664451 -4.3497882 0.077593401 11
0.91818279 -4.3684225 0.23394175 10
1.0085028 -4.8106499 0.43002641 20
1.5320314 -7.3334184 0.9198699 12
1.0025258 -4.8114018 0.778418 13
0.86604083 -4.1672974 0.82734787 10
0.86228251 -4.1638036 0.98168647 22
0.86358917 -4.181139 1.1439801 1
0.56752694 -2.7845068 -0.76144564 22
0.62419873 -3.0707755 -0.72344261 21
0.70307493 -3.471225 -0.68843889 22
0.79906547 -3.9557965 -0.63919127 17
0.94635659 -4.6976371 -0.58838522 35
0.94144589 -4.6901731 -0.41852185 4
0.9165867 -4.5787506 -0.24472295 6
0.89690447 -4.4926491 -0.079966925 21
0.90778345 -4.4618979 0.079478264 11
0.88091129 -4.3414502 0.23216233 27
0.96106315 -4.7492256 0.42392552 8
nan nan nan nan
1.4494728 -7.2080593 1.1644983 31
nan nan nan nan
0.85190368 -4.2633591 1.0037317 33
0.85325605 -4.2817955 1.169862 1
0.5491913 -2.7940876 -0.76299858 27
0.60424483 -3.0827081 -0.72524226 22
0.68333954 -3.499171 -0.69301832 9
0.77709377 -3.9903629 -0.64388436 14
0.91467386 -4.7099762 -0.58911645 21
0.91170818 -4.7122803 -0.41991636 9
0.89443642 -4.6360264 -0.24744442 16
0.85229528 -4.4300718 -0.078745253 34
0.85158736 -4.3405781 0.07720945 21
0.8501972 -4.3455343 0.23205765 31
0.94467121 -4.8418622 0.43159524 11
nan nan nan nan
1.4152795 -7.3013916 1.1779517 42
1.5082374 -7.8028245 1.5447898 21
0.93966997 -4.8796353 1.1472505 14
0.83645844 -4.355947 1.1884971 15
0.53003085 -2.7997518 -0.76351619 47
0.58632356 -3.1060004 -0.72974128 10
0.66687661 -3.5463037 -0.70141387 10
0.7568624 -4.0364628 -0.65045458 17
0.87994564 -4.7064905 -0.58789778 19
0.86565548 -4.6480169 -0.41364115 18
0.91419566 -4.922965 -0.26241252 15
0.82571667 -4.4595094 -0.079164118 40
0.82497746 -4.3660665 0.077558495 16
0.83278185 -4.4200597 0.23572117 15
0.94910407 -5.0519853 0.44972363 15
1.3503634 -7.2156024 0.90134573 13
1.3903621 -7.4509077 1.2004782 38
1.3948314 -7.4966221 1.4822044 21
0.79833162 -4.3074121 1.0113801 39
0.78110284 -4.2268033 1.1517448 20
0.51393282 -2.8223898 -0.76869255 27
0.56671393 -3.1215224 -0.73244065 11
0.64245188 -3.5528049 -0.70179552 15
0.73111761 -4.0552573 -0.65264469 14
0.84952551 -4.7261949 -0.58960396 21
0.84898508 -4.7422018 -0.42148519 16
0.81593364 -4.5713811 -0.24336222 24
0.79666537 -4.4769778 -0.079373546 16
0.82558328 -4.5428891 0.08059521 15
0.79691964 -4.398252 0.23425576 25
3.7572579 -20.79862 1.8490963 10
1.3119088 -7.2912798 0.90963286 28
1.3376137 -7.4565444 1.1998525 22
nan nan nan nan
0.77780956 -4.3665996 1.0239773 18
0.74110365 -4.1731882 1.135698 12
0.49588069 -2.8354242 -0.77128083 13
0.55227178 -3.1676381 -0.74233854 30
0.61998391 -3.5707438 -0.70446682 9
0.70413631 -4.068048 -0.65389615 14
0.82629848 -4.7887402 -0.59667236 20
0.82361799 -4.7931757 -0.42549434 14
0.78973198 -4.6104321 -0.24514163 4
0.76741034 -4.4942579 -0.079582974 32
0.76943755 -4.4086781 0.078116976 30
0.77201468 -4.4371595 0.23603518 19
1.2237366 -7.055306 0.62647545 1
1.287329 -7.4528389 0.92864448 28
1.2717819 -7.3858848 1.1870248 21
0.73402631 -4.2762513 0.8433758 10
0.73712838 -4.3123755 1.0100303 12
0.7249313 -4.2544365 1.1564035 27
0.47894952 -2.8559639 -0.77593952 19
0.53142959 -3.1791046 -0.74413812 26
0.59536308 -3.5769219 -0.70484847 15
0.68671137 -4.1391215 -0.66453367 14
0.80126733 -4.8453126 -0.60300958 24
1.0115422 -6.1434975 -0.54472339 19
1.1485808 -6.9986439 -0.37169001 2
0.73698473 -4.5054255 -0.079687685 13
0.76570415 -4.5756688 0.080979168 9
0.77749455 -4.6611156 0.24765378 18
1.3577758 -8.1662722 0.7242642 1
1.2469397 -7.5321484 0.93741906 13
1.2658563 -7.6713443 1.2314522 54
0.70511043 -4.2870827 0.84452063 5
0.69314772 -4.2327991 0.99023467 4
0.70641613 -4.3280325 1.1750386 16
0.46083671 -2.8706825 -0.7790454 18
0.5082987 -3.1769643 -0.74278843 13
0.57686245 -3.6217058 -0.71286243 9
0.65005666 -4.0950413 -0.656712 19
0.77486706 -4.8978453 -0.6088593 18
0.98211336 -6.2289639 -0.55169582 9
0.74758071 -4.7630725 -0.25267801 8
0.73672485 -4.7100039 -0.083213076 1
0.72678345 -4.5374627 0.080211259 19
0.71974683 -4.5086465 0.23928 18
1.1197873 -7.0382547 0.62351215 1
1.1859405 -7.4877329 0.93083817 33
1.2855732 -8.1443844 1.3059151 29
0.6769948 -4.3035374 0.84681034 6
0.74098426 -4.7264261 1.1045097 16
0.67439634 -4.3214064 1.1719327 33
0.44107753 -2.8757391 -0.77956301 27
0.48816797 -3.1939201 -0.74593776 18
0.55633539 -3.6527207 -0.71820509 12
0.63135624 -4.159914 -0.66641092 15
0.7453987 -4.9345412 -0.61275911 16
0.94038391 -6.2474895 -0.55274171 9
1.2211343 -8.1416349 -0.43145767 6
0.6914258 -4.6319656 -0.08174707 3
0.69981819 -4.5680013 0.080665022 17
0.70953768 -4.6476994 0.2463977 15
1.1879532 -7.8180542 0.69184226 10
nan nan nan nan
1.1573137 -7.6704893 1.2286365 31
0.64810008 -4.3159246 0.84833682 8
0.70969987 -4.7430477 1.1072092 17
nan nan nan nan
0.42513114 -2.9035242 -0.78629225 26
0.46951106 -3.2183805 -0.75088662 20
0.52800095 -3.6370869 -0.71438891 9
0.6082378 -4.205276 -0.67298114 15
0.71915448 -4.9905853 -0.61909634 20
0.92105347 -6.4154634 -0.56703526 12
1.0255824 -7.179163 -0.38006377 2
0.69284683 -4.8681951 -0.085830934 11
0.67860454 -4.645987 0.081956498 16
0.67966199 -4.6703277 0.24733976 21
1.2038959 -8.3031273 0.7340256 16
nan nan nan nan
1.1236917 -7.8172064 1.2508501 19
3.021733 -21.099775 4.1432266 45
0.68455499 -4.7979279 1.1189066 11
0.66932815 -4.7147408 1.275978 6
0.4040508 -2.9006813 -0.78473938 27
0.44837031 -3.231231 -0.75313616 27
0.50645769 -3.6639335 -0.71896833 10
0.58040762 -4.2151899 -0.67391974 16
0.68537426 -5.0033507 -0.62007129 16
0.88217014 -6.465167 -0.5708701 15
0.99336952 -7.3086791 -0.38655341 2
0.63714164 -4.7123985 -0.08300364 12
0.68636662 -4.9337277 0.086947888 15
0.69611013 -5.023035 0.265762 13
1.0808631 -7.8396115 0.69236517 18
1.0687634 -7.7819624 0.96447408 8
1.0819688 -7.9088321 1.2643036 14
2.9323344 -21.546383 4.2268009 39
0.64004833 -4.7214847 1.1000108 13
0.65764302 -4.8704314 1.3168714 15
0.38480443 -2.9071946 -0.78577471 22
0.42789418 -3.2458005 -0.75583559 23
0.48265284 -3.6810062 -0.72163963 9
0.55429119 -4.2446032 -0.67798704 18
0.6694786 -5.1476645 -0.63737667 14
0.85042685 -6.5658646 -0.57923704 15
1.131653 -8.7852583 -0.46421999 18
0.90248793 -7.0352702 -0.12380737 21
0.91753685 -6.9506335 0.12237628 14
0.92840505 -7.0614567 0.37326008 14
1.0753322 -8.2122583 0.72461283 8
1.0679889 -8.2006445 1.0154155 10
1.0750042 -8.2883959 1.3237487 3
2.852504 -22.083771 4.3283114 41
0.57830864 -4.4957275 1.0464724 6
0.62239927 -4.8653221 1.3142831 27
0.36593968 -2.9213114 -0.78888047 17
0.40305299 -3.2313049 -0.75178647 30
0.46097404 -3.7114823 -0.7269823 12
0.52635646 -4.2561188 -0.6792385 18
0.63764405 -5.1857076 -0.64152032 6
0.7963357 -6.5044031 -0.57331049 12
0.89999652 -7.383141 -0.38979825 11
0.88005525 -7.2617531 -0.12768181 11
0.87070119 -6.9606857 0.12244608 19
0.90228856 -7.2440052 0.38257587 12
1.0596044 -8.5557041 0.75424576 10
0.97302842 -7.8905263 0.97617352 2
0.99689543 -8.1190624 1.2955904 7
2.758214 -22.594238 4.4244795 42
0.57441896 -4.7259917 1.099111 16
0.59182113 -4.890543 1.3199772 27
0.34945276 -2.9525113 -0.79664505 18
0.38059309 -3.2301025 -0.75088662 27
0.43368149 -3.7029104 -0.72469258 18
0.49800286 -4.2714624 -0.68111575 16
0.60507739 -5.2135897 -0.64444512 14
0.76734591 -6.6523104 -0.58586085 18
0.8616454 -7.5043287 -0.3958692 11
0.85013413 -7.438437 -0.13068362 11
0.82958436 -7.0301442 0.12356304 19
0.87150162 -7.4187355 0.391473 15
5.3857765 -46.055038 4.0567513 25
0.90554386 -7.7906489 0.96301162 10
2.7370157 -23.655354 3.7716353 16
2.6668026 -23.15469 4.5305691 51
0.51836318 -4.5285325 1.0523212 30
0.56028855 -4.9175882 1.3261888 4
0.33011383 -2.9663992 -0.79975086 20
0.35910603 -3.2423654 -0.75313616 22
0.40824971 -3.7097509 -0.72545588 18
0.47096652 -4.3003626 -0.68518305 16
0.56995535 -5.2295275 -0.64590758 12
0.72774893 -6.7208915 -0.59143883 15
0.79853588 -7.4108734 -0.39063561 5
0.78603148 -7.3308578 -0.12869404 24
0.78776103 -7.1013522 0.1247149 21
0.82845449 -7.5040474 0.39565986 18
4.9566331 -45.113159 3.9706414 23
3.5137503 -32.187618 3.9756222 51
3.4861829 -32.090828 5.1125922 30
2.551301 -23.600206 4.6141434 7
0.52315271 -4.8711209 1.131054 4
0.51485825 -4.8176513 1.2982364 12
0.30979764 -2.9724741 -0.80078614 20
0.33907419 -3.2699919 -0.75898486 20
0.3863638 -3.751569 -0.7330882 13
0.44556364 -4.3487425 -0.692379 18
0.54571217 -5.3538456 -0.66077566 4
0.68823451 -6.7991514 -0.59788835 21
0.75898498 -7.5374875 -0.39702061 5
0.73184377 -7.3063211 -0.12817048 16
0.74105734 -7.1345248 0.12520356 21
0.78117961 -7.5593143 0.39827666 10
4.5486517 -44.242901 3.8911552 22
3.2950022 -32.270615 3.9829345 77
3.2688489 -32.181202 5.123229 46
3.2446749 -32.110424 6.2734184 41
0.48349077 -4.8184228 1.1180068 11
0.477759 -4.7865262 1.2889189 22
0.28829098 -2.9668736 -0.79871565 12
0.32167411 -3.328531 -0.77203208 11
0.36278829 -3.7815347 -0.73843086 18
0.41481817 -4.3478146 -0.69175333 20
0.51225948 -5.399025 -0.66589415 2
0.65364218 -6.94066 -0.60991585 15
0.74005127 -7.9025316 -0.41596621 14
0.69416761 -7.4546099 -0.13068362 16
0.7043348 -7.2748709 0.1275771 13
0.77662671 -8.0655766 0.42465398 8
4.1542015 -43.381088 3.8127151 20
3.0771444 -32.371876 3.9926836 77
3.049679 -32.262238 5.1326156 31
nan nan nan nan
0.45201293 -4.844965 1.1234057 17
0.46788666 -5.0436592 1.3572472 13
0.27017242 -2.9976747 -0.80648017 12
0.29877657 -3.3345773 -0.77293187 12
0.335684 -3.7761533 -0.73690438 34
0.38375899 -4.3427334 -0.69050181 16
0.47941908 -5.4578395 -0.67271888 4
0.62232715 -7.1275535 -0.62595254 9
nan nan nan nan
0.65514278 -7.6106911 -0.13333638 11
0.64494771 -7.1840096 0.12590165 19
0.76628351 -8.5860434 0.45176399 17
3.7781727 -42.585423 3.7403758 18
2.8569927 -32.459805 4.0009708 77
2.8374605 -32.432301 5.1563935 31
nan nan nan nan
0.42003056 -4.8595781 1.126105 11
0.40659183 -4.7426858 1.2754604 3
0.24971804 -3.0052636 -0.80803311 32
0.27757415 -3.3618298 -0.77878058 16
0.31318367 -3.8174841 -0.74453676 19
0.35836315 -4.3964353 -0.69863641 18
0.44434306 -5.4986472 -0.67734987 2
0.57829213 -7.2032204 -0.63222772 11
0.65087289 -8.1608505 -0.42905018 9
0.6046741 -7.6489682 -0.13392976 20
0.60908782 -7.3456688 0.12865914 26
0.89232332 -10.83039 0.56951994 8
3.4132977 -41.784679 3.6678624 17
2.6417599 -32.549725 4.0097451 78
2.6155233 -32.43708 5.1542034 31
2.5929222 -32.439442 6.3256998 57
0.37653103 -4.7419496 1.0982112 16
0.38143957 -4.8358593 1.2997893 21
0.23248741 -3.0492713 -0.81942111 8
0.25703895 -3.394732 -0.78597903 20
0.28623125 -3.8156621 -0.74377352 18
0.32912886 -4.418529 -0.70176506 20
0.40954018 -5.537179 -0.68173718 2
0.53264928 -7.270669 -0.6378057 17
0.74007374 -10.175121 -0.53466421 10
0.55317211 -7.6608849 -0.13406938 14
0.56051445 -7.3856335 0.12928744 16
0.819094 -10.86822 0.57119471 11
3.0684342 -41.00029 3.5970919 15
2.4223888 -32.674278 4.0229073 78
nan nan nan nan
2.3756309 -32.505291 6.3352408 57
2.3421559 -32.357971 7.4899707 100
0.35376233 -4.9231877 1.3225653 15
0.21092698 -3.0469656 -0.81838584 7
0.23319942 -3.3944995 -0.78552914 25
0.2618506 -3.8508658 -0.75026101 10
0.29880619 -4.4286032 -0.70301658 22
0.37259719 -5.5656519 -0.68490577 4
0.49320334 -7.4451809 -0.65279651 8
0.69940609 -10.642406 -0.55894804 14
0.51918912 -7.9638791 -0.13930511 8
0.51800877 -7.5210347 0.13159114 22
0.76035976 -11.124743 0.58438331 8
2.7322452 -40.285217 3.5325963 14
2.1999366 -32.775558 4.0333881 78
nan nan nan nan
2.1548598 -32.615116 6.3535581 14
2.1230657 -32.478542 7.514266 84
0.31413323 -4.8445692 1.3008245 12
0.18929088 -3.0425794 -0.81683296 8
0.21201538 -3.4368908 -0.79497707 33
0.23352644 -3.8290849 -0.74568158 19
0.27014655 -4.4680448 -0.70896107 18
0.33943394 -5.6632304 -0.69660521 11
0.44569111 -7.5240207 -0.65942037 17
0.63328522 -10.786598 -0.56627512 17
0.46915355 -8.0631323 -0.14098054 15
0.46623027 -7.5364428 0.13180058 27
nan nan nan nan
2.406918 -39.579418 3.469147 13
1.9766649 -32.883251 4.0448442 78
nan nan nan nan
0.29886541 -5.0603046 0.98533767 12
1.9000176 -32.55677 7.5291123 63
0.28465486 -4.9218607 1.3210124 15
0.16942945 -3.0689025 -0.82356226 11
0.18695296 -3.4188287 -0.79047805 26
0.20922275 -3.875711 -0.75445884 16
0.2398967 -4.4875746 -0.71177691 24
0.30408609 -5.7447557 -0.7063548 2
0.39294663 -7.5229692 -0.65907168 11
0.56188428 -10.86655 -0.57025266 21
0.42113036 -8.2279758 -0.14380784 6
0.4248867 -7.7451735 0.13539577 27
2.3632774 -43.496067 2.2828946 42
2.0925395 -38.888985 3.4072666 13
1.7504172 -32.959682 4.0526433 78
nan nan nan nan
1.6966181 -32.591045 6.3436365 86
0.25757468 -5.0152936 1.1593978 3
0.25273934 -4.9719625 1.3339534 16
0.14902361 -3.0912364 -0.8292563 12
0.16410147 -3.4414625 -0.79542702 17
0.18381861 -3.9123769 -0.76132792 15
0.21002848 -4.5207124 -0.71678281 22
0.26634169 -5.798296 -0.71269196 2
0.34444073 -7.5851803 -0.66430104 5
0.4842262 -10.830303 -0.56815922 14
0.47145855 -10.669962 -0.18642659 24
0.3733868 -7.8018808 0.1363382 21
nan nan nan nan
1.7898771 -38.237911 3.3490465 12
1.5249398 -33.072235 4.0650744 79
1.5042933 -32.999962 5.2321081 48
1.4735557 -32.702126 6.3630991 87
1.4589318 -32.758984 7.5705037 43
nan nan nan nan
0.12815502 -3.1095734 -0.833915 13
0.14133914 -3.4736781 -0.80262542 23
0.15679009 -3.903729 -0.75941986 12
0.18120864 -4.571383 -0.72460455 17
0.22701479 -5.8297682 -0.71634805 6
0.29606771 -7.7068553 -0.67475975 5
0.42244279 -11.148689 -0.58469737 17
0.40810639 -10.972741 -0.19166233 25
0.32658598 -7.9580889 0.13902587 17
1.5201459 -37.521683 1.9680414 61
1.496567 -37.588524 3.2911751 12
1.3031396 -33.167137 4.0755548 79
1.2827715 -33.090363 5.244935 16
1.2502233 -32.84306 6.3886671 43
1.234074 -32.871578 7.5943484 21
0.18280511 -4.9382944 1.3241183 1
0.10731824 -3.1200273 -0.83650321 26
0.11703195 -3.4550836 -0.7981264 15
0.13103022 -3.9498582 -0.768197 17
0.15083699 -4.6199198 -0.73211342 19
0.18949458 -5.8986363 -0.72463518 2
0.24469812 -7.7863984 -0.68155789 5
0.35064828 -11.347004 -0.59495521 10
0.32685137 -10.759398 -0.18789262 24
0.28326899 -8.319911 0.14530873 19
1.2626417 -37.665127 1.9750546 61
1.2395623 -37.563988 3.2882116 63
1.075018 -33.28257 4.088717 80
nan nan nan nan
1.0352237 -33.125523 6.4420934 15
0.14639871 -4.7916651 1.1067592 16
0.14026555 -4.6710439 1.2521666 12
0.085216157 -3.1091139 -0.83339739 27
0.094007879 -3.4967253 -0.80757433 22
0.10427456 -3.9820781 -0.7743029 19
0.11959426 -4.6603551 -0.73837078 17
0.14945708 -5.9454584 -0.73024112 13
0.19174454 -7.8456798 -0.6866129 8
0.27858549 -11.648678 -0.61065596 21
0.2522898 -10.785407 -0.18831147 28
0.28808525 -10.646482 0.18590303 22
1.2932736 -48.737938 2.5551462 51
0.98008806 -37.679279 3.2976246 50
0.84505475 -33.384514 4.1004162 80
nan nan nan nan
0.84532797 -34.837509 6.7737193 17
0.77930677 -33.068733 7.6366391 100
0.10734057 -4.65839 1.2485431 33
0.063943021 -3.1308784 -0.83909136 43
0.069865242 -3.5109346 -0.81072366 24
0.07703723 -4.0121527 -0.78002721 30
0.087055936 -4.6610765 -0.73837078 17
0.10834336 -5.9681897 -0.73292232 16
0.14114664 -8.0061684 -0.70055783 5
0.1992843 -11.770158 -0.61693627 29
0.17833234 -10.868882 -0.18974257 21
0.21543866 -10.732203 0.18736903 24
nan nan nan nan
0.72986621 -38.3605 3.3567162 12
0.61385792 -33.492809 4.1130905 81
nan nan nan nan
0.59782583 -34.59523 6.7256355 17
0.5560289 -33.182388 7.6618333 100
0.07556127 -4.7053843 1.2609664 9
0.042187657 -3.1389756 -0.84116197 51
0.045428939 -3.5171828 -0.81207335 17
0.050188243 -4.0498834 -0.787278 19
0.055959888 -4.7148919 -0.74681824 24
0.067584001 -6.0501838 -0.74291557 2
0.086543538 -8.1284895 -0.71119088 2
0.12068034 -11.921028 -0.62478673 21
0.1037116 -11.003836 -0.19208118 36
0.14328356 -10.801405 0.18855581 24
nan nan nan nan
0.4511247 -37.458191 3.2774043 12
0.3870123 -33.595463 4.1252775 81
nan nan nan nan
0.35277343 -34.256973 6.659234 16
0.32520065 -33.271206 7.6816292 90
0.044138495 -4.7714696 1.2785661 46
0.020769056 -3.1314626 -0.83909136 35
0.021677179 -3.5485897 -0.8192718 20
0.022030829 -4.0717301 -0.79147577 17
0.023670411 -4.8435664 -0.76715469 20
0.025619231 -6.1160159 -0.75095892 4
0.030217415 -8.2444525 -0.7213009 2
0.038199611 -12.159253 -0.63724267 15
0.027016174 -11.056283 -0.19298871 29
0.068539254 -10.908124 0.19040576 33
nan nan nan nan
0.19397403 -37.045986 3.2411478 12
0.15294875 -33.704536 4.1384392 81
nan nan nan nan
0.11126232 -33.551834 6.5218515 93
0.093209781 -33.377892 7.7059236 90
0.011444902 -5.0440516 1.3515531 15
-0.0016407158 -3.1334631 -0.83960903 28
-0.0037262777 -3.5583978 -0.82152128 11
-0.0064049936 -4.0776744 -0.7926206 17
-0.011114864 -4.898922 -0.77591503 19
-0.017322404 -6.2033901 -0.76168346 4
-0.027643388 -8.336112 -0.72931921 3
-0.049098145 -12.231116 -0.64101082 15
-0.052139651 -11.490132 -0.20056306 22
-0.00765596 -10.966328 0.19141799 17
-0.047477748 -34.007298 1.7822487 46
-0.065797344 -34.271027 2.9983318 11
-0.082628645 -33.815952 4.1520891 68
-0.10593244 -33.719517 5.3406734 17
-0.12330335 -33.642105 6.5394063 94
-0.14028358 -33.490757 7.732018 100
-0.023252558 -4.7580938 1.2749426 4
-0.023443509 -3.1237164 -0.83702081 33
-0.02878752 -3.5855663 -0.82781988 15
-0.036029432 -4.1285667 -0.80254269 16
-0.045425147 -4.9105763 -0.77779222 30
-0.061173044 -6.258697 -0.76850814 2
-0.08711075 -8.4592381 -0.74012655 3
-0.13808776 -12.558006 -0.65817702 15
-0.13802104 -11.98138 -0.20914963 7
-0.087431215 -11.131962 0.19431511 21
-0.28579584 -34.113987 1.7879012 47
-0.30286318 -34.024677 2.9768915 55
-0.32567093 -33.925652 4.1657386 68
nan nan nan nan
-0.35902342 -33.720909 6.5550523 78
-0.37513456 -33.582497 7.7536135 92
-0.056423899 -4.7539525 1.2739074 12
-0.046117723 -3.1833577 -0.85306764 30
-0.053759865 -3.5813811 -0.82692009 24
-0.064069435 -4.1242995 -0.80177945 24
-0.079863764 -4.9733577 -0.78780407 19
-0.1059963 -6.3256011 -0.77679521 2
-0.14788644 -8.5580273 -0.74884212 3
-0.22534057 -12.656623 -0.66341066 19
-0.22218141 -12.008117 -0.20963831 15
-0.16648559 -11.35505 0.19822444 19
-0.26450223 -17.418085 0.91294849 14
-0.54210156 -34.129311 2.9863043 66
-0.55814743 -34.017918 4.1774373 82
nan nan nan nan
-0.59612274 -33.813766 6.5737524 95
-0.61190987 -33.707653 7.7833071 100
nan nan nan nan
-0.068032295 -3.1945584 -0.8561734 22
-0.078689009 -3.6062596 -0.83276886 17
-0.093921676 -4.1708584 -0.81093824 19
-0.11576553 -5.024025 -0.79593867 7
-0.15026616 -6.3763313 -0.78313243 11
-0.21016534 -8.7241354 -0.7634843 3
-0.31963426 -12.894339 -0.67597127 16
-0.32450637 -12.819941 -0.22384456 8
-0.25029716 -11.563531 0.20188944 15
-0.38069433 -17.172209 0.90017855 28
-0.77737951 -34.256294 2.9978087 67
-0.79226792 -34.124466 4.1910872 69
-0.81327623 -34.006268 5.3876038 34
-0.82915038 -33.926685 6.5966492 96
-0.84366721 -33.796219 7.8049026 100
-0.85876971 -33.694073 9.0312319 24
-0.089992166 -3.201746 -0.858244 27
-0.10407042 -3.6348598 -0.83951735 16
-0.12225214 -4.16816 -0.81055665 21
-0.15508874 -5.1949015 -0.8231582 5
-0.19565415 -6.4406385 -0.79117584 2
-0.27151316 -8.7862282 -0.76906228 3
-0.41117948 -13.011639 -0.68225157 28
-0.54197204 -16.870726 -0.29463151 26
-0.3392975 -11.923357 0.2082072 15
-0.49577966 -17.10733 0.89693367 13
-1.0138277 -34.361736 3.0075705 67
-1.0269707 -34.199635 4.2010803 41
-1.048974 -34.138153 5.4095044 35
-1.0633748 -34.026218 6.6172562 97
-1.0774052 -33.906559 7.8318963 100
nan nan nan nan
-0.11239012 -3.218435 -0.8629027 25
-0.12929253 -3.6476998 -0.84266675 17
-0.15125884 -4.1848888 -0.81399125 19
-0.19196527 -5.2351809 -0.82972854 5
-0.21455145 -5.7686601 -0.70879221 56
-0.33646712 -8.8796844 -0.77742916 3
-0.50587124 -13.168203 -0.69062537 16
-0.65905154 -16.924593 -0.29564378 26
-0.42552307 -12.064659 0.21072036 15
-0.61306971 -17.127512 0.89818978 13
-1.2515984 -34.461555 3.016983 56
-1.2726765 -34.380089 4.2242355 42
nan nan nan nan
-1.2998101 -34.145714 6.6420612 81
-1.3181635 -34.003361 7.8561907 100
nan nan nan nan
-0.13598886 -3.2445943 -0.87014967 13
-0.15525088 -3.65839 -0.84536612 16
-0.18343253 -4.2523813 -0.82734787 19
-0.23006003 -5.2692366 -0.83536011 5
-0.2546438 -5.7630553 -0.7083047 38
-0.25765228 -5.7402716 -0.50271428 62
-0.59199023 -13.036656 -0.68392634 12
-0.77920818 -16.963528 -0.29641169 39
-0.71035981 -16.808434 0.29365417 12
-0.74551934 -17.424126 0.91399521 14
-1.4976727 -34.579376 3.0281391 68
-1.5125722 -34.368382 4.2239914 14
nan nan nan nan
-1.543547 -34.255444 6.6653404 99
-1.5616621 -34.127651 7.8872342 72
-1.5737053 -34.000896 9.120266 25
-0.15854232 -3.241636 -0.86963201 15
-0.1818454 -3.6786273 -0.85031503 12
-0.21586664 -4.3058991 -0.83803314 19
-0.26863891 -5.3030128 -0.8409918 5
-0.29476985 -5.7591553 -0.70806098 47
-0.29792711 -5.7423129 -0.50306296 68
-0.71068883 -13.560755 -0.71166438 4
-0.90300769 -17.059515 -0.29819182 19
-0.82807899 -16.811056 0.29379383 38
-0.86287427 -17.332718 0.90949428 9
-1.745252 -34.691444 3.0389462 68
-1.7669327 -34.640484 4.2588468 14
-1.7775522 -34.49369 5.4705138 18
-1.7881649 -34.349705 6.6859474 99
-1.80604 -34.232681 7.9142289 49
-1.8167901 -34.097115 9.1492538 25
-0.18246302 -3.2635963 -0.87584364 30
-0.20884024 -3.7006159 -0.85571384 12
-0.24637017 -4.3121271 -0.83955961 22
-0.31020212 -5.3798919 -0.85350657 5
-0.33439121 -5.7470474 -0.70684224 42
-0.33847654 -5.7480488 -0.50376016 53
-0.37442136 -6.3022237 -0.33086795 2
-1.042542 -17.394131 -0.30416057 42
-0.95553118 -16.984552 0.29693523 17
-1.9809607 -34.885849 1.8312353 25
-1.9946932 -34.805721 3.0501025 57
nan nan nan nan
-2.0184357 -34.482414 5.4708266 18
-2.0357985 -34.469654 6.7118979 100
-2.0547504 -34.382645 7.9520206 74
nan nan nan nan
-0.20645578 -3.2815235 -0.88102001 27
-0.23553351 -3.7126813 -0.85886317 22
-0.27734816 -4.3240166 -0.84223092 21
-0.35106769 -5.4288487 -0.86164117 5
-0.37437588 -5.7425923 -0.70659852 45
-0.37798578 -5.7515759 -0.50428313 62
-0.42741013 -6.4349709 -0.33798563 2
-1.2438246 -18.579576 -0.32503361 8
-1.0759742 -17.007402 0.29745883 39
-2.2328534 -35.00272 1.8381436 51
-2.2460744 -34.922176 3.0616069 57
-2.2617548 -34.786758 4.2802954 14
-2.2596364 -34.475372 5.4720783 36
-2.2853229 -34.589771 6.7382293 100
-2.2971513 -34.494247 7.9812641 25
-2.3130479 -34.371037 9.2305231 26
-0.2286863 -3.2703664 -0.87843186 26
-0.26309067 -3.7342739 -0.86426204 28
-0.30983195 -4.3651118 -0.85062653 19
-0.38927999 -5.4440665 -0.86445701 16
-0.4141717 -5.7358789 -0.70611101 45
-0.41740751 -5.7388616 -0.50341159 59
-0.43384349 -5.9219809 -0.31118962 2
-1.4674582 -19.840776 -0.34726799 18
-1.2016419 -17.141317 0.29993707 40
-2.479919 -35.112228 1.8447379 77
-2.4983237 -35.024883 3.0720656 58
nan nan nan nan
-2.5028028 -34.5774 5.4908504 36
-2.5360508 -34.700245 6.7630343 100
nan nan nan nan
-2.5438087 -34.312115 9.2191353 26
-0.25449032 -3.3149626 -0.89085519 11
-0.28760144 -3.7207386 -0.86156261 33
-0.34197798 -4.3843727 -0.8548243 15
-0.43624651 -5.5554357 -0.88260335 2
-0.45351726 -5.7368846 -0.70659852 45
-0.45619494 -5.7199187 -0.50201708 46
-0.57874638 -7.2088814 -0.37901706 2
-1.687682 -20.884731 -0.36573264 22
-1.3458835 -17.451513 0.30552182 27
-2.7356524 -35.231457 1.8519603 78
-2.7472322 -35.142136 3.0839188 46
-2.765202 -35.057022 4.317831 14
-2.7550831 -34.69693 5.5127511 18
-2.7823532 -34.809387 6.7878394 100
nan nan nan nan
-2.7856345 -34.322399 9.2268991 26
-0.27649772 -3.2996294 -0.88723171 30
-0.31193265 -3.6992218 -0.85706359 22
-0.38006318 -4.4699078 -0.87199712 8
-0.4773775 -5.5798092 -0.88698351 2
-0.49372745 -5.7355566 -0.70684224 38
-0.49714926 -5.7285042 -0.50306296 53
-0.63600785 -7.2842531 -0.38320392 2
-2.9865599 -33.999882 -0.59575534 39
-1.4846206 -17.64295 0.30904719 19
-2.9933436 -35.350811 1.8592874 52
-3.0043395 -35.261066 3.0961206 47
-3.0166712 -35.115978 4.3275809 43
-3.0344908 -35.107849 5.5812693 18
-3.0355058 -34.906464 6.8107362 87
-3.051713 -34.811302 8.0676451 25
-3.0380764 -34.448368 9.2662401 26
-0.30109909 -3.314934 -0.89189047 30
-0.34555158 -3.7823429 -0.87685931 16
-0.41683814 -4.52775 -0.88382733 11
-0.52032638 -5.6196141 -0.89386666 3
-0.53173256 -5.710228 -0.70416111 47
-0.53712964 -5.7248936 -0.50306296 56
-0.72436839 -7.6773205 -0.4041383 2
-3.2317841 -34.061817 -0.59722137 78
-1.806226 -19.808794 0.34719819 11
-3.2531993 -35.472252 1.8668238 79
-3.2632446 -35.378109 3.1083224 58
nan nan nan nan
-3.2881565 -35.178253 5.5959744 38
-3.2927132 -35.029068 6.8389764 88
nan nan nan nan
-3.3099942 -34.757103 9.3552732 27
-0.32987937 -3.3704312 -0.90741962 16
-0.37691027 -3.8302622 -0.88855672 15
-0.45114839 -4.5520811 -0.88916999 16
-0.56698769 -5.6905394 -0.9057557 21
-0.57178169 -5.7083521 -0.70440483 49
-0.57628334 -5.7130752 -0.50236571 53
nan nan nan nan
-3.4784238 -34.125957 -0.59875721 39
-3.5075583 -35.708679 0.62629706 25
-3.5133209 -35.575878 1.8735226 53
-3.5258944 -35.513077 3.1222672 47
nan nan nan nan
nan nan nan nan
-3.5529723 -35.161491 6.8695059 89
-3.568038 -35.065804 8.1373806 26
-3.5678961 -34.883049 9.395649 27
-0.35723171 -3.4045508 -0.91725475 17
-0.40466279 -3.8372276 -0.89080626 19
-0.48167336 -4.537107 -0.88688028 24
-0.60774916 -5.6962633 -0.90732002 39
-0.61140722 -5.7022471 -0.70416111 47
-0.61551201 -5.7029705 -0.50184274 43
-0.895666 -8.258173 -0.43533054 3
-3.7300162 -34.224094 -0.60092127 39
-3.7716279 -35.82452 0.6287753 64
-3.7771535 -35.697464 1.8812685 54
-3.7859564 -35.602509 3.1323774 47
nan nan nan nan
-3.8185146 -35.496189 5.6544805 19
-3.8143954 -35.284172 6.898509 90
-3.8194981 -35.102032 8.1517773 79
-3.8243535 -34.976357 9.427743 28
-0.38185132 -3.4096534 -0.91932529 15
-0.43449241 -3.8614199 -0.89710486 19
-0.51642895 -4.5609446 -0.89222288 18
-0.64660865 -5.6840305 -0.9060685 36
-0.65300483 -5.7136178 -0.70611101 45
-0.6550836 -5.6965547 -0.50166845 46
-1.0028059 -8.680275 -0.45793965 3
-3.9992769 -34.459423 -0.60552871 40
-4.0379357 -35.942387 0.6313234 78
-4.0450897 -35.836933 1.8900609 55
-4.0519276 -35.729626 3.1459734 47
nan nan nan nan
-4.0718565 -35.517727 5.662303 39
-4.075458 -35.38541 6.923696 91
-4.7017579 -40.574085 9.4299488 39
-4.084971 -35.090801 9.4660482 28
-0.40541744 -3.4049861 -0.91880763 25
-0.46259668 -3.8679671 -0.89935434 15
-0.56748611 -4.7170625 -0.92351556 15
-0.7073648 -5.8539171 -0.93391389 3
-0.69335508 -5.7128611 -0.70659852 42
-0.69360268 -5.6899858 -0.50149411 43
nan nan nan nan
-4.2651687 -34.637074 -0.60915881 41
-4.3046451 -36.046356 0.63366199 65
-4.3137293 -35.962498 1.8982253 55
-4.3198538 -35.854755 3.15957 48
-4.3344622 -35.765747 4.4236135 14
-4.336894 -35.629616 5.6848288 39
-4.3395443 -35.496403 6.9511719 74
nan nan nan nan
-4.3473725 -35.203308 9.5043526 28
-0.43087059 -3.4154894 -0.92243111 18
-0.49424234 -3.901376 -0.90790254 25
-0.60428852 -4.7500944 -0.93076634 18
-0.75921011 -5.9430203 -0.94893163 3
-1.008148 -7.8480911 -0.97154254 18
-0.73407334 -5.6909332 -0.50201708 46
-1.2814504 -9.8936672 -0.52283627 3
-4.6112075 -35.407562 -0.62326032 43
-4.57196 -36.1908 0.63673359 65
-4.5737524 -36.053169 1.9046103 84
-4.5879593 -35.964046 3.171946 36
nan nan nan nan
-4.593935 -35.71291 5.7029753 39
-4.6078968 -35.624897 6.9824648 75
nan nan nan nan
-4.6083741 -35.337646 9.5488701 29
-0.46022514 -3.458437 -0.93485445 22
-0.52362508 -3.9191689 -0.91285139 22
-0.65390021 -4.8683443 -0.95480824 18
-0.80675268 -5.9826016 -0.95612758 3
-1.0761926 -7.9492407 -0.98494816 7
-1.545855 -11.373584 -1.0042084 16
-3.2295499 -23.637657 -1.2503061 11
-5.0118885 -36.540264 -0.64378434 46
-5.2688222 -39.487976 0.69537371 14
-4.8452287 -36.168831 1.9124608 56
-4.856554 -36.109699 3.187634 36
nan nan nan nan
-4.8628035 -35.824814 5.7261276 40
-4.8714843 -35.748333 7.0129943 94
nan nan nan nan
-4.877068 -35.465374 9.5923519 29
-0.48569888 -3.4647055 -0.93744266 21
-0.55260205 -3.9269962 -0.91555083 16
-0.6886704 -4.8754439 -0.95709801 26
-0.86520422 -6.1021433 -0.97615117 3
-1.1568655 -8.1184044 -1.0068846 5
-1.6398882 -11.465075 -1.0132726 16
-3.4772243 -24.220085 -1.2823358 12
-5.2805734 -36.599392 -0.64545977 93
-5.5541596 -39.570019 0.69746798 14
-5.1169424 -36.316959 1.9220905 57
-5.1269627 -36.205116 3.1991386 36
-5.1348968 -36.124863 4.4801612 45
-5.1283064 -35.943424 5.7505317 40
-5.1426711 -35.865028 7.0427599 76
-5.1488299 -35.774662 8.3443346 28
-5.1363139 -35.555637 9.6259985 29
-0.51292688 -3.4861658 -0.94417191 23
-0.58358979 -3.9520617 -0.92229944 16
-0.72614747 -4.8938217 -0.96167743 16
-0.91534895 -6.1467543 -0.98428577 3
-1.2323447 -8.2458096 -1.0237026 5
-1.7775868 -11.851658 -1.0484836 11
-3.7295601 -24.748207 -1.3116438 12
-5.5693412 -36.825569 -0.65010214 95
-5.8536172 -39.688541 0.70026034 14
-5.3931689 -36.43446 1.9302548 58
-5.393486 -36.305363 3.2111661 36
-5.4101191 -36.24324 4.4994164 45
-5.4072051 -36.094288 5.7805672 40
-5.4073973 -35.967041 7.0698552 57
-5.4151902 -35.891018 8.3798771 28
-5.4052577 -35.656437 9.6632681 30
-0.54137605 -3.5092294 -0.95141882 16
-0.62577403 -4.0422554 -0.94434464 13
-0.7684828 -4.9469652 -0.97312593 6
-0.97390038 -6.2477307 -1.0014936 3
-1.3098428 -8.3644819 -1.0395457 2
-1.8822421 -11.978704 -1.0608597 11
-4.2152143 -26.734594 -1.4184092 14
-5.8419371 -36.884544 -0.65184742 95
-5.6755438 -36.746628 0.64902014 13
-5.6667371 -36.562698 1.9390475 58
-5.6796117 -36.47747 3.2298176 24
nan nan nan nan
-5.6760182 -36.204964 5.8043447 41
-5.6910443 -36.135925 7.1106887 58
nan nan nan nan
-5.6771808 -35.803898 9.713479 30
-0.5686326 -3.5264425 -0.95711285 21
-0.65794235 -4.0667582 -0.95109314 14
-0.81150275 -4.9938011 -0.98342961 4
-1.0298902 -6.3168149 -1.0136955 3
-1.3917435 -8.5081797 -1.0585573 7
-2.0491564 -12.472508 -1.1058321 12
nan nan nan nan
-6.1254892 -37.041214 -0.65533787 97
-5.9316258 -36.704132 0.64898515 26
-5.9461498 -36.672081 1.9470025 59
-5.9376884 -36.498932 3.2352211 12
-5.9576516 -36.461025 4.536221 15
-5.9541993 -36.3204 5.8293743 41
-5.9646025 -36.264889 7.1438894 59
-5.9605613 -36.083008 8.4433136 87
-5.9535317 -35.923477 9.7569609 30
-0.59772974 -3.549057 -0.96435976 18
-0.69053805 -4.0870452 -0.95694184 17
-0.8581689 -5.0576949 -0.99716789 6
-1.084571 -6.3717871 -1.0237073 3
-1.4724896 -8.6234884 -1.0741564 2
-2.1890466 -12.766204 -1.133199 18
nan nan nan nan
-6.4097786 -37.147312 -0.65799063 97
-6.2296491 -36.910278 0.65338326 40
-6.2286983 -36.787212 1.9553763 60
-6.242733 -36.753185 3.2615421 12
-6.2113853 -36.414635 4.5357337 30
-6.2356052 -36.441509 5.8556557 42
-6.7364292 -39.244762 7.7399769 24
-6.2480736 -36.247921 8.4919024 88
nan nan nan nan
-0.62483084 -3.5581169 -0.96798331 16
-0.72919595 -4.1397004 -0.9704389 14
-0.89892823 -5.0825129 -1.0032737 4
-1.1473161 -6.4671454 -1.0402893 3
-1.5601315 -8.767395 -1.0934118 5
-2.3497591 -13.164863 -1.1699786 6
nan nan nan nan
-6.7029161 -37.2906 -0.66134149 98
-6.5235677 -37.072678 0.65704823 54
-6.5190358 -36.933617 1.9655294 61
-6.5227823 -36.842121 3.2733953 12
-6.4849081 -36.479832 4.5493832 46
-6.518991 -36.56044 5.8819366 42
nan nan nan nan
-6.4788289 -36.116318 8.4712076 87
nan nan nan nan
-0.65521443 -3.5840735 -0.97626543 23
-0.76932466 -4.1958461 -0.9848358 16
-0.94273448 -5.1264791 -1.0131959 4
-1.2006248 -6.5096941 -1.0484239 3
-1.6502146 -8.9124432 -1.1129109 5
nan nan nan nan
nan nan nan nan
-6.996901 -37.423737 -0.66455275 99
-6.8103132 -37.216248 0.66039902 55
-6.8034582 -37.069115 1.9751592 30
-6.8094296 -36.956352 3.2876887 37
-6.7626486 -36.594913 4.5693698 46
-6.8015327 -36.697796 5.9113464 42
-7.1278605 -38.309208 7.5743546 22
-6.7962275 -36.420776 8.5535393 30
nan nan nan nan
-0.68464005 -3.606102 -0.9835124 26
-0.79458678 -4.1732831 -0.98078662 16
-0.98439789 -5.1506262 -1.0193018 4
-1.2661213 -6.605917 -1.0653188 3
-1.738193 -9.0433121 -1.1307039 2
-2.733382 -14.167617 -1.2623638 6
nan nan nan nan
-7.2899389 -37.573517 -0.66807812 100
-7.1028495 -37.340672 0.66347069 55
-7.0950084 -37.193363 1.9843702 31
-7.0945144 -37.085274 3.3033767 37
-7.0954504 -36.950348 4.6198235 47
-7.090064 -36.818176 5.9385657 43
-7.3140035 -37.874275 7.4980307 22
-7.0929732 -36.592453 8.605278 60
nan nan nan nan
-0.70979828 -3.6012344 -0.9835124 27
-0.82483542 -4.1733694 -0.98213637 14
-1.0317923 -5.2014008 -1.0307503 6
-1.3276234 -6.6744132 -1.0778337 3
-1.8331248 -9.1905899 -1.1506904 2
-2.8854113 -14.413882 -1.2860701 7
-7.6132622 -37.928364 -2.0273905 26
nan nan nan nan
-7.4005523 -37.478508 0.66682154 55
-7.3944521 -37.344723 1.9951515 31
-7.3920469 -37.230263 3.3208079 38
-7.3897066 -37.082912 4.6427345 47
-7.3879552 -36.973114 5.9717302 43
-7.3957968 -36.91177 7.3175254 84
-7.3805261 -36.702526 8.6430702 61
nan nan nan nan
-0.73956352 -3.6189041 -0.98972404 27
-0.86451238 -4.2190542 -0.99428368 17
-1.0751969 -5.2286844 -1.0376194 13
-1.3925364 -6.7539778 -1.0922256 3
-1.9185417 -9.2805986 -1.1636086 2
nan nan nan nan
-7.9059258 -38.009212 -2.0346129 26
-7.917531 -37.965294 -0.67694396 51
-7.7045345 -37.633591 0.67052144 14
-7.6907301 -37.466316 2.0044675 32
-7.6903419 -37.365093 3.3375421 38
-7.6849499 -37.207333 4.6649156 48
-7.6799412 -37.085052 5.9983239 22
-7.6800508 -36.988026 7.3430939 63
-7.6691051 -36.838406 8.6871595 62
nan nan nan nan
-0.77361035 -3.6552327 -1.0011121 35
-0.90486729 -4.2643857 -1.006431 26
-1.1205664 -5.2673316 -1.0467782 4
-1.4570187 -6.8312793 -1.1063046 2
-2.0165184 -9.4222708 -1.1831076 2
nan nan nan nan
-8.2052059 -38.143917 -2.0447662 26
nan nan nan nan
nan nan nan nan
-7.9899683 -37.622143 2.0156672 64
-7.9892154 -37.489765 3.3535786 38
-7.9786806 -37.344406 4.6888018 48
-7.9719129 -37.21735 6.0283594 22
-7.9793382 -37.12545 7.3812556 64
-7.9655013 -36.96685 8.7303505 63
nan nan nan nan
-0.7959953 -3.6385591 -0.99800628 28
-0.93804741 -4.2771635 -1.0109302 33
-1.1678598 -5.3073149 -1.0563186 4
-1.5216949 -6.8981013 -1.1188195 2
-2.1097558 -9.5401278 -1.199682 2
nan nan nan nan
-8.5155287 -38.284565 -2.0554426 54
-8.5142193 -38.184322 -0.68287778 52
-8.3108578 -37.926174 0.67771184 56
-8.2892799 -37.733208 2.0246689 32
-8.2793493 -37.59407 3.3678722 13
-8.2820301 -37.481628 4.7131758 48
-8.2751198 -37.357506 6.0602717 22
-8.2744188 -37.261936 7.4194174 64
-8.2700005 -37.119572 8.7798405 63
nan nan nan nan
-0.825212 -3.6498718 -1.002665 26
-0.96616173 -4.262908 -1.0091305 28
-1.2170711 -5.3526359 -1.067004 2
-1.5926421 -6.9874611 -1.1350887 2
-2.2161 -9.6993361 -1.2216184 2
nan nan nan nan
-8.8219509 -38.395481 -2.0646536 27
-8.8326464 -38.349998 -0.68692672 53
-8.620472 -38.066166 0.68127215 57
-8.6007004 -37.886723 2.0360782 33
nan nan nan nan
-8.5912113 -37.631912 4.7394996 49
-8.5802259 -37.493313 6.0918717 45
-8.5760508 -37.385048 7.4556708 65
-8.5700245 -37.239449 8.8221312 64
nan nan nan nan
-0.85242951 -3.651547 -1.0047356 20
-1.016323 -4.3433433 -1.0298259 17
-1.2750474 -5.4319286 -1.0845585 2
-1.6545051 -7.0319347 -1.1441618 2
-2.3179336 -9.828536 -1.2398988 2
-3.9307961 -16.628448 -1.4948952 8
-7.4354219 -31.356258 -1.6888814 18
nan nan nan nan
-8.9301748 -38.193932 0.68465793 43
-8.910099 -38.018265 2.0464408 67
-8.916441 -37.955826 3.4111013 26
-8.8946962 -37.744911 4.761436 49
-8.8912668 -37.642048 6.1259747 46
-8.8829756 -37.519131 7.4945965 66
-8.8673992 -37.366066 8.8662214 65
nan nan nan nan
-0.89508808 -3.7168772 -1.0244058 15
-1.0534787 -4.3645577 -1.0365745 8
-1.3295337 -5.4956355 -1.0990598 2
-1.7270032 -7.1222568 -1.160744 2
-2.4193323 -9.947134 -1.2569605 2
nan nan nan nan
-7.62498 -31.207914 -1.6836479 18
-9.438632 -38.514271 -0.69216245 54
-9.2302389 -38.299446 0.68765968 43
-9.2160397 -38.152821 2.0570126 68
nan nan nan nan
-9.2001276 -37.884109 4.7867846 49
-9.1944628 -37.774509 6.1575742 46
-9.2019653 -37.690788 7.5415354 22
-9.174366 -37.492538 8.911212 66
nan nan nan nan
-0.94408584 -3.8063254 -1.0508054 9
-1.0925653 -4.3951097 -1.0455725 7
-1.3844914 -5.5528922 -1.1124165 2
-1.7972754 -7.1924343 -1.1741973 2
-2.5226703 -10.072933 -1.2749972 2
nan nan nan nan
-7.8621693 -31.231394 -1.6878346 18
nan nan nan nan
-9.5494528 -38.443668 0.69142944 43
-9.5342789 -38.296867 2.0683172 34
nan nan nan nan
-9.517396 -38.030785 4.8135958 50
-9.502161 -37.88567 6.186358 23
-9.5195637 -37.870998 7.5903826 22
-9.4901934 -37.642994 8.9625006 67
nan nan nan nan
-0.99023896 -3.8763833 -1.0720285 8
-1.1812201 -4.6139169 -1.0995607 7
-1.4412885 -5.6134501 -1.1265364 2
-1.8631963 -7.2409286 -1.184209 2
-2.6335773 -10.212697 -1.2949837 2
nan nan nan nan
-8.1130848 -31.303347 -1.694743 18
nan nan nan nan
-9.8741083 -38.59692 0.69540858 43
-9.8559713 -38.442188 2.0798311 34
nan nan nan nan
-9.8386431 -38.180634 4.8411384 50
-9.8326073 -38.074707 6.2282829 23
-9.7724028 -37.759903 7.581605 22
nan nan nan nan
nan nan nan nan
-1.0280836 -3.9104798 -1.0834166 2
-1.2173733 -4.6206341 -1.10316 8
-1.4914757 -5.64501 -1.134932 2
-1.9329143 -7.3003092 -1.1960981 2
-2.7638662 -10.416632 -1.3232574 2
-5.0749269 -19.072989 -1.7267295 23
nan nan nan nan
nan nan nan nan
nan nan nan nan
-10.175569 -38.56749 2.0904028 35
-10.193311 -38.552895 3.4888444 13
-10.156339 -38.304813 4.865756 51
nan nan nan nan
-10.078211 -37.850117 7.6136608 69
nan nan nan nan
nan nan nan nan
-1.0568714 -3.9088016 -1.0849695 4
-1.2490921 -4.6101418 -1.1027101 2
-1.5504086 -5.7064538 -1.1494334 2
-2.0108159 -7.3857493 -1.2123673 2
-2.8887668 -10.588593 -1.3476313 2
-5.1196346 -18.714237 -1.6974453 22
nan nan nan nan
nan nan nan nan
nan nan nan nan
nan nan nan nan
-10.509257 -38.653824 3.5045323 28
-10.488251 -38.470463 4.8959794 52
nan nan nan nan
-10.410112 -38.026897 7.6636529 23
nan nan nan nan
nan nan nan nan
-1.0955136 -3.942277 -1.0963575 4
-1.2995425 -4.6670151 -1.1184567 4
-1.5997125 -5.7295275 -1.1563026 2
-2.0889399 -7.4666476 -1.2280107 2
-3.0194154 -10.770776 -1.3734676 2
-5.332109 -18.969584 -1.7239405 11
nan nan nan nan
nan nan nan nan
nan nan nan nan
nan nan nan nan
nan nan nan nan
-10.818682 -38.618034 4.924253 53
-10.828033 -38.573635 6.3456087 25
-10.789628 -38.359627 7.7457008 73
nan nan nan nan
nan nan nan nan
-1.1224785 -3.9326754 -1.0958399 8
-1.3326281 -4.6597028 -1.1189066 2
-1.6526607 -5.7635126 -1.1654614 2
-2.1661084 -7.539217 -1.2424027 2
-3.1714189 -11.016501 -1.407591 2
-5.5506048 -19.230518 -1.7511332 11
nan nan nan nan
nan nan nan nan
nan nan nan nan
nan nan nan nan
nan nan nan nan
nan nan nan nan
-11.146847 -38.669827 6.3740797 26
-11.130165 -38.536114 7.7968378 75
nan nan nan nan
nan nan nan nan
-1.1477331 -3.9173274 -1.0937693 6
-1.3772023 -4.691422 -1.1288044 4
-1.7089317 -5.8064528 -1.1765283 2
-2.2455075 -7.6148562 -1.2574203 2
-3.310123 -11.203503 -1.4344022 2
-5.7356629 -19.375692 -1.767867 12
nan nan nan nan
nan nan nan nan
nan nan nan nan
nan nan nan nan
nan nan nan nan
nan nan nan nan
nan nan nan nan
-11.459177 -38.660763 7.8380527 51
nan nan nan nan
nan nan nan nan
-1.1849309 -3.9445779 -1.1036046 3
-1.4175284 -4.7099299 -1.135553 2
-1.7682644 -5.8604703 -1.1898849 2
-2.3270109 -7.6977201 -1.2736895 2
-3.4553547 -11.408696 -1.4636509 2
-5.9356804 -19.561176 -1.7884358 12
nan nan nan nan
nan nan nan nan
nan nan nan nan
nan nan nan nan
nan nan nan nan
nan nan nan nan
nan nan nan nan
nan nan nan nan
nan nan nan nan
nan nan nan nan
-1.2219839 -3.9696548 -1.112922 4
-1.4547234 -4.7169318 -1.1396022 4
-1.8197118 -5.8858118 -1.1975174 2
-2.4085763 -7.7760501 -1.289333 2
-3.6200042 -11.665506 -1.4997243 2
-6.1892796 -19.895948 -1.8229494 12
nan nan nan nan
nan nan nan nan
nan nan nan nan
nan nan nan nan
nan nan nan nan
nan nan nan nan
nan nan nan nan
nan nan nan nan
nan nan nan nan
nan nan nan nan
-1.2595478 -3.9923472 -1.1217217 4
-1.4993641 -4.743824 -1.1486002 4
-1.8749888 -5.917882 -1.2066761 2
-2.4914906 -7.8494201 -1.3043507 2
-3.7951975 -11.935063 -1.5377475 2
-6.7068148 -21.040581 -1.9320685 13
nan nan nan nan
nan nan nan nan
nan nan nan nan
nan nan nan nan
nan nan nan nan
nan nan nan nan
nan nan nan nan
nan nan nan nan
nan nan nan nan
nan nan nan nan
-1.2921417 -3.9981625 -1.125863 4
-1.5528531 -4.7962766 -1.1638968 4
-1.9277722 -5.9401283 -1.2139269 2
-2.5804305 -7.9370365 -1.3218714 2
-3.9718683 -12.195178 -1.5747958 2
-7.3825889 -22.627174 -2.082325 15
nan nan nan nan
nan nan nan nan
nan nan nan nan
nan nan nan nan
nan nan nan nan
nan nan nan nan
nan nan nan nan
nan nan nan nan
nan nan nan nan
nan nan nan nan
-1.3242708 -4.0018826 -1.1294864 4
-1.5924314 -4.8038163 -1.1683959 2
-1.9916717 -5.9976707 -1.2284284 2
-2.6705599 -8.0280027 -1.3400177 2
-4.1630254 -12.485408 -1.6159875 5
-7.7865467 -23.31209 -2.1503065 16
nan nan nan nan
nan nan nan nan
nan nan nan nan
nan nan nan nan
nan nan nan nan
nan nan nan nan
nan nan nan nan
nan nan nan nan
nan nan nan nan
nan nan nan nan
-1.3595316 -4.0165644 -1.1362157 3
-1.6357304 -4.8242402 -1.1760442 2
-2.0454974 -6.0189381 -1.2356791 2
-2.7545512 -8.0914431 -1.353784 2
-4.187686 -12.28017 -1.5930762 19
-8.0766916 -23.630453 -2.1848202 16
nan nan nan nan
nan nan nan nan
nan nan nan nan
nan nan nan nan
nan nan nan nan
nan nan nan nan
nan nan nan nan
nan nan nan nan
nan nan nan nan
nan nan nan nan
-1.3976536 -4.0361829 -1.1444979 4
-1.6751177 -4.8292732 -1.1800933 2
-2.1029398 -6.0490165 -1.2448379 2
-2.8499508 -8.1839437 -1.3725561 2
-4.2399712 -12.155045 -1.5806454 16
-8.2940655 -23.723953 -2.198765 16
nan nan nan nan
nan nan nan nan
nan nan nan nan
nan nan nan nan
nan nan nan nan
nan nan nan nan
nan nan nan nan
nan nan nan nan
nan nan nan nan
nan nan nan nan
-1.4354703 -4.0536432 -1.1522624 4
-1.7211695 -4.8523569 -1.1886414 2
-2.1687918 -6.1007824 -1.2585762 2
-2.9507494 -8.2866697 -1.3932055 3
-4.3607378 -12.226113 -1.5938075 19
-8.7438412 -24.460951 -2.2726731 17
nan nan nan nan
nan nan nan nan
nan nan nan nan
nan nan nan nan
nan nan nan nan
nan nan nan nan
nan nan nan nan
nan nan nan nan
nan nan nan nan
nan nan nan nan
-1.4689946 -4.0580549 -1.1564035 4
-1.7736028 -4.8915191 -1.2012386 2
-2.229434 -6.135313 -1.2688799 2
-3.0558231 -8.3958054 -1.4151063 3
-4.4677415 -12.255053 -1.601607 20
-8.9431133 -24.477909 -2.2799942 17
nan nan nan nan
nan nan nan nan
nan nan nan nan
nan nan nan nan
nan nan nan nan
nan nan nan nan
nan nan nan nan
nan nan nan nan
nan nan nan nan
nan nan nan nan
-1.504662 -4.0676312 -1.1620976 3
-1.8259879 -4.9283566 -1.2133861 2
-2.2968128 -6.1858568 -1.282618 2
-3.1625607 -8.5038719 -1.4370072 3
-4.608623 -12.372381 -1.6211061 20
-9.2127256 -24.679934 -2.3047464 17
nan nan nan nan
nan nan nan nan
nan nan nan nan
nan nan nan nan
nan nan nan nan
nan nan nan nan
nan nan nan nan
nan nan nan nan
nan nan nan nan
nan nan nan nan
-1.5439487 -4.0859423 -1.1703798 3
-1.8748354 -4.9537635 -1.222834 2
-2.3691831 -6.2467699 -1.2986461 2
-3.2653427 -8.596076 -1.456405 3
-4.7160616 -12.395566 -1.6284183 17
-9.8362169 -25.79904 -2.4156086 18
-20.740103 -54.312981 -3.046895 62
nan nan nan nan
nan nan nan nan
nan nan nan nan
nan nan nan nan
nan nan nan nan
nan nan nan nan
nan nan nan nan
nan nan nan nan
nan nan nan nan
-1.5849544 -4.1075053 -1.1796973 3
-1.9114809 -4.9460068 -1.2241838 2
-2.4425132 -6.3069696 -1.314674 2
-3.3809931 -8.7167234 -1.4808089 3
-4.8513627 -12.488167 -1.6449926 17
-10.381488 -26.682169 -2.5048561 19
nan nan nan nan
nan nan nan nan
-23.712803 -61.389381 1.1487173 55
nan nan nan nan
nan nan nan nan
nan nan nan nan
nan nan nan nan
nan nan nan nan
nan nan nan nan
nan nan nan nan
-1.6242114 -4.1233015 -1.1874619 4
-1.9581218 -4.9633589 -1.231832 2
-2.5099163 -6.3522778 -1.327649 2
-3.4896743 -8.818409 -1.5020839 3
-4.9457455 -12.472445 -1.6474299 17
-10.744001 -27.053452 -2.5466907 20
nan nan nan nan
nan nan nan nan
-23.698992 -60.132626 1.1281934 54
-24.231737 -61.390125 3.4588838 45
nan nan nan nan
nan nan nan nan
