# .PCD v0.7 - Point Cloud Data file format
VERSION 0.7
FIELDS x y z intensity
SIZE 4 4 4 4
TYPE F F F F
COUNT 1 1 1 1
WIDTH 1431
HEIGHT 1
VIEWPOINT 0 0 0 1 0 0 0
POINTS 1431
DATA ascii
5.3374386 11.788198 0.67816937 12
5.2783165 11.635982 1.1178595 19
4.7043128 10.356181 1.3966229 37
4.7930131 10.536794 1.8334121 10
4.6960068 10.304448 2.2011726 34
nan nan nan nan
4.601799 10.069771 2.9665842 30
1.0441791 2.2691665 -0.6693061 46
1.1246431 2.4406614 -0.62041503 38
1.2474698 2.7022476 -0.57853287 22
1.3925337 3.0123372 -0.52561986 24
1.5936004 3.4425526 -0.46578467 22
1.8853225 4.0671535 -0.39220083 23
2.2065563 4.7514467 -0.27455446 27
2.7303123 5.8712182 -0.11302178 15
4.2881942 9.3103657 0.17892207 8
5.5492616 12.031764 0.69439352 9
4.9104605 10.63208 1.0246029 16
4.7789936 10.328494 1.397354 40
4.6796002 10.099804 1.7630166 25
4.7181091 10.168954 2.1790388 28
nan nan nan nan
nan nan nan nan
1.0534371 2.2478271 -0.66516501 39
1.139171 2.427458 -0.61906534 39
1.2508036 2.6617112 -0.57166374 30
1.4087991 2.9938524 -0.52405554 30
1.6235187 3.443913 -0.46749085 20
1.8907048 4.0052471 -0.38749442 20
2.2268956 4.7110386 -0.27308905 22
2.7558293 5.8194828 -0.11239351 15
4.2394137 9.0419664 0.17431465 8
5.6632857 12.062414 0.69837105 9
5.0235753 10.680473 1.0326213 45
4.8948669 10.392699 1.4105159 32
4.6850467 9.9337158 1.7395515 7
4.7755723 10.107366 2.1729329 13
nan nan nan nan
4.4126635 9.3140154 2.7615993 22
1.0657761 2.2334435 -0.6630944 40
1.1644931 2.4370286 -0.62356436 36
1.2740567 2.6615467 -0.57357186 42
1.416525 2.9551938 -0.51904958 25
1.6526761 3.4432325 -0.46895328 13
1.9151683 3.9847667 -0.38679719 20
2.2406218 4.6535935 -0.27068159 22
2.712148 5.6253791 -0.10900773 16
4.3789873 9.1683836 0.17735136 12
5.7279139 11.976535 0.69575429 18
5.1823473 10.821246 1.0497037 4
4.9201665 10.25539 1.3966229 17
4.6696153 9.7200994 1.7079517 7
3.4315329 7.1333814 1.5386838 33
4.855175 10.0793 2.5828881 18
nan nan nan nan
1.0779661 2.2189982 -0.66102386 39
1.1703955 2.4060588 -0.6177156 30
1.2861259 2.6404579 -0.57090056 27
1.430546 2.9330552 -0.51685953 31
1.6522751 3.3816698 -0.46212861 17
1.9315596 3.9480324 -0.38453114 22
2.2494025 4.5915995 -0.26796013 22
2.7231627 5.5488625 -0.10789078 7
4.3468909 8.9441233 0.17358163 9
5.7524948 11.820536 0.6889506 3
5.1285496 10.519749 1.0239056 5
4.889708 10.016517 1.3685929 14
4.8449697 9.9117041 1.7473731 3
3.6556537 7.4654207 1.6157707 24
4.9065442 10.006667 2.5729904 22
7.7027087 15.68853 4.6830721 16
1.0956132 2.216805 -0.66257679 60
1.1806955 2.3858104 -0.61456633 29
1.3097605 2.6419685 -0.57319027 30
1.4518659 2.9247661 -0.5171724 22
1.6708355 3.3614571 -0.46090987 20
1.941519 3.9009039 -0.38121921 26
2.2822921 4.5775723 -0.2680648 20
2.7412195 5.4908371 -0.10712288 19
4.5209427 9.1394005 0.17797965 14
5.1230259 10.342923 0.60489905 25
5.0690179 10.220428 0.99810755 3
5.1282206 10.321689 1.4151469 16
4.8823733 9.8139677 1.7361099 3
3.6004634 7.2277336 1.569595 15
3.652406 7.3223968 1.8891392 14
4.5765285 9.1590776 2.7434819 13
1.1093258 2.205651 -0.66154152 61
1.1964451 2.3757694 -0.61411637 25
1.3171047 2.6119566 -0.56861085 34
1.472631 2.9165788 -0.51748526 28
1.6835108 3.328454 -0.45798501 24
1.9714057 3.8925872 -0.38174215 24
2.3106878 4.5565872 -0.26775077 27
2.7975991 5.5072231 -0.10782097 19
4.4194636 8.7833061 0.17162697 14
5.1205187 10.163336 0.59642065 20
5.2255278 10.353766 1.0146672 20
5.027349 9.9481468 1.3685929 14
5.5278945 10.924417 1.9391619 3
3.4883976 6.8819628 1.4997588 7
4.742415 9.3437605 2.4191239 20
4.9100947 9.6615963 2.9039497 24
1.119036 2.1877289 -0.6584357 55
1.21259 2.3675699 -0.61411637 43
1.3299316 2.5922167 -0.56632113 27
1.492054 2.90447 -0.5171724 26
1.7043118 3.3133872 -0.45749757 23
1.9802799 3.8433082 -0.3782559 28
2.3241301 4.5048442 -0.26565734 15
2.8065722 5.4329753 -0.10673892 16
4.5453706 8.8786192 0.17410521 11
5.203187 10.150448 0.59778136 23
5.1512213 10.036126 0.98695159 5
4.9777703 9.6815376 1.336663 15
4.9141474 9.5454998 1.7004429 9
nan nan nan nan
4.8924651 9.4749222 2.4618645 20
4.8052969 9.2941694 2.8035281 51
1.1280388 2.1678679 -0.65481222 39
1.2344908 2.3694167 -0.61681581 22
1.3470879 2.5811281 -0.56593949 36
1.5159541 2.9009855 -0.51842386 23
1.7200397 3.2873371 -0.45554763 26
1.9922661 3.8011532 -0.37546691 20
2.3490243 4.4761305 -0.26492465 18
2.8202462 5.3672256 -0.10583139 19
4.5167246 8.6728592 0.17068455 11
5.3117905 10.186482 0.60207289 5
5.3889961 10.321356 1.0186763 15
3.5566878 6.8004322 0.94229382 18
5.1676102 9.8679523 1.7642682 6
3.6850593 7.0279508 1.5425 20
3.6753745 6.9975901 1.8248031 29
5.0561996 9.6143284 2.9106791 18
1.1395311 2.1531098 -0.65274167 33
1.2437024 2.3469653 -0.61321658 34
1.3595507 2.5612571 -0.56364983 30
1.5157728 2.8519573 -0.51154077 11
1.7429463 3.2752495 -0.45554763 34
2.0093825 3.7695701 -0.3737238 16
2.3642292 4.4296684 -0.26314521 9
2.8435106 5.320951 -0.10530782 19
4.4320827 8.3672123 0.16527429 9
5.2124586 9.8280191 0.58302259 20
5.3646727 10.102236 1.0007222 3
5.5263758 10.389236 1.4448831 21
5.0905895 9.5579014 1.7151477 18
3.5298753 6.6192074 1.4581624 29
3.5937524 6.7276821 1.7609171 10
5.9659777 11.154535 3.3894944 12
1.1453801 2.1280901 -0.64756525 33
1.2545114 2.3279319 -0.6105172 33
1.3708705 2.5396097 -0.56097847 27
1.5243754 2.820452 -0.50778633 30
1.750653 3.2350678 -0.45164782 23
2.0356483 3.7554512 -0.3737238 16
2.3998599 4.4218316 -0.26366857 6
2.8672214 5.2763715 -0.10481916 23
4.4714179 8.3008575 0.16457619 9
5.402297 10.016401 0.59642065 8
5.3602743 9.9260454 0.98695159 5
3.7051282 6.8496313 0.95618695 26
5.1063914 9.4283323 1.6982528 4
3.6181147 6.6720653 1.4753352 28
3.6490042 6.7178407 1.764966 17
5.249939 9.6531076 2.9443254 66
1.1731921 2.1437683 -0.65481222 33
1.2604309 2.3003187 -0.60556829 31
1.3781763 2.5110455 -0.5567807 37
1.5411761 2.8045468 -0.50684774 27
1.7789385 3.2332017 -0.45311025 16
2.049315 3.7184637 -0.37145776 18
2.4084759 4.3647504 -0.26126111 14
2.8749743 5.2037172 -0.10377201 18
4.3563509 7.9537458 0.15829334 13
5.5345154 10.092272 0.60322434 23
3.7599499 6.8478179 0.68347532 7
3.7212856 6.7662001 0.94814354 23
5.2759457 9.5810661 1.7323555 22
3.6494398 6.6191359 1.4692293 10
3.7287912 6.7519064 1.7807126 42
4.9535608 8.9585714 2.7429643 18
1.1881299 2.1355257 -0.65481222 33
1.2830979 2.30338 -0.60871756 33
1.3918467 2.4945052 -0.55525422 22
1.5597533 2.7919953 -0.50653487 22
1.8111576 3.2380285 -0.45554763 27
2.064513 3.6849465 -0.36954033 20
2.4271657 4.3269262 -0.26000506 10
2.9259238 5.209671 -0.10429558 22
4.3028154 7.7274618 0.15438399 9
5.6855602 10.198178 0.61191207 8
5.4507585 9.7649908 0.97841036 10
3.8662753 6.9150543 0.97276115 28
5.344635 9.5474472 1.7329811 13
3.7061167 6.6123371 1.4734272 20
3.6613605 6.5217977 1.7267245 17
5.2043543 9.2588959 2.8459742 31
1.1973037 2.1170893 -0.6517064 48
1.2895452 2.2774086 -0.60421854 34
1.406322 2.4796042 -0.55410933 24
1.5811578 2.7844737 -0.5071606 22
1.8180197 3.1976953 -0.45164782 24
2.0813165 3.6548603 -0.36797154 18
2.4583037 4.3116112 -0.26010972 6
2.9503262 5.1682773 -0.10387672 20
4.10745 7.2569466 0.14555307 16
5.5537682 9.8002834 0.59034967 8
3.7136145 6.545115 0.65837449 5
3.7712576 6.6359196 0.93717533 7
5.5772352 9.801774 1.7861689 1
3.6618099 6.4276576 1.4379367 22
3.7608845 6.5908637 1.751919 31
5.2870708 9.2542095 2.8558095 10
1.2101282 2.1053298 -0.65067112 46
1.307356 2.271729 -0.60511833 33
1.4402663 2.4986415 -0.56059688 27
1.6015462 2.7750783 -0.50747347 21
1.8303682 3.1677372 -0.44921044 30
2.1077776 3.6419661 -0.36814582 16
2.4522941 4.2321329 -0.25634155 19
2.9672675 5.1146917 -0.10321353 24
4.0902119 7.1102242 0.14317955 27
5.745657 9.9758816 0.603329 5
5.4273224 9.4117765 0.95052046 17
2.578419 4.4641595 0.63298941 11
5.2984352 9.1623735 1.6763519 3
3.6574121 6.3169837 1.4188558 3
3.7540147 6.4734139 1.7276242 14
5.4068394 9.3123026 2.8853149 36
1.2296696 2.1051702 -0.65325934 48
1.3261362 2.2675927 -0.60646808 29
1.4427893 2.4631159 -0.55487263 27
1.6058898 2.738271 -0.50278044 22
1.8403755 3.1343408 -0.44628558 23
2.1149719 3.5962496 -0.36500823 20
2.4645524 4.1856513 -0.25456211 10
2.9795456 5.0542312 -0.10241073 20
4.1256223 7.0573273 0.14269088 22
5.7949843 9.9010525 0.60123557 2
nan nan nan nan
2.5733507 4.3844171 0.62421483 12
3.9061086 6.6471653 1.2211275 15
4.0070519 6.8107781 1.5360124 25
3.8099988 6.4655161 1.732573 46
5.8516178 9.9182396 3.0856409 11
1.2482804 2.1031792 -0.65532982 47
1.3459167 2.2649803 -0.60826772 21
1.471999 2.473228 -0.559452 31
1.622945 2.723599 -0.50215465 23
1.8672994 3.1299391 -0.44750425 20
2.1236751 3.5540314 -0.36221924 35
2.4803839 4.1460619 -0.2532014 4
3.0085931 5.0230136 -0.1022013 20
4.1410871 6.9716191 0.14153902 29
4.2662764 7.1738214 0.43742397 5
2.5828857 4.3379979 0.44170532 12
2.5306909 4.2435889 0.60666561 16
4.0060902 6.7096248 1.2377096 14
4.0927811 6.846673 1.550514 29
3.8600497 6.4471202 1.7348226 29
5.9246907 9.8837738 3.0877113 5
1.2469707 2.0679443 -0.64704764 26
1.3546453 2.2438514 -0.60511833 18
1.4831357 2.4528103 -0.55716228 34
1.633737 2.698683 -0.49965176 28
1.8777866 3.0981526 -0.44482315 23
2.1380949 3.5220885 -0.36047614 24
2.4874825 4.092804 -0.25100327 8
3.0165603 4.9574714 -0.10129377 22
4.1503954 6.8774796 0.14021264 26
2.6316862 4.3557215 0.26670405 17
2.439863 4.0334606 0.41242099 15
2.5468826 4.2037463 0.60349703 22
6.2544384 10.311052 1.9100651 13
3.7359092 6.1517453 1.3990116 15
3.9515491 6.4966021 1.7555182 21
4.2060342 6.9068456 2.1668332 27
1.2573409 2.0525992 -0.64497709 33
1.3825028 2.2542744 -0.6105172 27
1.4796724 2.4089391 -0.54952991 28
1.6473638 2.6787982 -0.49808741 26
1.9076961 3.098491 -0.44677305 24
2.1574042 3.4985952 -0.3596046 31
2.5149477 4.0736375 -0.2508986 12
3.0584562 4.9481983 -0.1015381 18
4.196218 6.8449273 0.14014283 19
2.5983012 4.233408 0.26031908 9
2.3323617 3.79565 0.38976046 13
2.5407908 4.1283851 0.59520996 11
4.3024826 6.9826636 1.299032 19
3.8251472 6.200707 1.4161844 26
3.9117908 6.3312569 1.7181762 23
4.2500849 6.8707404 2.1647625 6
1.2747018 2.048692 -0.64653003 35
1.3858423 2.2247188 -0.60511833 46
1.4964528 2.398551 -0.54952991 23
1.6566055 2.6521542 -0.49527156 25
1.9103341 3.0548027 -0.44238573 16
2.1769376 3.4770751 -0.35890734 22
2.5093722 4.001833 -0.24754909 20
3.0907998 4.9233379 -0.10146829 22
4.2523613 6.8290429 0.14042206 3
2.447114 3.9253397 0.24242018 15
2.3450897 3.7573023 0.38749442 15
2.5358791 4.0566816 0.58741027 12
4.2934875 6.8603597 1.2818241 84
3.9152541 6.248714 1.4333572 13
3.9951825 6.3688655 1.7357225 17
5.4942164 8.7449732 2.7672932 24
1.2889724 2.0397434 -0.64653003 28
1.3836291 2.1869926 -0.59747005 22
1.4749271 2.3286009 -0.5357917 25
1.6714472 2.6358113 -0.49433297 22
1.9167147 3.0179317 -0.43897343 20
2.1904688 3.4449797 -0.3571642 22
2.5054486 3.9358006 -0.24451362 16
3.1197186 4.8932109 -0.10129377 24
2.6734915 4.2290468 0.087331839 12
2.4930005 3.9389708 0.24430427 12
2.3765953 3.7492542 0.38836598 26
2.5921524 4.0845804 0.59399122 22
nan nan nan nan
3.929271 6.1748505 1.4226719 43
4.0856185 6.4131346 1.7555182 19
6.0169401 9.4337978 2.9981599 5
1.3028276 2.0309219 -0.64653003 30
1.3984824 2.1775246 -0.59747005 40
1.5166365 2.3578761 -0.54495054 18
1.6898067 2.6240788 -0.49433297 22
1.9339859 2.99981 -0.4382422 15
2.1863678 3.3860838 -0.35263211 21
2.5512991 3.9467263 -0.24629304 16
3.1344857 4.8433213 -0.10070039 6
2.5549455 3.9797411 0.082549877 15
2.3703358 3.6879294 0.22975488 13
2.3395293 3.6358118 0.3782559 16
2.5840433 4.0096517 0.58570409 13
4.1916857 6.4967527 1.2245692 3
4.1086235 6.3607011 1.4719007 7
nan nan nan nan
6.0017848 9.2667103 2.9583018 28
1.3169744 2.0217769 -0.64653003 35
1.4147149 2.1693408 -0.59791994 19
1.547017 2.3685987 -0.54991156 27
1.7351117 2.6535501 -0.50215465 23
1.9690157 3.0078263 -0.44141081 19
2.203398 3.3607419 -0.35158628 17
2.5393338 3.8687105 -0.24252485 18
2.6575706 4.0442286 -0.084469646 7
2.5531838 3.9165764 0.081607454 9
2.4342299 3.729831 0.23341838 16
2.3463285 3.5910356 0.37529263 23
2.6032774 3.9782259 0.58375424 22
6.4236078 9.8050957 1.8565645 1
4.1744642 6.3646955 1.479533 5
4.0891671 6.2251654 1.7195261 25
5.790349 8.8049183 2.8237159 38
1.3203989 1.9964209 -0.64135361 35
1.4352036 2.167536 -0.60016948 40
1.5559199 2.3462875 -0.5472402 24
1.7568723 2.6463094 -0.5030933 20
1.9888673 2.9923534 -0.44116706 17
2.2367425 3.3602037 -0.35315505 15
2.5507748 3.8276205 -0.24105945 16
2.6013944 3.8991537 -0.081816882 17
2.4270494 3.6668713 0.076755688 10
2.403945 3.6278362 0.22808012 19
2.37795 3.5845292 0.37633851 33
2.5617795 3.8557885 0.56839865 17
6.2818513 9.4442158 1.7964935 1
4.209003 6.3206906 1.4760985 14
4.1595583 6.2369971 1.7307734 42
6.8428698 10.248825 3.3020134 16
1.3321515 1.9839458 -0.64031839 28
1.4209479 2.113796 -0.58802211 33
1.5722611 2.3353686 -0.5472402 30
1.74991 2.5963054 -0.49589729 22
2.0219219 2.9964972 -0.44384819 15
2.2434132 3.3197446 -0.3505404 31
2.536025 3.7485118 -0.23718657 14
2.5668755 3.7898352 -0.079897113 7
2.4001696 3.5718288 0.075115159 32
2.3678977 3.5198207 0.22232316 20
2.3639627 3.5100017 0.37023759 15
2.5508938 3.7818558 0.56011152 22
6.3819013 9.450881 1.8061925 16
4.2233391 6.2472377 1.4657948 23
4.1691313 6.1577821 1.7168266 23
6.2064605 9.1565762 2.9639959 36
1.3459697 1.9745973 -0.64031839 36
1.4554424 2.1327984 -0.5961203 34
1.5907435 2.3275764 -0.54800349 33
1.7668788 2.5823944 -0.49558446 27
2.0237229 2.9544663 -0.43970463 26
2.2856932 3.3319333 -0.3535037 14
2.5655231 3.7356563 -0.23750059 12
2.5660789 3.7322769 -0.0790594 16
2.4746284 3.6276722 0.07665097 13
2.3834007 3.4900105 0.22148579 28
2.3929055 3.4999924 0.37093481 26
2.5155506 3.6738689 0.5467059 12
6.5672312 9.5804329 1.8396695 4
4.2901783 6.2515945 1.4738088 10
4.2186418 6.1381626 1.7195261 55
6.3414125 9.2164717 2.9976423 20
1.3553244 1.9587985 -0.63824779 43
1.4625281 2.1113727 -0.59297103 41
1.5834543 2.2825391 -0.53998947 41
1.7792304 2.5618839 -0.4940201 25
2.0510988 2.9500449 -0.44116706 15
2.2895458 3.2880979 -0.3505404 10
2.5561354 3.6668613 -0.23425576 22
2.5783415 3.6945918 -0.078640543 3
2.4759881 3.575783 0.075917974 12
2.3724334 3.4224012 0.21824095 30
2.3513975 3.3882649 0.36082479 20
2.5762568 3.7067506 0.55426186 13
3.1962552 4.5936785 0.88635778 3
4.4717388 6.4196401 1.5207478 54
4.5267529 6.4889479 1.8266028 29
6.2452126 8.9423208 2.9225848 32
1.355643 1.9303176 -0.63203615 28
1.4861991 2.1138642 -0.59657025 31
1.608392 2.2842717 -0.54304242 25
1.7993472 2.5526299 -0.49464583 22
2.0441735 2.8967292 -0.43531734 16
2.3026755 3.2594199 -0.34914589 5
2.5712907 3.6342528 -0.23331371 20
3.2467101 4.583796 -0.098047614 6
2.4755967 3.5224159 0.075150065 31
2.3813295 3.3845191 0.21688022 16
2.3600807 3.35059 0.35855874 13
2.5448585 3.6075695 0.54207492 12
2.9433687 4.1678591 0.80814058 18
4.5889826 6.4908619 1.5451714 12
4.4920068 6.3466425 1.7951095 23
nan nan nan nan
1.375814 1.9302454 -0.63514197 36
1.5043162 2.108196 -0.59791994 33
1.617056 2.2636855 -0.54075271 42
1.8074893 2.527468 -0.49214289 22
2.0516322 2.8646348 -0.4326362 19
2.3033168 3.2125003 -0.34583399 11
2.5994608 3.6215353 -0.23362774 22
2.570147 3.5754237 -0.076860398 9
2.415926 3.3882551 0.072636917 22
2.3880651 3.3454742 0.21541482 15
2.4112215 3.3729327 0.36274219 18
2.5705106 3.5917776 0.54231864 11
3.013087 4.2055359 0.81940383 13
4.3423347 6.0519075 1.4478587 27
7.6740355 10.683482 3.0368395 22
6.2934742 8.7518463 2.8884208 17
1.3685455 1.8926572 -0.62582451 36
1.5094899 2.085279 -0.59432071 33
1.6351248 2.2555201 -0.54151595 25
1.8239291 2.5131898 -0.49182999 21
2.0792513 2.8618453 -0.43434238 17
2.3057601 3.1689537 -0.34287068 19
2.6188028 3.5952263 -0.23310436 18
2.8430295 3.8987651 -0.084225312 14
2.491102 3.4425879 0.074172728 15
2.4031606 3.3173988 0.21468212 19
2.3908463 3.2967649 0.35629267 11
2.5675266 3.5351963 0.53646892 13
2.9087837 4.0006618 0.7834239 10
4.4319506 6.0888786 1.4638867 28
7.6566005 10.503666 3.0008473 35
nan nan nan nan
1.4000112 1.9079773 -0.6341067 36
1.5182427 2.0668371 -0.59207124 27
1.6659554 2.2646086 -0.54647696 24
1.8379158 2.4956236 -0.49089143 25
2.0850441 2.8280861 -0.43141752 13
2.3337448 3.1607935 -0.34374225 17
2.6592715 3.5977354 -0.23446509 18
2.8428206 3.84185 -0.083422504 15
2.5044212 3.4106076 0.073858589 20
2.4002368 3.2651377 0.21237932 17
2.40908 3.2735746 0.35559544 35
2.5921445 3.5171854 0.53646892 13
2.8498569 3.8626297 0.76027155 27
4.7764511 6.4668007 1.5627258 30
nan nan nan nan
3.5547211 4.8004274 1.6005371 13
1.3821462 1.8563209 -0.62013048 40
1.5337986 2.0577507 -0.59252113 34
1.6723297 2.2403367 -0.54342401 28
1.8375566 2.4589961 -0.48619837 26
2.0904679 2.7943866 -0.42849267 15
2.3349018 3.1177239 -0.34077895 13
2.633991 3.5119762 -0.23006889 22
2.876775 3.8315063 -0.083631933 10
2.5329518 3.3994534 0.073998205 12
2.3572938 3.1602497 0.20662238 22
2.4712143 3.3093576 0.36134771 8
2.5851226 3.4581213 0.5301317 17
2.9252934 3.9074733 0.77309924 12
4.840323 6.4584312 1.5688316 16
4.6254492 6.1649971 1.7793629 6
3.5675931 4.7498584 1.5917372 8
1.3784513 1.8252861 -0.61288351 69
1.5477706 2.047262 -0.59252113 24
1.6804299 2.2195101 -0.54113436 45
1.8542519 2.4464314 -0.48619837 26
2.097441 2.7642784 -0.42605525 15
2.3391974 3.0795467 -0.33833858 17
2.6409047 3.4717124 -0.22860347 20
2.5793128 3.3870623 -0.074312352 12
2.3932648 3.1667628 0.069286056 16
2.3956194 3.1664307 0.20808777 15
2.4166937 3.1908121 0.35019177 36
2.5390372 3.348701 0.51599485 25
3.1130898 4.0998588 0.81533653 16
4.5253711 5.9533224 1.453583 16
4.6838241 6.1550827 1.7856616 2
nan nan nan nan
1.3861443 1.8097272 -0.61081296 33
1.5557402 2.0289476 -0.59027159 46
1.6931063 2.2049069 -0.54037106 38
1.84919 2.4055638 -0.48056671 26
2.1210496 2.7562313 -0.42703021 28
2.3472614 3.0457816 -0.33642116 14
2.6986365 3.4979324 -0.2315343 18
2.5778635 3.3377731 -0.073614255 16
2.431797 3.1726172 0.069774717 15
2.4037445 3.1326199 0.20693639 25
2.3995194 3.1237261 0.34461379 21
2.541779 3.3041444 0.51185131 17
2.9480822 3.8281627 0.7652775 39
4.7875452 6.2100258 1.5241823 31
4.7433505 6.1438313 1.7919602 17
7.2631207 9.3973818 3.1824391 1
1.4248238 1.8335645 -0.62220097 22
1.567475 2.0149601 -0.5893718 37
1.7120779 2.1976793 -0.54151595 36
1.8671536 2.3941529 -0.4808796 23
2.1390183 2.7397914 -0.42678648 16
2.3537405 3.0104866 -0.33432943 14
2.6996017 3.4491241 -0.22954552 16
2.5382023 3.2394176 -0.071834102 16
2.4894848 3.2013426 0.07078696 23
2.4304616 3.1220672 0.20735508 6
2.3894246 3.06604 0.34008169 18
2.5318084 3.2440662 0.50527036 27
2.982033 3.8168278 0.76715469 15
4.9468961 6.3249087 1.5608176 27
7.378067 9.4197502 2.7623992 2
7.2415323 9.2354689 3.1446514 1
1.4328049 1.8175052 -0.62013048 44
1.5754666 1.99632 -0.58712232 25
1.7334666 2.1933739 -0.54342401 28
1.8740185 2.3686655 -0.47837666 16
2.1450088 2.7073002 -0.42410538 37
2.3685098 2.9861758 -0.33345786 29
2.6726935 3.3660643 -0.22525398 7
2.8500576 3.5842969 -0.079932027 28
2.4659474 3.1257958 0.069495484 29
2.4249656 3.0705407 0.2050523 11
2.3897653 3.0227139 0.33711842 18
2.5642507 3.2387636 0.50722027 27
2.9852936 3.7665024 0.7612102 13
4.9700594 6.2616682 1.5539485 23
7.3648477 9.2688389 2.7331555 2
7.2372828 9.0985107 3.1151462 3
1.4530151 1.8162569 -0.6232363 45
1.5909297 1.9865162 -0.58757222 41
1.7413676 2.1720288 -0.54113436 34
1.895866 2.361357 -0.47962815 18
2.1414726 2.6644082 -0.41971806 28
2.3992927 2.9819851 -0.33485237 14
2.7067368 3.3592944 -0.22609136 18
2.8448784 3.5269587 -0.079094306 14
nan nan nan nan
2.4855964 3.1014233 0.20829713 20
2.4075935 3.0008736 0.33659548 22
2.5743687 3.2053061 0.50478286 27
2.9824567 3.7081013 0.75370133 15
5.1737156 6.425611 1.6035589 4
7.3425484 9.1094742 2.7012124 2
7.3325396 9.0840712 3.128087 1
1.4656595 1.8060687 -0.6232363 38
1.5986158 1.9677984 -0.58532268 34
1.7581056 2.1610343 -0.54151595 42
1.9172961 2.3541894 -0.4808796 27
2.1637855 2.6540074 -0.42044926 16
2.3978875 2.9369609 -0.33171475 16
2.7313869 3.3418622 -0.22619602 24
2.6364329 3.2222409 -0.072671816 21
2.5287988 3.1139073 0.070019051 23
2.5890806 3.1847281 0.2151008 5
2.4850783 3.0535312 0.34443948 15
2.5959852 3.1852634 0.50453913 15
2.8334429 3.4729083 0.70989966 21
5.2954435 6.4836121 1.6272193 16
7.4359226 9.0913925 2.7115602 2
3.5797875 4.3720875 1.5140915 6
1.4720936 1.7883346 -0.62064809 48
1.6123146 1.9565899 -0.58532268 34
1.7781471 2.1547656 -0.54304242 42
1.9248769 2.3300872 -0.47868952 26
2.1658139 2.6189508 -0.41728067 12
2.3992722 2.8971305 -0.32910007 14
2.7470047 3.3134859 -0.22556801 15
2.7329359 3.2930052 -0.074696302 13
2.4856322 3.0174618 0.068238907 19
2.4333544 2.9508488 0.20044672 26
2.5202863 3.0530102 0.34635693 7
2.6206892 3.1701224 0.50502658 13
2.8525817 3.4469547 0.7086482 13
7.5474496 9.1103458 2.2996302 4
7.5178714 9.061759 2.7183087 8
7.4179249 8.9317665 3.1110051 33
1.4771129 1.7691171 -0.61754227 29
1.6171856 1.9348203 -0.58217335 31
1.7792854 2.1257389 -0.53884465 40
1.9372909 2.3120501 -0.47775093 22
2.1827693 2.6022458 -0.41703692 13
2.4048419 2.8639491 -0.32718265 21
2.7289352 3.2453117 -0.2222185 10
2.7983541 3.3243313 -0.075848162 17
2.7053754 3.2378886 0.073649161 16
2.4795253 2.9644275 0.20254017 8
2.6656113 3.183517 0.36326513 3
2.6465831 3.1563125 0.50575781 12
3.0658081 3.6523938 0.75526565 16
7.623498 9.072464 2.3034463 19
7.6069808 9.0431814 2.7282064 30
7.4128909 8.7999773 3.0830526 24
1.5056578 1.7779269 -0.62427157 26
1.6193124 1.910105 -0.57812428 33
1.7873621 2.1060944 -0.53693652 25
1.950426 2.2957988 -0.4771252 22
2.1995969 2.5854318 -0.41679317 9
2.422194 2.8440566 -0.32683402 16
2.744483 3.2190619 -0.22169513 21
2.6501009 3.1039674 -0.071240723 22
2.4481525 2.8898311 0.066109717 22
2.450556 2.8895991 0.19856264 3
2.5213981 2.9689262 0.34077895 11
2.6512909 3.1185634 0.50258923 31
2.9920166 3.5156078 0.73117477 21
7.7044787 9.0399399 2.308789 51
3.6806531 4.3140645 1.3092152 14
7.3910666 8.6538305 3.0494061 18
1.5202419 1.7705684 -0.62530684 13
1.634818 1.9019933 -0.57902408 34
1.7917758 2.081661 -0.53388357 16
1.9599588 2.2746439 -0.47556084 45
2.2028821 2.5538652 -0.41411206 11
2.4310796 2.8154392 -0.32543954 21
2.7538261 3.1847157 -0.22064841 17
2.5965688 2.9996767 -0.06925115 22
2.4773903 2.8832862 0.066354051 18
2.5279756 2.9390452 0.2031682 11
2.527247 2.9350882 0.33886153 12
2.6859612 3.1150119 0.50502658 13
3.2591484 3.7757599 0.78999412 13
2.975405 3.4433937 0.88459057 5
3.6194155 4.1842675 1.2772722 14
7.3842649 8.5246296 3.0219712 39
1.5148041 1.7395157 -0.61805987 11
1.6480557 1.8905345 -0.57902408 30
1.8097754 2.0738549 -0.53502846 25
1.9883912 2.2761276 -0.47868952 23
2.2245786 2.542906 -0.41484326 12
2.4362371 2.7819111 -0.32352212 16
2.7938726 3.186923 -0.22211383 17
2.6794536 3.0521061 -0.070891678 10
2.5074682 2.8784175 0.066633284 14
2.5282338 2.8991892 0.20159812 27
2.4572506 2.8138232 0.32683402 21
2.8351409 3.2431204 0.52891296 7
3.1741972 3.6271327 0.76340026 15
7.9448385 9.0657425 2.3431346 2
3.8734381 4.4152598 1.3560051 16
10.001856 11.388893 4.0613885 21
1.518939 1.7204745 -0.61495411 12
1.6608869 1.879272 -0.57902408 30
1.7955842 2.0288265 -0.52663285 31
1.9950635 2.2518408 -0.47649944 18
2.1917837 2.4712694 -0.40558121 12
2.4529514 2.7618568 -0.32317349 13
2.834631 3.1882386 -0.22357923 20
2.5898182 2.909817 -0.067994572 22
2.4864573 2.8143868 0.065551244 24
2.443881 2.7632782 0.19332905 27
2.4869113 2.8089674 0.32822853 18
2.6772952 3.0197527 0.49552077 17
3.1391249 3.5369236 0.7490083 6
3.1230047 3.5150523 0.91397518 1
8.6153412 9.6832476 2.9922993 5
2.8806889 3.2343509 1.1605446 1
1.5347782 1.7141467 -0.61650699 17
1.6817694 1.8763388 -0.58172351 30
1.8319987 2.0410781 -0.53312039 36
1.9948939 2.2202244 -0.472745 30
2.2182755 2.4662392 -0.40728739 19
2.4761734 2.7491062 -0.32369643 15
2.7966342 3.1016216 -0.21886899 19
2.5564764 2.8322878 -0.066598386 28
2.5287297 2.8222778 0.066144623 18
2.5044539 2.7922406 0.19657388 5
2.5410695 2.8300815 0.3327606 12
2.6810558 2.9817996 0.49235216 20
3.1214502 3.4679408 0.73899657 27
9.029747 10.02152 2.6220973 2
3.1044259 3.4405611 1.0698673 1
7.5376983 8.3450623 3.0131714 16
1.5480065 1.7048204 -0.6170246 22
1.6856521 1.8544577 -0.57857412 39
1.8514886 2.0340469 -0.53464681 38
2.0090139 2.2047842 -0.47243217 25
2.2434645 2.4594932 -0.40874982 13
2.493963 2.7302799 -0.32352212 16
2.8424811 3.108552 -0.2207531 14
2.5761869 2.8143711 -0.066598386 26
2.549715 2.8060365 0.066179529 21
2.5050714 2.7540038 0.19510846 7
2.5339382 2.7828081 0.32927439 13
2.7272205 2.9908793 0.4969832 15
4.946106 5.4185791 1.1619954 5
3.05656 3.3450165 0.88077438 1
nan nan nan nan
3.3483503 3.6553667 1.3282595 3
1.569031 1.7039195 -0.62064809 31
1.6998785 1.8440773 -0.57902408 24
1.8523275 2.0066457 -0.53083062 30
2.0055883 2.1703937 -0.46805197 13
2.2349684 2.4160836 -0.40411878 12
2.5075459 2.7069566 -0.32282487 16
2.899421 3.1267099 -0.22347455 18
2.5862474 2.7860594 -0.066354051 28
2.6234474 2.8469887 0.067575715 4
2.5933011 2.8113184 0.20044672 11
2.4776094 2.6830804 0.31951293 19
2.70895 2.9295006 0.48991477 26
3.1078391 3.3573375 0.72460455 19
3.1692457 3.4200768 0.90634274 12
3.246274 3.4983034 1.1018103 14
3.305418 3.558301 1.3013422 25
1.5663841 1.6773934 -0.61495411 27
1.7100496 1.8293179 -0.57812428 24
1.8542162 1.9807658 -0.52739608 34
1.9477521 2.0785031 -0.45115703 12
2.2612884 2.4105563 -0.40582496 13
2.51547 2.6777675 -0.32143039 28
2.8062475 2.9841735 -0.21468212 33
2.8030107 2.9776061 -0.07138034 18
2.591377 2.7730837 0.066249333 24
2.5992205 2.7785594 0.19940001 5
2.595696 2.7718816 0.33223769 14
2.658726 2.8352201 0.47724038 12
5.0388551 5.3677144 1.1660627 8
3.2118659 3.4178991 0.91168547 38
3.1250494 3.3208652 1.052771 8
3.013587 3.1990612 1.1776267 6
1.5661021 1.6537921 -0.6102953 35
1.7187569 1.813092 -0.57677454 27
1.8666465 1.9663495 -0.52701449 46
2.0030372 2.1078141 -0.46054313 12
2.2794304 2.3961492 -0.40606871 15
2.5272317 2.6529281 -0.32055882 15
2.8504448 2.9890814 -0.21646154 26
2.8623924 2.9984653 -0.072357684 10
2.577662 2.7200894 0.06541162 10
2.5154622 2.6516707 0.19154961 32
2.5491292 2.6843445 0.32387072 24
2.6127932 2.7475417 0.46554092 16
4.9536252 5.2036381 1.1379044 8
3.3101404 3.473562 0.93267435 13
3.3190184 3.4780133 1.1099086 16
3.2346802 3.3860805 1.2547548 3
1.5856383 1.6511788 -0.61340117 24
1.7219192 1.7912146 -0.57362527 24
1.8803298 1.953269 -0.52701449 25
2.0163341 2.0923555 -0.46023026 10
2.2905903 2.3744624 -0.40509373 17
2.5332313 2.6223245 -0.31898999 22
2.8906791 2.9892101 -0.21792693 29
2.9639273 3.0617394 -0.074382156 12
nan nan nan nan
2.5796053 2.6815455 0.19500379 10
2.5608959 2.6593082 0.32299918 11
2.5974617 2.6935112 0.45944747 16
3.170609 3.2844088 0.72304016 9
3.0955601 3.2033083 0.86589122 6
8.8357468 9.1305313 2.933362 2
nan nan nan nan
1.5863438 1.6289971 -0.60926002 35
1.715337 1.7596147 -0.56732661 34
1.885692 1.9316654 -0.52472478 16
2.0212281 2.0683382 -0.45804018 7
2.2890654 2.3399661 -0.40192512 11
2.5431128 2.5960348 -0.31794414 13
2.8597379 2.916193 -0.21405408 22
2.7905092 2.8426187 -0.06953039 23
2.5986407 2.6666496 0.064992763 24
2.6428926 2.7092204 0.19835329 18
2.8090825 2.876564 0.35176057 7
2.8202236 2.8839445 0.49527705 11
3.1437128 3.2113776 0.71177691 12
3.2085376 3.2741666 0.89107805 5
3.2007358 3.2616441 1.0550205 16
3.0717995 3.1269779 1.1745209 9
1.5963202 1.6165081 -0.60874242 26
1.7440197 1.764227 -0.57272542 24
1.8922247 1.9114783 -0.52281672 30
2.0258842 2.0443559 -0.45585006 10
2.2899663 2.3084271 -0.39924401 8
2.5494919 2.5673552 -0.31654966 24
2.8617189 2.8777463 -0.21269335 15
2.8780043 2.8910942 -0.071205825 36
2.6143842 2.645597 0.064922951 30
2.5535879 2.5813704 0.19029355 31
2.6678741 2.6940768 0.33171475 20
2.7703993 2.7937086 0.48309013 31
nan nan nan nan
3.2645316 3.2851076 0.9002369 26
3.2517247 3.2687953 1.0644685 11
3.1808112 3.1930516 1.2076497 24
1.6103007 1.6080544 -0.60977769 25
1.7576745 1.7533841 -0.57317531 28
1.9010209 1.8943958 -0.52167183 31
2.0495536 2.0402732 -0.45804018 7
2.3003948 2.2867858 -0.39826906 5
2.5730083 2.5551095 -0.31724688 13
2.8571343 2.8342896 -0.21091393 54
2.7901473 2.7639761 -0.068553053 13
2.6111019 2.6065495 0.064399377 13
2.5866554 2.5794432 0.19144495 28
2.7713227 2.7597401 0.34217343 11
2.7499459 2.7355864 0.47626543 12
3.2311282 3.210892 0.72147578 16
3.240006 3.2152188 0.88726187 2
3.1083896 3.0813811 1.0104802 52
3.0706961 3.0408289 1.1579564 4
1.6157042 1.5916332 -0.60770714 26
1.770957 1.7427469 -0.57362527 30
1.9212005 1.8879591 -0.5235799 33
2.0468304 2.00931 -0.45428574 7
2.3088207 2.2641253 -0.39705035 4
2.5665853 2.5133851 -0.31428361 19
2.9725103 2.9078488 -0.21792693 17
2.6959126 2.6345074 -0.065795571 26
2.6449111 2.6036885 0.064783335 4
2.6202645 2.5767264 0.19259633 28
2.6649678 2.6179435 0.32683402 13
2.7533889 2.70103 0.47358429 29
3.0093856 2.9490683 0.66734952 22
3.2940817 3.224679 0.89603907 15
3.1911407 3.1195445 1.0302759 12
3.1208751 3.0476615 1.1688268 11
1.6309334 1.584353 -0.60926002 43
1.7788849 1.7262695 -0.57227552 20
1.9357438 1.8758668 -0.52396154 27
2.0593889 1.9935974 -0.45397288 9
2.3288519 2.2520914 -0.39778158 8
1.9978883 1.9293375 -0.24299021 10
2.9079297 2.805213 -0.2117513 33
2.7747154 2.6739011 -0.067261577 23
2.670198 2.5921245 0.064957857 24
2.643925 2.5639324 0.19301502 17
2.5801454 2.4994624 0.31428361 14
2.7493508 2.6596587 0.46968448 22
3.2401328 3.1311476 0.7136541 15
3.1752656 3.065249 0.85787731 18
3.7473779 3.6124883 1.2016886 28
3.652766 3.5175941 1.3588001 24
1.6293987 1.5609019 -0.60460132 25
1.7810369 1.7043781 -0.56912625 28
1.9431152 1.8568815 -0.52243507 23
2.070399 1.9764438 -0.45334715 11
2.3344617 2.2261882 -0.3960754 16
2.579355 2.4571462 -0.31166893 22
2.9520426 2.8082476 -0.21353073 15
2.8223054 2.6820166 -0.067959674 5
2.665117 2.5512946 0.064399377 28
2.6126821 2.4984789 0.18945618 26
2.6738877 2.5543303 0.32352212 15
2.7506166 2.623956 0.46675962 21
3.5236115 3.3578341 0.77090919 19
nan nan nan nan
nan nan nan nan
3.6324069 3.4494379 1.3422357 7
1.6500871 1.5587739 -0.60822481 28
1.7900583 1.6892266 -0.5682264 28
1.9528526 1.840919 -0.52167183 22
2.0809278 1.9595964 -0.45272139 10
2.3528378 2.2125573 -0.39656287 15
2.5978973 2.4404442 -0.31184325 25
2.9536135 2.7716863 -0.21227466 49
3.0102217 2.8208611 -0.072008632 22
nan nan nan nan
2.6659479 2.5149014 0.19207297 3
2.709058 2.5519948 0.32561383 24
2.8016624 2.6364629 0.47236562 10
3.2642856 3.0685868 0.7095868 24
3.6657777 3.4411914 0.97732371 24
3.2182789 3.017941 1.0185785 10
3.1200504 2.9227586 1.1455331 22
1.6493518 1.5369706 -0.60408366 28
1.8029407 1.6783316 -0.56867629 42
1.9311464 1.7951601 -0.51251298 39
1.9830991 1.8415198 -0.4286305 30
2.3765769 2.2045898 -0.39802533 13
2.6100659 2.4186406 -0.3113203 25
2.9347763 2.7157307 -0.20955318 47
2.9441845 2.7215769 -0.069984153 21
2.7454057 2.5565534 0.065481432 23
2.6834416 2.496227 0.19207297 13
2.7643137 2.5687585 0.33014596 9
2.7967169 2.5952361 0.46846578 16
3.0915029 2.8657744 0.66766238 18
3.6386969 3.3694739 0.96396708 15
3.1371782 2.9020097 0.98663539 12
3.1233506 2.8851752 1.1393216 11
1.6571966 1.5228041 -0.60304838 28
1.8117425 1.6630682 -0.5677765 27
1.9447672 1.7833015 -0.51289463 33
2.1019216 1.925383 -0.45146993 9
2.3948383 2.1906254 -0.39851278 15
2.6430664 2.4151437 -0.31323773 19
2.9679451 2.7091565 -0.21059991 40
2.9897146 2.7252042 -0.070612431 13
3.312053 3.0423915 0.078500926 5
2.6930115 2.471153 0.19154961 35
2.9143844 2.670541 0.34583399 31
2.787962 2.552012 0.46407849 11
3.5803502 3.2738953 0.76840615 22
3.4606147 3.1599755 0.91092217 20
3.8599575 3.5209215 1.2061877 12
3.138633 2.8599448 1.1377686 1
1.656073 1.5011094 -0.59890729 28
1.8100197 1.6389254 -0.56372738 33
1.9586266 1.7709967 -0.51327622 24
2.1182444 1.9133089 -0.45209566 9
2.4111686 2.175602 -0.3987565 12
2.6924255 2.4259753 -0.3170726 7
2.9793622 2.6816909 -0.21007656 24
2.985889 2.684737 -0.070088863 19
2.8500521 2.581553 0.067121953 7
2.6835401 2.4281712 0.18966553 21
2.694524 2.4355452 0.31776983 15
2.7762384 2.5058842 0.45920372 18
3.0896456 2.7858369 0.65890205 18
3.5010073 3.1534276 0.91588324 30
3.2281022 2.903537 1.002382 12
3.1728926 2.8508749 1.1429449 23
1.6593103 1.4830743 -0.59631914 33
1.8097882 1.6158662 -0.56012815 34
1.9621499 1.7494417 -0.51098651 25
2.1197493 1.8879635 -0.44959271 9
2.4070184 2.1415622 -0.39558792 15
2.7256813 2.4216747 -0.31898999 3
3.0174317 2.6780593 -0.21143727 15
3.0285013 2.6850502 -0.070647344 22
2.8217711 2.5202985 0.066039905 16
2.7048976 2.4133666 0.18997954 16
2.70105 2.4073949 0.31654966 10
2.7995956 2.4917219 0.4601787 10
3.1592104 2.8088269 0.66953957 28
3.3233027 2.951606 0.86398321 32
3.2555833 2.8873949 1.0046314 16
3.2910445 2.9157686 1.1781443 4
1.6768703 1.4778404 -0.59890729 35
1.8239505 1.6057676 -0.561028 30
1.9610449 1.7240341 -0.50755197 33
2.1210029 1.8626919 -0.44708973 11
2.4054952 2.1103067 -0.39290681 17
2.7320309 2.3933966 -0.31776983 9
3.0646114 2.6819189 -0.21342604 22
3.0426562 2.6598938 -0.070542626 21
3.1664469 2.7886541 0.073649161 15
2.7741654 2.4405961 0.19364306 10
2.8001041 2.4608164 0.32613677 10
2.7572422 2.4197409 0.45042911 7
3.3970957 2.978126 0.71553135 39
nan nan nan nan
nan nan nan nan
1.9422718 1.6967423 0.69104689 4
1.6929789 1.4711671 -0.60097784 30
1.8351157 1.5929958 -0.561028 34
1.9552315 1.6948702 -0.50297254 10
2.1294756 1.8439599 -0.44615117 11
2.4441905 2.1142404 -0.3968066 12
2.7230401 2.3521256 -0.31480655 10
3.1150143 2.687861 -0.21562417 21
3.1050758 2.676451 -0.071554869 13
2.9774754 2.5855446 0.068832293 11
2.8303621 2.4551978 0.19636452 11
2.7630084 2.3942378 0.31986156 24
2.8371162 2.4549868 0.46066615 13
3.2698553 2.8264477 0.68455732 12
3.2988093 2.8484595 0.84719193 18
1.9702635 1.6988875 0.60061932 6
1.9423602 1.6730551 0.68690574 5
1.6914728 1.4492555 -0.59683669 26
1.8476733 1.5814116 -0.56147784 28
1.9714928 1.6850064 -0.50411743 13
2.1212637 1.8110924 -0.44177097 12
2.4543602 2.0932608 -0.3960754 11
2.7363613 2.3304744 -0.31445792 13
3.1823816 2.7074625 -0.21897365 19
3.3735797 2.8670845 -0.077279255 17
2.9681115 2.541285 0.068204008 12
2.918771 2.4963927 0.20128411 3
2.7463303 2.3464172 0.31602672 22
3.2981691 2.8139181 0.53232533 28
3.2489138 2.7689567 0.67610979 12
1.9941581 1.6977626 0.50907844 7
1.9850463 1.6876144 0.60151911 6
1.9628289 1.6669565 0.69001162 9
1.6867918 1.4249449 -0.59166032 28
1.8527114 1.5634468 -0.55967826 48
1.9817077 1.6699356 -0.50373578 12
2.1489689 1.8089591 -0.44489968 10
2.1954346 1.84611 -0.35220242 12
2.7418833 2.3023455 -0.31323773 15
3.1201041 2.6171515 -0.21342604 33
3.1421428 2.6328359 -0.071554869 6
2.8513122 2.4069901 0.06513238 1
2.9040632 2.4489179 0.199086 27
2.7915969 2.3515759 0.31933865 33
nan nan nan nan
2.0174611 1.6952527 0.41736722 7
1.9984435 1.6774882 0.50717038 5
2.0042462 1.6799753 0.60376865 7
1.9907109 1.6668562 0.69570565 9
1.7159956 1.4292073 -0.59838963 26
1.8500987 1.539257 -0.55562913 39
1.9827472 1.647278 -0.50106448 10
2.1417847 1.7775126 -0.44083238 38
2.4466705 2.0283813 -0.39022568 11
2.752888 2.2798164 -0.31271479 22
3.1937082 2.6411271 -0.21719423 19
2.9446111 2.4325345 -0.06666819 17
3.0893753 2.571233 0.070158668 22
2.8089759 2.3353732 0.19144495 30
nan nan nan nan
2.0230627 1.6777905 0.32271007 8
2.0307679 1.682387 0.41768005 6
2.0312805 1.6810191 0.51251298 8
2.0201409 1.670019 0.60511833 9
1.9769722 1.6320101 0.68690574 5
1.7184663 1.4110628 -0.59580147 25
1.8698393 1.5337194 -0.55832857 27
1.9817643 1.6237901 -0.4980115 9
2.1538334 1.7628936 -0.44083238 31
2.2870882 1.8692951 -0.36268318 7
2.7872572 2.2756627 -0.31480655 10
3.200778 2.610491 -0.21646154 17
2.9475667 2.4005525 -0.066354051 24
2.9553304 2.425808 0.066738002 10
nan nan nan nan
2.0564556 1.6837888 0.23253153 7
2.0513384 1.6778057 0.32539117 6
2.0574698 1.6810232 0.42080876 7
2.0399239 1.6643161 0.51174974 6
2.0211766 1.6472571 0.60196906 5
1.9895333 1.6197352 0.68742341 9
1.7130187 1.3871745 -0.59062505 30
1.8696307 1.5123763 -0.55517924 12
1.9899986 1.607447 -0.49724829 10
2.1645517 1.7465725 -0.44051951 28
2.2085724 1.7801845 -0.3483026 12
2.7891064 2.2449067 -0.31323773 15
3.2220364 2.5905864 -0.21667089 12
nan nan nan nan
2.095458 1.6956587 0.047051687 2
2.0704925 1.6736633 0.13952768 9
2.0818195 1.6810179 0.23410031 6
2.0738189 1.6721656 0.32709733 8
2.056848 1.6567055 0.41830578 5
2.0450873 1.6454681 0.51022327 4
2.0174358 1.6209009 0.59747005 7
3.3688047 2.7037518 1.1574388 1
1.7120922 1.3667457 -0.58700162 26
1.8892844 1.5065777 -0.55787861 35
2.0057797 1.5971839 -0.49839315 10
2.1705084 1.7264997 -0.43926802 36
2.1852 1.7363187 -0.34269661 28
2.8312449 2.2464314 -0.31620103 13
2.1568992 1.7095371 -0.14423791 5
2.1071212 1.6682879 -0.04691207 7
2.0869229 1.664777 0.046597924 6
2.0899365 1.6653912 0.14005104 6
2.098181 1.6701657 0.23462325 8
2.0901036 1.6613537 0.32782856 6
2.0559871 1.6324798 0.41580287 6
2.0549862 1.6299317 0.50984168 6
3.3944106 2.688448 0.99968255 7
3.6860588 2.9163001 1.2594135 13
1.7185558 1.3523705 -0.58596635 26
1.8829038 1.480104 -0.55292976 39
2.015336 1.5819309 -0.4980115 10
2.1809537 1.7100871 -0.43895519 31
2.2050817 1.7271425 -0.34391531 55
2.1626084 1.6914386 -0.24020122 7
2.153043 1.6821411 -0.14319119 5
2.1470923 1.6756824 -0.047540355 7
2.120502 1.6674712 0.047086593 7
2.1187899 1.6643304 0.14120242 10
2.1019535 1.6493263 0.2337517 6
2.0797753 1.6295811 0.32441622 6
2.0766673 1.6253917 0.41768005 6
nan nan nan nan
3.4069512 2.6598895 0.99788296 36
3.9256907 3.0615752 1.3339534 28
1.737114 1.3474439 -0.58907217 19
1.8716247 1.4502124 -0.5466311 30
2.0232255 1.5654198 -0.49724829 10
2.1615796 1.6706593 -0.43269777 24
2.1935165 1.6935091 -0.34025922 7
2.1790972 1.67995 -0.24072415 3
2.1789749 1.6780375 -0.14413324 8
2.1650774 1.6655301 -0.047679976 10
2.139993 1.658753 0.047261119 8
2.1050892 1.6299347 0.13952768 4
2.0913517 1.6175474 0.23131134 6
2.0848174 1.6101671 0.32344127 7
nan nan nan nan
3.7321155 2.8761907 0.91588324 15
3.5474439 2.7299292 1.0334252 34
3.4139671 2.6243675 1.1538154 22
1.7480133 1.3364571 -0.58958983 15
1.8878986 1.441842 -0.54843074 31
2.0341048 1.5512568 -0.49724829 15
2.2046177 1.6794692 -0.43895519 11
2.1958077 1.6709416 -0.33879682 7
2.2063434 1.6771356 -0.24246727 6
2.2017729 1.6712373 -0.14486594 6
2.1591244 1.6370844 -0.047296021 5
2.1435761 1.6377026 0.047086593 5
2.1068907 1.6079285 0.13889964 9
2.1216071 1.6174027 0.23340309 4
2.98527 2.2725208 0.46066615 19
3.1872623 2.4236517 0.63418543 30
3.5816951 2.7206268 0.87428689 41
3.5379996 2.6845162 1.025327 54
3.4814804 2.6378012 1.1703798 35
1.7418724 1.3125949 -0.58441341 13
1.9057032 1.4344866 -0.55068022 48
2.0367711 1.5314758 -0.4953402 16
2.238111 1.6810324 -0.44333532 10
2.2360048 1.6770103 -0.34318411 7
2.2052417 1.6521347 -0.24107277 4
2.2035031 1.6490315 -0.14423791 5
2.1592879 1.6135919 -0.047051687 7
2.1498814 1.6194651 0.046981879 6
2.1513004 1.6187694 0.14109775 1
3.0137014 2.2643969 0.32979733 31
3.0419486 2.2831299 0.46700338 14
3.2416179 2.4303393 0.64169425 28
3.9133549 2.9296954 0.95022881 16
3.800112 2.8418138 1.0955118 13
4.0534306 3.0279436 1.3556943 13
1.7414616 1.2937962 -0.58130759 12
1.9060333 1.4145144 -0.54798079 26
2.0537224 1.5218946 -0.49686664 9
2.2386785 1.6571395 -0.44114524 16
2.2441757 1.6593909 -0.34269661 6
2.1907947 1.6181463 -0.2382838 4
2.214962 1.633608 -0.14423791 5
3.5837629 2.6402485 -0.077698112 21
3.1132557 2.3112648 0.067680433 29
3.0946283 2.2949231 0.20191215 21
3.0082324 2.2284133 0.32753128 25
3.0753679 2.2748244 0.46968448 14
3.1933661 2.3595212 0.62886661 22
4.2064772 3.1046844 1.0162487 8
3.8209374 2.8170359 1.0959616 42
3.6839809 2.7120979 1.225767 64
1.748893 1.2804658 -0.58078998 12
1.9158627 1.4011725 -0.54798079 32
2.0592782 1.5044057 -0.49572179 10
2.2355449 1.6313828 -0.4383294 9
2.2524962 1.6413461 -0.34220913 5
2.2117021 1.6098481 -0.23932965 4
3.3374286 2.4265671 -0.21625218 21
3.7849646 2.7479203 -0.081642359 10
3.6194718 2.6490548 0.078291491 13
3.4084566 2.4918756 0.22127645 11
3.1170509 2.2754931 0.33764133 7
3.0699306 2.2386317 0.46651587 12
3.2077575 2.3365653 0.62855375 21
3.8263609 2.7830763 0.91969937 23
4.2204614 3.066345 1.204388 10
3.843071 2.7890818 1.2723545 18
1.7593569 1.2693545 -0.58130759 11
1.9082074 1.37523 -0.54303187 34
2.0747707 1.4930725 -0.49686664 10
2.243953 1.6130391 -0.43770367 9
2.405798 1.727468 -0.36365816 3
2.9356146 2.1047971 -0.31602672 7
3.3563313 2.4037857 -0.21635687 33
3.6349134 2.6004269 -0.078012258 6
nan nan nan nan
3.1344717 2.257329 0.20243551 32
3.1409466 2.2594955 0.3385129 41
3.0858712 2.2166066 0.46651587 16
3.2837796 2.3561602 0.64012986 37
4.0212274 2.882102 0.96167743 23
3.822345 2.7355216 1.085164 1
3.768636 2.6941013 1.2412962 42
1.7666007 1.2559226 -0.58078998 12
1.9177612 1.3618755 -0.54303187 34
2.0803401 1.4751439 -0.49572179 10
2.2857878 1.6190265 -0.44364822 12
2.5895731 1.8321627 -0.38949445 9
2.8102925 1.9853847 -0.30103594 6
3.3665037 2.3756895 -0.21593818 21
4.0485163 2.8537979 -0.086459227 13
3.5212519 2.5014999 0.075394399 2
3.1501544 2.2353911 0.20243551 33
3.242794 2.2985775 0.34775141 18
3.0834467 2.1823957 0.46383476 28
3.3082125 2.3388813 0.64169425 19
4.0123825 2.8335745 0.95480824 16
9.5460396 6.7314949 2.6967134 1
3.7873528 2.6677256 1.2412962 15
1.7753257 1.2435588 -0.58078998 13
1.9352057 1.3540398 -0.54528135 37
2.08254 1.4549633 -0.49381369 10
2.2937944 1.6007694 -0.44302243 10
2.5957863 1.8095 -0.3885195 6
2.9679878 2.0658791 -0.31637534 9
3.3862879 2.3544075 -0.21614751 22
3.6183102 2.512918 -0.076895304 21
3.4550791 2.418375 0.073614255 10
3.1574991 2.2076223 0.20191215 12
3.2718306 2.2850072 0.34914589 12
3.1230316 2.1778481 0.46749085 33
3.2936633 2.294276 0.63574976 28
4.2125592 2.9310794 0.99754947 15
4.0826221 2.8364391 1.1477003 35
4.0788674 2.8306653 1.33033 12
1.7776041 1.2267451 -0.57871938 20
1.931776 1.3316485 -0.54168218 19
2.0942643 1.4415022 -0.49419534 10
2.3000309 1.5813594 -0.44208387 9
2.6083558 1.7913339 -0.3885195 6
2.9724791 2.0383477 -0.31532949 9
3.4125288 2.3374813 -0.21677555 10
4.1176734 2.8173184 -0.087087512 9
3.6381462 2.5088527 0.077139638 2
5.5561609 3.8272178 0.35358176 2
3.2318952 2.2237134 0.34321931 27
3.1512492 2.1649849 0.46944076 31
3.33566 2.2891097 0.64075565 28
nan nan nan nan
3.9849305 2.7275195 1.1148576 60
4.1144762 2.8130257 1.3355063 10
1.7813315 1.2110476 -0.5771665 12
1.9216797 1.304992 -0.53628331 17
2.1186502 1.4371324 -0.49762988 10
2.3093793 1.5641557 -0.44177097 7
2.6240864 1.7753053 -0.38900697 8
2.9829824 2.0158377 -0.31498083 7
3.4283593 2.3142004 -0.21677555 10
3.6592445 2.4672639 -0.07703492 8
3.6770761 2.4980006 0.077593401 1
3.3995578 2.3068697 0.21531016 9
3.2621837 2.2111568 0.3447881 31
3.1675563 2.1445978 0.46968448 29
3.3462553 2.2630317 0.63981706 18
20.669874 13.957752 4.8480754 8
4.0809526 2.7526362 1.1364528 21
4.1191101 2.7752371 1.3308476 6
1.7927443 1.2010442 -0.57820177 12
1.9337569 1.2940489 -0.53718311 11
2.1218548 1.418314 -0.49610341 10
2.3180592 1.5477079 -0.44145811 9
2.6209397 1.7479498 -0.38681334 9
2.5107388 1.6719239 -0.26390758 11
3.4573359 2.2996597 -0.21761292 3
3.6776199 2.4434061 -0.077069834 14
3.4991651 2.3433714 0.073509537 10
3.4164426 2.2853825 0.21541482 5
3.3119512 2.2121415 0.34844866 23
3.2151062 2.1450229 0.47455928 23
3.3451447 2.2292459 0.63668835 22
nan nan nan nan
4.078023 2.7114828 1.130604 14
4.1974535 2.7866714 1.3500001 27
1.7974464 1.1869985 -0.5771665 13
1.9357902 1.2769032 -0.53538352 10
2.1265409 1.4005983 -0.49495855 10
2.3351417 1.5362363 -0.44270959 9
2.6281004 1.7263412 -0.38608211 8
2.9968204 1.9663002 -0.31358635 7
3.4499173 2.2601442 -0.21614751 10
3.7447863 2.4505205 -0.078116976 19
5.6597714 3.7347705 0.11836223 8
3.8037932 2.5071895 0.23875666 46
3.3419116 2.1994028 0.35001746 20
3.2329509 2.125268 0.47504675 37
3.4477549 2.2638907 0.65327036 18
20.857964 13.675085 4.8480754 8
3.9501286 2.5868621 1.0901129 16
4.1957879 2.7435534 1.3432709 30
1.7896979 1.1635758 -0.57199007 12
1.9334376 1.2555888 -0.53223425 11
2.1332138 1.3832101 -0.49419534 10
2.3527071 1.5237824 -0.44396105 9
2.6370525 1.7053347 -0.38559461 8
3.0141625 1.9469657 -0.31393498 9
3.5163555 2.2678745 -0.21928766 10
4.1421471 2.6684093 -0.086005464 15
5.5706463 3.6190054 0.1159538 3
3.7864525 2.4570744 0.23655853 13
3.4211042 2.2166009 0.35664126 23
3.3330693 2.1570845 0.48747739 12
3.4107807 2.2048447 0.64325857 24
nan nan nan nan
4.6007528 2.96612 1.2637751 3
6.8582067 4.4147329 2.185468 8
1.7979784 1.1507392 -0.57199007 12
1.9522243 1.248019 -0.53493363 9
2.1463668 1.3700223 -0.49495855 10
2.3518906 1.4994752 -0.44177097 9
2.6555915 1.6911484 -0.38656959 8
3.0145671 1.9167947 -0.3125405 9
2.6334817 1.6725482 -0.16349754 7
4.1133947 2.6094329 -0.085028127 11
5.5896621 3.5747402 0.11581416 14
5.869174 3.7491677 0.36499101 7
3.4499314 2.2012382 0.3580358 16
3.3517685 2.1353118 0.4879649 28
3.4881341 2.2196195 0.65483475 18
7.0103259 4.4557567 1.6146259 4
6.9270315 4.3960285 1.8940879 10
4.154201 2.6332867 1.3179066 3
1.8059677 1.1381598 -0.57199007 12
1.9460461 1.2250171 -0.5308845 9
2.1542175 1.3539587 -0.49457693 9
2.3606291 1.4819678 -0.44145811 9
2.6706975 1.6746756 -0.38705707 8
3.0312519 1.8978183 -0.3128891 7
2.6315463 1.6456517 -0.16266017 21
3.7210732 2.3242841 -0.076581158 21
5.5637183 3.5036623 0.11476702 14
5.7193804 3.5975075 0.35410511 15
3.5293231 2.2173767 0.36465961 10
3.4136796 2.1413965 0.4947896 13
3.5152626 2.2025557 0.65702486 19
6.997993 4.3796272 1.6047038 5
6.939374 4.3362021 1.8891392 4
6.8388753 4.2684264 2.1601038 12
1.8171527 1.1275612 -0.57302535 12
1.9578637 1.2134546 -0.5317843 10
2.165287 1.3399197 -0.49495855 10
2.3759587 1.4685675 -0.4423967 9
2.6623411 1.6430115 -0.38413221 8
3.0512125 1.8807905 -0.31358635 7
nan nan nan nan
4.1634998 2.5594015 -0.08530736 15
5.6288314 3.4900248 0.11560474 9
5.7341676 3.5511811 0.35347709 18
5.9541764 3.6831212 0.61253053 11
5.72719 3.5371873 0.826518 21
5.783381 3.5677097 1.0762693 8
6.9957213 4.308846 1.5970714 5
4.6258473 2.84584 1.2538773 12
6.8421721 4.2043953 2.1518216 12
1.823526 1.1135222 -0.57250774 12
1.9664969 1.1994133 -0.5317843 10
2.161175 1.3166001 -0.4919056 9
2.3864069 1.4515278 -0.4423967 7
2.6805329 1.6285075 -0.38510716 8
3.0710816 1.8635775 -0.31428361 7
3.6043086 2.1837087 -0.22085775 7
4.177846 2.5282001 -0.085237555 7
5.6223378 3.4318869 0.11497645 16
5.8839335 3.5859339 0.36111811 7
5.7829628 3.5202465 0.59231043 33
5.5973926 3.4032698 0.80433774 21
5.6702986 3.4421782 1.050614 17
6.9819818 4.2334404 1.5871494 4
6.8975592 4.1773133 1.8616949 8
6.8406734 4.1363335 2.1419864 12
1.8097308 1.087826 -0.56577843 11
1.9948713 1.1976924 -0.53718311 9
2.1671731 1.2990826 -0.49114239 11
2.4066505 1.4409218 -0.44427395 7
2.6730952 1.5985483 -0.38242605 9
3.0566483 1.8257463 -0.31149462 6
3.5731516 2.1308701 -0.21803163 12
2.6904125 1.6025347 -0.054660939 1
5.5250363 3.3184686 0.11249821 13
5.9499283 3.5694313 0.36363026 26
5.8689256 3.5166523 0.59858567 17
5.7408481 3.4344678 0.82139945 27
5.5975356 3.3447526 1.0327804 21
6.9877648 4.170507 1.5818065 5
6.9349232 4.134047 1.8639445 6
6.9225044 4.1200967 2.158551 9
1.8122927 1.0722151 -0.56422555 12
1.9964736 1.1797708 -0.53538352 10
2.179347 1.2862968 -0.4919056 12
2.3959825 1.4124687 -0.44051951 9
2.6859009 1.5808547 -0.38266978 8
3.0624497 1.8003236 -0.31079736 6
3.5858495 2.1054895 -0.21792693 7
4.224813 2.4767027 -0.08548189 3
5.566432 3.2919786 0.11288217 6
7.143455 4.2195811 0.43480718 11
5.8469949 3.4482691 0.59387922 28
5.7623825 3.3943038 0.82115573 7
5.8006454 3.4127526 1.0659446 14
7.0336404 4.1315622 1.5856228 4
7.024127 4.1210284 1.8801411 6
6.9770594 4.0885053 2.1668332 66
1.8295655 1.0656877 -0.56733137 12
1.9943511 1.160274 -0.53268409 11
2.1848786 1.2690786 -0.49114239 12
2.3972418 1.3907509 -0.43895519 10
2.7137752 1.572488 -0.38510716 5
3.0852909 1.7848859 -0.31184325 7
3.6350479 2.1003888 -0.22002037 7
4.2173262 2.4338944 -0.084993221 20
5.5357013 3.2218549 0.11180011 9
7.0708632 4.1103859 0.42863154 8
5.8255324 3.3823793 0.58934712 28
nan nan nan nan
5.7405629 3.3236744 1.050614 24
nan nan nan nan
nan nan nan nan
7.0121241 4.04356 2.1689036 100
