# .PCD v0.7 - Point Cloud Data file format
VERSION 0.7
FIELDS x y z intensity
SIZE 4 4 4 4
TYPE F F F F
COUNT 1 1 1 1
WIDTH 1439
HEIGHT 1
VIEWPOINT 0 0 0 1 0 0 0
POINTS 1439
DATA ascii
6.4317269 -2.1046977 1.3154373 4
4.9587812 -1.626529 1.2048379 38
6.3244796 -2.07816 1.7837809 2
1.9565849 -0.64859432 -0.55231988 12
2.1379466 -0.709957 -0.52008688 9
2.3564126 -0.78433102 -0.48274681 10
2.6179109 -0.87289339 -0.43707794 9
2.9861836 -0.99742472 -0.38656959 6
3.3932183 -1.1360135 -0.31306344 3
3.9386992 -1.3209285 -0.2177176 5
4.4716778 -1.5022799 -0.082340457 3
5.1983566 -1.7252332 0.095604278 12
nan nan nan nan
nan nan nan nan
nan nan nan nan
nan nan nan nan
nan nan nan nan
4.9565415 -1.6642092 1.2070874 61
6.298831 -2.118567 1.7806751 2
1.9538386 -0.66285861 -0.55283749 12
2.1292479 -0.72361124 -0.51918709 9
2.3545966 -0.80202866 -0.48351002 9
2.6229706 -0.89497584 -0.43895519 9
2.9716337 -1.0156796 -0.38559461 6
3.4021688 -1.1654861 -0.31463224 4
3.9369378 -1.3509864 -0.2181363 5
4.4762096 -1.5386615 -0.082619689 5
5.197547 -1.7653414 0.095813714 16
nan nan nan nan
nan nan nan nan
nan nan nan nan
nan nan nan nan
nan nan nan nan
4.9669189 -1.7063694 1.2124863 87
nan nan nan nan
1.9564637 -0.67901629 -0.55490804 12
2.1259849 -0.73909837 -0.51963699 9
2.3656254 -0.82426089 -0.48694456 7
2.6166587 -0.91326571 -0.43895519 9
2.9719663 -1.0390211 -0.38656959 6
3.4092 -1.1938847 -0.31602672 4
3.919872 -1.3757926 -0.2177176 5
4.4766779 -1.5738528 -0.082829125 3
5.1869845 -1.8022399 0.095848612 15
nan nan nan nan
6.3438678 -2.2116516 0.58777833 1
6.2778654 -2.193558 0.81652468 10
6.2609119 -2.1913135 1.050614 16
6.1954112 -2.1720302 1.2761306 2
4.9625435 -1.7427213 1.2142859 87
nan nan nan nan
1.9625993 -0.69653523 -0.55801392 11
2.1299541 -0.75718611 -0.52188647 9
2.3451641 -0.83507538 -0.48389161 7
2.6196842 -0.9343735 -0.44051951 7
2.9534247 -1.0557349 -0.38510716 6
3.3970306 -1.2163129 -0.31567809 3
3.9310961 -1.4098588 -0.21886899 5
4.4693446 -1.60642 -0.08289893 5
5.1934414 -1.8441961 0.096197665 16
5.1560407 -1.8339558 0.28680107 22
5.117794 -1.8243774 0.47534743 1
nan nan nan nan
nan nan nan nan
6.2004261 -2.2225161 1.2803285 2
4.9465876 -1.7760066 1.2133861 87
6.0516911 -2.1763568 1.7232174 25
1.9487319 -0.70658535 -0.5554257 12
2.1265824 -0.77233171 -0.52233636 9
2.3374321 -0.85075569 -0.48351002 9
2.6168091 -0.95399261 -0.44114524 9
2.9536288 -1.078537 -0.38608211 8
3.396157 -1.2421449 -0.31637534 4
3.9305346 -1.4407053 -0.21939236 5
4.4658155 -1.6395614 -0.083038554 3
5.1917186 -1.8845017 0.096407093 21
5.1431117 -1.8699067 0.28680107 42
5.1183619 -1.8639432 0.4765676 50
nan nan nan nan
nan nan nan nan
nan nan nan nan
4.9417028 -1.8123194 1.2151858 85
nan nan nan nan
1.9419399 -0.71950155 -0.55490804 12
2.1302736 -0.79054916 -0.52458584 10
2.3426285 -0.87075037 -0.4857997 10
2.6121061 -0.97247154 -0.44145811 9
2.9571865 -1.1032941 -0.38754454 8
3.3799374 -1.2630345 -0.31567809 4
3.9262486 -1.4695264 -0.21970637 5
4.46175 -1.6735076 -0.08317817 5
5.1768956 -1.9191015 0.096372187 21
5.1321368 -1.9055663 0.28690574 42
5.1164284 -1.9037992 0.47761348 57
5.0687938 -1.8890966 0.66418797 60
5.0318966 -1.8783468 0.85069072 64
4.990519 -1.8668715 1.0357113 72
4.9490037 -1.8542956 1.2201346 80
nan nan nan nan
1.9424182 -0.73475355 -0.55646098 12
2.1211987 -0.80365032 -0.52368605 10
2.3383281 -0.88778049 -0.48618135 9
2.5923288 -0.98576885 -0.43926802 7
2.9607387 -1.1276368 -0.38900697 8
3.3784831 -1.2894416 -0.31637534 3
3.9270871 -1.5011796 -0.2203344 3
4.4764004 -1.7138486 -0.083666839 5
5.174593 -1.959445 0.096581623 9
5.1056361 -1.9363909 0.28617305 22
5.0940385 -1.9350436 0.47674191 38
5.0517716 -1.9230247 0.66370046 60
5.0241985 -1.9155409 0.85162932 69
4.986866 -1.904299 1.0376194 70
4.9468584 -1.8929796 1.222834 80
4.8831606 -1.8715366 1.4012463 84
1.9426477 -0.75038451 -0.55801392 12
2.1082666 -0.81562686 -0.52188647 9
2.3375649 -0.90621233 -0.4873262 10
2.5964324 -1.0081326 -0.44114524 6
2.9527941 -1.1482788 -0.38900697 6
3.3842504 -1.3187835 -0.31776983 3
3.9034872 -1.523476 -0.21960169 5
4.4568768 -1.7421457 -0.083527215 5
5.1645169 -1.9969647 0.096651427 13
5.0938559 -1.9727088 0.28627771 5
5.0971231 -1.9770436 0.4783107 42
5.0363727 -1.9575264 0.66345674 56
5.0217481 -1.9548692 0.85350657 63
4.9789376 -1.9412066 1.0387642 66
4.9335222 -1.9274689 1.222834 78
4.8825693 -1.9105093 1.4048699 87
1.9463477 -0.76747167 -0.56060207 11
2.1079588 -0.83247274 -0.52323622 9
2.3348322 -0.92395413 -0.48808944 10
2.6040223 -1.0320569 -0.44364822 7
2.948396 -1.1703298 -0.38949445 8
3.3934741 -1.3497413 -0.31951293 4
3.8964677 -1.5521685 -0.21981104 5
4.4743233 -1.7850739 -0.084085695 5
5.1616101 -2.0373759 0.096860856 13
5.1189647 -2.0236416 0.28847581 28
5.0980167 -2.0184474 0.47970518 34
5.0410357 -1.9999593 0.66589415 56
5.0098138 -1.990609 0.85381943 60
4.9689131 -1.9773705 1.0395275 66
4.9253759 -1.9640294 1.2241838 77
4.8709064 -1.9452659 1.4053875 74
1.9319813 -0.777435 -0.55801392 10
2.1111331 -0.85081083 -0.52548569 9
2.3228638 -0.93802631 -0.48694456 10
2.593091 -1.0487299 -0.44302243 7
2.9475133 -1.1938658 -0.39046943 5
3.3765841 -1.3704021 -0.31881571 4
3.9262421 -1.5958782 -0.22211383 5
4.4580479 -1.814759 -0.084015884 5
5.1583905 -2.0778439 0.097070284 13
5.1102691 -2.0615709 0.28878984 38
5.0838013 -2.0539889 0.47970518 50
5.0343108 -2.0380831 0.6668691 62
5.0049486 -2.0292466 0.85538375 69
4.9731774 -2.0193982 1.0433437 72
4.9223752 -2.0027735 1.2268832 71
4.8750978 -1.9865135 1.4105638 81
1.9247196 -0.79017001 -0.55749625 11
2.1159558 -0.86997467 -0.52818507 10
2.318074 -0.9549678 -0.4873262 10
2.5820544 -1.0653006 -0.4423967 7
2.9427762 -1.2159302 -0.39095688 6
3.3598139 -1.3903066 -0.31811845 4
3.9039357 -1.6186596 -0.22148579 5
4.463738 -1.8535061 -0.084364928 5
5.2084947 -2.1404085 0.098291956 1
nan nan nan nan
nan nan nan nan
5.0272989 -2.0762103 0.66784412 23
4.9961357 -2.0664029 0.85632241 66
4.9625854 -2.0555704 1.0441068 79
4.9176288 -2.0399659 1.2291327 80
4.8611107 -2.0204992 1.4105638 91
1.9298481 -0.80806452 -0.56060207 12
2.1026423 -0.88171107 -0.52638549 9
2.31514 -0.97224444 -0.48808944 10
2.582027 -1.0859144 -0.44364822 7
2.9451919 -1.24107 -0.39241934 5
3.364711 -1.4199257 -0.31951293 4
3.9038653 -1.6498603 -0.22211383 5
4.4783111 -1.8963196 -0.08488851 1
5.2306933 -2.1912651 0.098990053 1
6.2950654 -2.641032 0.35776863 4
nan nan nan nan
nan nan nan nan
nan nan nan nan
nan nan nan nan
4.9140358 -2.0788028 1.231832 12
4.8596964 -2.0588157 1.4141873 53
1.9243032 -0.82118177 -0.56060207 12
2.0930083 -0.89447123 -0.52548569 9
2.3191249 -0.99302018 -0.49037915 10
2.5925381 -1.1116989 -0.4467769 7
2.9549158 -1.2689211 -0.39485672 5
3.3620369 -1.4465307 -0.32021019 3
3.8995891 -1.6802351 -0.22253251 5
4.4708076 -1.9291351 -0.084993221 3
5.2667584 -2.2497227 0.099967383 1
6.2966733 -2.6935558 0.35892001 7
nan nan nan nan
9.0569487 -3.8874276 1.2101626 1
9.0450764 -3.8879418 1.5593389 1
nan nan nan nan
nan nan nan nan
nan nan nan nan
1.9291524 -0.83921969 -0.56370795 12
2.1010051 -0.91528755 -0.52908486 9
2.3139348 -1.0099716 -0.49076074 10
2.5774736 -1.1266062 -0.44552541 7
2.9350743 -1.2847433 -0.39339426 6
3.3555055 -1.4715672 -0.32055882 4
3.9151938 -1.7194649 -0.22410259 5
4.4645524 -1.9635199 -0.085132837 3
5.2582574 -2.2896297 0.100107 1
6.2813778 -2.7390459 0.35912937 21
nan nan nan nan
8.8840971 -3.8869071 1.1906636 1
8.8078299 -3.8590357 1.523046 1
8.7589617 -3.843092 1.8592429 1
6.1190448 -2.6898952 1.5431643 100
nan nan nan nan
1.9197141 -0.85110104 -0.56267262 12
2.0910017 -0.92835146 -0.52818507 9
2.2978587 -1.0221117 -0.48885265 10
2.5803723 -1.1493955 -0.44740263 7
2.9296594 -1.3068198 -0.39388174 6
3.3560646 -1.4998344 -0.32160467 4
3.8939795 -1.7426769 -0.22357923 5
4.450736 -1.9946404 -0.085132837 3
5.2787013 -2.3425057 0.1008051 1
6.3332839 -2.8144631 0.36321157 7
nan nan nan nan
8.6065445 -3.837281 1.1570276 1
8.5642252 -3.8237896 1.4855019 1
8.6100445 -3.8496559 1.833293 1
6.1179013 -2.7405148 1.5476633 100
8.4148111 -3.7747068 2.4712043 2
1.9102046 -0.86289173 -0.56163734 12
2.0933475 -0.94694263 -0.53043461 9
2.2960317 -1.04056 -0.48999751 10
2.5632915 -1.1633 -0.44583827 9
2.9240792 -1.3288833 -0.39436921 8
3.3418856 -1.5215763 -0.32125604 4
3.9035256 -1.779762 -0.22483528 5
4.4548931 -2.0339687 -0.08548189 3
5.2913723 -2.3924823 0.10136358 1
6.3353138 -2.8684945 0.36446762 7
nan nan nan nan
8.3482027 -3.7921848 1.1258291 1
8.3575125 -3.8016937 1.4542149 1
8.4007225 -3.8266592 1.7943679 1
6.1163487 -2.7912493 1.5521623 100
8.3531122 -3.8173018 2.4608517 2
1.9146638 -0.88105178 -0.56474322 12
2.0849159 -0.96071815 -0.52998471 8
2.2976239 -1.060678 -0.4919056 10
2.5586936 -1.1828244 -0.446464 9
2.9219363 -1.3526003 -0.3953442 8
3.3347962 -1.5465462 -0.32160467 4
3.903686 -1.8128591 -0.22556801 3
4.4478374 -2.0683928 -0.085621506 3
5.2745404 -2.4293644 0.10136358 1
6.335084 -2.9218545 0.36561903 7
nan nan nan nan
7.7504225 -3.5861237 1.0485638 1
7.7321281 -3.5825751 1.3497167 1
8.1743412 -3.7926691 1.7516266 1
6.1055493 -2.8379881 1.5544119 100
8.1371069 -3.7874811 2.4049468 2
1.9084662 -0.89439708 -0.56474322 12
2.0711014 -0.97193855 -0.52818507 9
2.3008232 -1.0817043 -0.49419534 10
2.5628843 -1.2065482 -0.44865409 7
2.9052401 -1.3695803 -0.39436921 6
3.3383307 -1.5765961 -0.32299918 4
3.8981571 -1.8434829 -0.22598669 3
4.458591 -2.1113758 -0.086110167 3
5.2791772 -2.4763186 0.10178243 1
6.3199544 -2.9685571 0.36593303 4
nan nan nan nan
7.5510135 -3.5580676 1.0249213 1
7.5711555 -3.5724041 1.3259387 1
7.5317087 -3.5586143 1.6192051 1
6.0979176 -2.8863797 1.5575612 100
7.5588293 -3.5827312 2.2413731 2
1.9126366 -0.9126907 -0.56784898 12
2.0712988 -0.98973441 -0.52998471 9
2.2843614 -1.0935023 -0.49228725 9
2.5543985 -1.2244109 -0.44865409 9
2.9027662 -1.3932651 -0.3953442 8
3.3598454 -1.6148185 -0.32613677 4
3.8869917 -1.8715181 -0.22609136 5
4.4473453 -2.1441879 -0.086179987 3
5.2798052 -2.5217321 0.10213149 1
6.3116889 -3.0186386 0.36666575 7
nan nan nan nan
7.3738589 -3.5377097 1.0042036 1
7.3697567 -3.5404894 1.2949647 1
7.3775306 -3.5489795 1.5913471 1
6.0816407 -2.9295111 1.5584611 100
7.3422465 -3.5430593 2.184433 2
1.8992677 -0.92264456 -0.56577843 12
2.0678437 -1.0058755 -0.5308845 9
2.2821605 -1.1116052 -0.4934321 10
2.5602088 -1.2486973 -0.45115703 7
2.9036703 -1.4187247 -0.3968066 8
3.3484902 -1.638235 -0.32613677 4
3.8938923 -1.9075979 -0.22724274 3
4.4591951 -2.1883986 -0.086703561 3
5.2769065 -2.564605 0.10241073 1
6.3215256 -3.0763881 0.36844519 7
7.6220713 -3.7158859 0.74186963 1
7.1997619 -3.5146697 0.98372942 1
7.189312 -3.5142312 1.2674322 1
7.2168074 -3.533916 1.5619626 1
6.085537 -2.9839082 1.5647596 100
7.1757627 -3.5231378 2.1419864 3
1.8912116 -0.93469489 -0.56526077 12
2.073175 -1.0259778 -0.53403383 9
2.276103 -1.1283823 -0.49381369 6
2.5443516 -1.2630271 -0.44990557 7
2.8975015 -1.4402237 -0.3972941 8
3.3298376 -1.6580193 -0.32543954 4
3.9090784 -1.9489946 -0.22891749 5
4.4674549 -2.2303119 -0.087157324 3
5.2732129 -2.6084747 0.10268996 1
6.3356895 -3.138175 0.37053862 26
7.0397086 -3.4914792 0.6874845 1
7.0292726 -3.49242 0.96374285 1
7.0231152 -3.4939468 1.2424027 1
7.0238862 -3.4989197 1.5253272 1
6.0924563 -3.0402424 1.5719581 100
7.012742 -3.5040681 2.1005754 3
1.889818 -0.95047933 -0.56681371 12
2.052038 -1.033414 -0.53043461 9
2.2751815 -1.147782 -0.4953402 9
2.5319455 -1.2789776 -0.44927984 7
2.8980045 -1.4657925 -0.3987565 8
3.3217361 -1.6830264 -0.32578817 4
3.8935955 -1.9753337 -0.22881283 5
4.4589067 -2.2650688 -0.08729694 3
5.2852387 -2.6605098 0.10328334 1
6.3225441 -3.1868246 0.37106195 23
6.8799815 -3.4723148 0.67423683 1
6.8435082 -3.4599035 0.94156259 1
6.8593206 -3.4724085 1.2176861 1
6.8609486 -3.477747 1.4951794 1
6.0849833 -3.0897596 1.5755572 100
6.8365669 -3.4758933 2.0550234 3
1.8865757 -0.96540952 -0.56784898 11
2.0465076 -1.0486034 -0.5308845 9
2.2880726 -1.1743956 -0.49991959 10
2.5299828 -1.3002344 -0.4505313 7
2.8841705 -1.4841719 -0.39826906 8
3.3491673 -1.7256743 -0.32962301 4
3.8797102 -2.0024676 -0.22881283 5
4.4749618 -2.3126678 -0.087925225 3
5.2700963 -2.6991661 0.10335316 1
6.3179135 -3.2400002 0.37210867 40
6.813035 -3.4984186 0.6700533 1
6.8103609 -3.5030558 0.94034398 1
6.8068137 -3.5057392 1.2126801 1
6.7283187 -3.4697704 1.471519 2
6.069006 -3.1337891 1.5769069 100
6.681726 -3.4560833 2.0156829 2
1.8866444 -0.98212487 -0.56991959 11
2.0460494 -1.0664679 -0.53268409 9
2.2748044 -1.1872175 -0.49877474 10
2.5455844 -1.3302337 -0.4549115 6
2.8702216 -1.5024296 -0.39778158 8
3.3546855 -1.7582628 -0.33136615 3
3.8925183 -2.0427511 -0.23038292 3
4.4587073 -2.3438525 -0.087925225 5
5.2746577 -2.7469833 0.10380692 3
6.3045688 -3.2875466 0.37263206 49
6.9332561 -3.6215377 0.68434685 1
6.8866234 -3.6017702 0.95423704 1
6.9262891 -3.6271355 1.2383354 1
6.8360624 -3.5859699 1.500522 1
6.0538812 -3.1797063 1.5787065 100
6.6238499 -3.4835 2.0053301 2
1.8782079 -0.99404025 -0.56940192 12
2.0490744 -1.085845 -0.53538352 9
2.2595243 -1.1993877 -0.49724829 10
2.5292583 -1.3442643 -0.45366001 7
2.8704429 -1.5275271 -0.39924401 6
3.3458452 -1.7835143 -0.33171475 3
3.8887341 -2.0755186 -0.23101093 5
4.4567595 -2.3816874 -0.088204466 3
5.2853923 -2.7996526 0.1044003 1
6.2973437 -3.3399026 0.37357411 45
6.7641525 -3.5920217 0.6700533 1
6.7456417 -3.5882316 0.93815029 1
6.7857265 -3.6141138 1.2176861 1
6.5689707 -3.5030847 1.4470955 1
6.0573187 -3.2356656 1.5854552 100
nan nan nan nan
1.8661193 -1.0043817 -0.56784898 12
2.0483057 -1.1038215 -0.53718311 9
2.2528236 -1.2160653 -0.49762988 10
2.5163364 -1.3600104 -0.45303425 7
2.8701839 -1.5531977 -0.40070644 8
3.3403189 -1.8106269 -0.332412 3
3.9004805 -2.1169066 -0.23258102 5
4.4540801 -2.4203813 -0.088483699 5
5.2956476 -2.8526049 0.10499368 3
6.3002415 -3.3980062 0.37514415 37
6.4128342 -3.4630682 0.63763142 1
6.5772529 -3.557791 0.91816372 1
6.6317935 -3.5917828 1.1945337 1
6.4684176 -3.5076802 1.4303043 1
6.0568433 -3.2899666 1.5913038 18
nan nan nan nan
1.8675354 -1.022022 -0.57043719 12
2.035423 -1.1152852 -0.53583348 9
2.2580473 -1.23932 -0.50068283 10
2.5171678 -1.3832526 -0.4549115 7
2.8731844 -1.5808529 -0.40265635 8
3.3345771 -1.837749 -0.33310926 3
3.8751144 -2.1382959 -0.23195298 7
4.454577 -2.4610877 -0.088832751 5
5.2861271 -2.8952692 0.10520311 3
6.307888 -3.4591935 0.37702829 80
nan nan nan nan
6.1904631 -3.4046433 0.86746609 22
nan nan nan nan
6.299355 -3.4731283 1.3982484 1
nan nan nan nan
6.1842713 -3.4195366 1.8935202 2
1.8671074 -1.0387919 -0.57250774 12
2.030992 -1.1313645 -0.53673327 9
2.2613413 -1.26175 -0.50335413 10
2.5126231 -1.403682 -0.45585006 9
2.8655431 -1.6028109 -0.40314382 8
3.3320947 -1.8668268 -0.33415511 4
3.8809953 -2.1770225 -0.23320904 7
4.4442611 -2.4960434 -0.088972367 3
5.2727737 -2.9359937 0.10534272 1
6.2521839 -3.48564 0.37514415 22
6.2420778 -3.4842913 0.62542957 57
6.1682763 -3.4487462 0.86770982 76
nan nan nan nan
nan nan nan nan
nan nan nan nan
nan nan nan nan
1.8648547 -1.0546545 -0.57406068 12
2.0213485 -1.1445556 -0.53628331 9
2.2422316 -1.271695 -0.50106448 10
2.516504 -1.4289925 -0.45835301 9
2.8646379 -1.6286637 -0.40460625 8
3.3432198 -1.9038467 -0.33659548 4
3.8761127 -2.2099991 -0.23383708 5
4.4336743 -2.5309746 -0.089111991 5
4.7161436 -2.6693523 0.094592042 6
6.182519 -3.5036006 0.3724227 7
6.1500182 -3.4894385 0.61863148 60
6.1043549 -3.4691651 0.86210382 58
6.1155925 -3.4797895 1.1144392 63
6.0864859 -3.4674478 1.361613 91
6.015389 -3.4325087 1.5989522 100
5.9765716 -3.4145083 1.8443446 100
1.8540965 -1.0657222 -0.57302535 11
2.0217538 -1.1634992 -0.53853285 9
2.2332988 -1.2873178 -0.50106448 10
2.501334 -1.4435639 -0.45741442 7
2.8669481 -1.6565678 -0.40655616 8
3.3367445 -1.9311322 -0.3372927 3
3.8709583 -2.2430131 -0.23446509 5
4.4228153 -2.5658796 -0.089251608 3
4.7233934 -2.7171688 0.095115617 6
4.6642957 -2.6864233 0.28209084 5
nan nan nan nan
nan nan nan nan
6.0295892 -3.4867995 1.103176 63
5.9992666 -3.4734578 1.3474932 81
5.9777932 -3.4665995 1.595353 78
5.9525886 -3.4561491 1.8443446 100
1.8449432 -1.0776658 -0.57250774 7
2.0203106 -1.1815203 -0.5403325 9
2.2344215 -1.3088312 -0.50335413 10
2.4928992 -1.4619904 -0.45772728 9
2.8690081 -1.6845834 -0.4085061 8
3.3149345 -1.948751 -0.33642116 3
3.8810213 -2.2851837 -0.23603518 6
4.4254661 -2.6088798 -0.089670464 3
4.6680565 -2.7288849 0.094382621 4
4.6195717 -2.7037878 0.28052074 1
4.6361184 -2.7167325 0.47011805 5
4.596704 -2.6979487 0.65443844 10
nan nan nan nan
nan nan nan nan
5.9271927 -3.4913836 1.5881546 30
5.8584328 -3.4563916 1.8226038 100
1.8440198 -1.0944636 -0.57457829 12
2.0153637 -1.1975869 -0.54123229 9
2.2355843 -1.3300329 -0.50564384 10
2.4947701 -1.4860011 -0.45991737 7
2.8537679 -1.7025374 -0.40801859 8
3.3200645 -1.9830844 -0.33833858 3
3.8688047 -2.3135982 -0.23624454 6
4.4311624 -2.6540971 -0.090159133 4
4.7078342 -2.7953074 0.09556938 3
4.661149 -2.77089 0.28418428 5
4.5896487 -2.7327237 0.46732911 4
4.535605 -2.7037632 0.64834493 3
4.5527072 -2.71719 0.83974028 3
4.5161414 -2.6996441 1.0227362 9
4.4947276 -2.6900392 1.209337 8
nan nan nan nan
1.8464546 -1.1129737 -0.57768416 12
2.0038283 -1.2092634 -0.5403325 9
2.2329652 -1.3496698 -0.50717038 10
2.4927852 -1.5084952 -0.46148172 9
2.8489044 -1.7260374 -0.40899354 6
3.3078425 -2.0072482 -0.3385129 3
3.8508515 -2.3395135 -0.23613985 8
4.4437466 -2.7029026 -0.090787418 4
5.2977743 -3.1958215 0.10799549 3
6.1837931 -3.7347193 0.37859833 37
6.1190262 -3.6999774 0.62560391 51
4.5811419 -2.7744381 0.65760702 3
4.5437617 -2.7550523 0.84161752 4
4.469131 -2.7130027 1.0162487 5
4.444201 -2.7021163 1.2007889 1
4.4191341 -2.6900458 1.3862349 4
1.8435824 -1.1288637 -0.57923704 12
2.0019827 -1.2272972 -0.54213208 9
2.211777 -1.358035 -0.50449902 10
2.4872415 -1.5289648 -0.46242031 9
2.8536909 -1.7562889 -0.41143093 8
3.325974 -2.0501559 -0.34182483 3
3.8582201 -2.3810253 -0.23760527 8
4.4281707 -2.7359619 -0.09085723 6
5.3230748 -3.2619843 0.10897283 3
6.1320333 -3.7621322 0.37702829 15
6.1151166 -3.7561619 0.62786996 68
nan nan nan nan
nan nan nan nan
4.5269518 -2.7915382 1.0338032 3
4.4617047 -2.7556047 1.2106867 5
4.3887448 -2.7137194 1.3826115 6
1.8225328 -1.1335443 -0.57509595 12
1.9966744 -1.2433038 -0.54303187 8
2.2072399 -1.3765597 -0.50564384 10
2.4865603 -1.5525688 -0.46429756 7
2.8581927 -1.7866907 -0.41386834 8
3.3085644 -2.0706336 -0.3414762 4
3.8719649 -2.426996 -0.23948936 8
4.4496136 -2.7923195 -0.091694944 6
5.3205442 -3.3117471 0.10939168 3
6.1700315 -3.8449895 0.38100579 32
6.0971966 -3.8040349 0.6287415 62
6.0368652 -3.7722521 0.87404704 73
5.9785585 -3.7401719 1.1169422 33
nan nan nan nan
nan nan nan nan
4.4171357 -2.7740881 1.3976228 1
1.8178415 -1.1483037 -0.57613122 12
1.9945341 -1.2613792 -0.54483151 9
2.214406 -1.4020542 -0.50946003 10
2.4692612 -1.5652276 -0.46304604 6
2.8490014 -1.8087288 -0.41435578 8
3.3175688 -2.1086433 -0.34391654 4
3.8654659 -2.4597287 -0.2401174 8
4.4198933 -2.8168671 -0.091485515 6
5.3114028 -3.3564317 0.10967092 4
6.1572194 -3.8954415 0.38184318 32
6.0822716 -3.8539736 0.62996167 15
6.0445743 -3.8345234 0.87892181 77
5.9946494 -3.807256 1.124764 85
5.9452791 -3.781728 1.3696271 85
5.8747039 -3.7411573 1.6079502 94
nan nan nan nan
1.8181142 -1.1658646 -0.57871938 12
1.9891816 -1.277032 -0.54573131 9
2.2078667 -1.419603 -0.51022327 9
2.474884 -1.5931206 -0.46617478 6
2.8533101 -1.8388326 -0.41679317 5
3.2960711 -2.1274312 -0.34321931 4
3.8431671 -2.4834027 -0.23980337 6
4.4308391 -2.8664379 -0.0921138 6
5.2541823 -3.37183 0.10897283 3
6.1567597 -3.9556046 0.38351792 35
6.0944386 -3.9200742 0.63397086 3
nan nan nan nan
5.9795437 -3.8565075 1.1269541 28
5.9325948 -3.8306279 1.3726799 81
5.8729882 -3.7979529 1.6146988 100
5.8266053 -3.7722855 1.8598738 100
1.8212631 -1.185908 -0.58234286 12
1.967158 -1.282374 -0.54213208 9
2.2028341 -1.4382019 -0.5113681 7
2.4587412 -1.6071169 -0.46523616 5
2.837081 -1.8565336 -0.41630572 8
3.3211322 -2.1766007 -0.34740278 4
3.8390949 -2.5189376 -0.24064074 6
4.4341187 -2.9126713 -0.092602469 6
5.2539697 -3.423713 0.10946149 1
6.1390309 -4.0050383 0.38414595 30
6.1119623 -3.9919426 0.6386773 2
6.0286551 -3.9435387 0.8845278 7
6.1177292 -4.0063806 1.1582409 7
nan nan nan nan
nan nan nan nan
5.8146567 -3.8224213 1.8645325 100
1.8129396 -1.1985939 -0.58234286 12
1.9711576 -1.3046808 -0.54573131 9
2.1943765 -1.4546303 -0.51174974 9
2.4573369 -1.6307968 -0.46711335 6
2.8405852 -1.8872802 -0.4187431 8
3.3158081 -2.2063558 -0.34844866 3
3.8330514 -2.5534289 -0.24137343 8
4.420331 -2.9479945 -0.092742085 6
5.9237075 -3.9193296 0.1239819 13
6.1325674 -4.0621371 0.38550669 30
6.1105113 -4.0521321 0.64146626 2
6.0257816 -4.0020037 0.88818389 7
6.1274447 -4.0741482 1.1654369 10
nan nan nan nan
nan nan nan nan
nan nan nan nan
1.7965075 -1.2058381 -0.57975465 12
1.9749413 -1.3271054 -0.54933053 9
2.1776526 -1.4655296 -0.51022327 9
2.4606361 -1.657846 -0.46992919 7
2.8437974 -1.9181656 -0.42118049 6
3.2970221 -2.2272201 -0.34810004 4
3.8366396 -2.5946715 -0.24273418 6
4.4195132 -2.9922352 -0.09316095 6
5.8779416 -3.9483232 0.12359794 6
6.1206331 -4.1159964 0.38655341 30
6.0853786 -4.0969181 0.64181489 2
6.0256763 -4.0628395 0.89232743 8
6.1463337 -4.1488771 1.1745101 15
nan nan nan nan
7.815949 -5.2898064 2.1788762 6
nan nan nan nan
1.789642 -1.2194384 -0.58027232 11
1.9720675 -1.3452532 -0.55113012 9
2.1754737 -1.4862339 -0.51213133 7
2.4555242 -1.6794447 -0.47118065 7
2.8368888 -1.9424582 -0.42215544 6
3.2879658 -2.2546902 -0.34879729 5
3.8332512 -2.6315663 -0.24367623 8
4.4149961 -3.0343428 -0.093509994 6
5.9014502 -4.0241876 0.12468 14
6.1181412 -4.1766434 0.38822815 32
6.079658 -4.1550403 0.64425522 2
6.0168228 -4.1182623 0.89525223 8
6.1612167 -4.2218323 1.1829575 19
24.530165 -16.827618 5.7822762 10
7.780436 -5.345346 2.1793261 14
8.7193737 -5.9971423 2.8356216 2
1.7842627 -1.2341005 -0.58130759 12
1.9594235 -1.3567693 -0.55023032 9
2.1844046 -1.5148106 -0.51671082 7
2.4307582 -1.6875342 -0.4686777 6
2.8362994 -1.9712791 -0.42410538 6
3.2884974 -2.2889717 -0.3505404 5
3.8147864 -2.658263 -0.24367623 8
4.4199457 -3.0833969 -0.094068475 4
5.9225397 -4.0994315 0.12572713 13
6.1183839 -4.2397299 0.39011225 34
6.0505023 -4.1973829 0.64425522 2
5.9993367 -4.1680956 0.89695841 7
6.177 -4.2963252 1.1917179 49
24.492649 -17.05455 5.8013568 10
7.7445269 -5.4006476 2.179776 6
7.3783922 -5.1510673 2.4111583 2
1.7850906 -1.2531868 -0.58441341 12
1.9514984 -1.3715359 -0.55068022 9
2.1737761 -1.5300236 -0.51671082 7
2.4286067 -1.7112899 -0.47055492 8
2.8289564 -1.9956094 -0.4250803 8
3.2887104 -2.32337 -0.35228351 5
3.8059194 -2.6917505 -0.24430427 8
4.434217 -3.1396005 -0.094836384 6
5.8839583 -4.1337814 0.12551771 13
6.0968041 -4.2880859 0.39063561 34
6.0634079 -4.2693439 0.64878732 1
5.9976721 -4.2293243 0.90110201 8
6.1807451 -4.3632679 1.1982881 100
nan nan nan nan
nan nan nan nan
7.2807775 -5.1588945 2.3909705 2
1.7904582 -1.2757075 -0.58907217 12
1.9450487 -1.3873898 -0.55158001 9
2.1694317 -1.5497268 -0.51823723 6
2.4326684 -1.7396936 -0.47368363 8
2.8052711 -2.0083766 -0.42361787 6
3.2853637 -2.3555601 -0.35367799 5
3.8065057 -2.7322304 -0.24556033 8
4.4300528 -3.183316 -0.095220335 8
6.0063777 -4.2827253 0.12876385 13
6.0829749 -4.3421483 0.39168233 36
6.0464234 -4.320838 0.65018183 1
5.9922137 -4.2884221 0.9047581 10
6.1517386 -4.4074612 1.198601 100
nan nan nan nan
25.966404 -18.651882 7.381094 19
7.453186 -5.3596034 2.4598165 2
1.7705504 -1.2802523 -0.58544868 12
1.9384726 -1.4032201 -0.5524798 10
2.1617386 -1.5671389 -0.51900047 6
2.4268589 -1.7612753 -0.47493511 8
2.8072417 -2.0395803 -0.42605525 8
3.2660315 -2.3755243 -0.35332939 7
3.7970243 -2.7657933 -0.24618836 8
4.4174166 -3.2212353 -0.095429763 8
6.0297933 -4.3632393 0.12991571 13
6.0816278 -4.4056005 0.39356643 31
6.0306268 -4.3734713 0.65175062 1
5.9942532 -4.3534813 0.90963286 10
6.1399918 -4.4642406 1.2023554 100
nan nan nan nan
nan nan nan nan
7.1799488 -5.2395487 2.3816531 7
1.7646843 -1.2948675 -0.58648396 12
1.9474757 -1.4305631 -0.55787861 10
2.1478584 -1.5794909 -0.51823723 7
2.4243586 -1.7847801 -0.4768123 7
2.812108 -2.0732646 -0.42898014 8
3.265398 -2.410099 -0.3550725 5
3.7973864 -2.8058176 -0.24744442 8
4.4012499 -3.2567539 -0.09556938 8
6.035419 -4.430213 0.13068362 13
6.0788598 -4.4669995 0.39534587 31
6.01439 -4.4260941 0.65331942 1
5.9804626 -4.4059563 0.91207021 11
6.1253605 -4.5176558 1.2054842 100
nan nan nan nan
7.2924118 -5.3921623 2.0938447 2
8.8816261 -6.5744553 2.9608901 2
1.7604787 -1.3103094 -0.58803689 12
1.9314425 -1.4391285 -0.55607903 9
2.1493671 -1.6038401 -0.52129018 9
2.4055092 -1.7969331 -0.47556084 8
2.8090587 -2.1006799 -0.4306863 9
3.2516823 -2.4352257 -0.3554211 5
3.7872939 -2.8394485 -0.24807246 8
4.393374 -3.2974398 -0.095883526 6
6.0235882 -4.4865742 0.13110249 14
6.06674 -4.5236559 0.39660192 31
6.0160561 -4.490766 0.65680563 1
5.9590979 -4.454731 0.91353267 10
6.1173959 -4.5780616 1.2101772 94
nan nan nan nan
7.1704159 -5.3797884 2.0695498 2
8.2948761 -6.2302332 2.7797167 2
1.7497468 -1.3214037 -0.58751929 12
1.9151306 -1.4478766 -0.55427945 9
2.141248 -1.6211764 -0.52205342 10
2.4180944 -1.832774 -0.48056671 8
2.7990689 -2.1238389 -0.43141752 8
3.2409477 -2.4626887 -0.35611835 3
3.7800958 -2.8754926 -0.24890982 8
4.4450197 -3.3849719 -0.097524047 23
6.0288129 -4.5562477 0.13190529 11
6.0509391 -4.5779495 0.39764863 31
6.0004401 -4.5446858 0.65854877 2
5.949995 -4.51302 0.91694498 13
6.1136041 -4.6421599 1.2158087 91
nan nan nan nan
7.4055862 -5.6374602 2.1487324 2
7.3415523 -5.594789 2.4732749 2
1.7558138 -1.3453367 -0.59269565 12
1.9173458 -1.4706994 -0.55787861 9
2.1283214 -1.6348895 -0.52167183 9
2.4083722 -1.8520192 -0.48119247 8
2.7826006 -2.1421175 -0.43117377 9
3.2426109 -2.4998522 -0.35821009 5
3.7820649 -2.9188964 -0.25037524 8
4.5605335 -3.5235093 -0.10059568 13
6.0317688 -4.6249943 0.13267319 11
6.0457654 -4.6407557 0.39942807 31
6.0112214 -4.6192436 0.66325516 1
5.9466615 -4.5762396 0.9213323 8
6.0982604 -4.6979885 1.2192503 85
nan nan nan nan
7.3660488 -5.6890235 2.1487324 2
7.2427101 -5.599822 2.4530871 2
1.7387526 -1.3516335 -0.5901075 12
1.9101077 -1.4864429 -0.55877846 10
2.1199527 -1.6521217 -0.52243507 9
2.4031715 -1.8748629 -0.48275682 7
2.7785299 -2.1700442 -0.43287995 8
3.2219412 -2.519974 -0.35786149 7
3.7773209 -2.9575417 -0.25142196 8
4.5767436 -3.5873358 -0.1015032 13
5.9977551 -4.6657634 0.13263829 13
6.0321288 -4.6975751 0.40068412 34
5.9945407 -4.673347 0.66499835 1
5.9427328 -4.6396322 0.92571962 10
6.0808778 -4.7526121 1.2223791 85
nan nan nan nan
7.4028502 -5.8004045 2.1712277 2
7.2323203 -5.6729021 2.4629221 2
1.7262403 -1.3613466 -0.58907217 9
1.9012133 -1.500949 -0.55922836 9
2.1222279 -1.6778395 -0.52586961 9
2.3915727 -1.8928204 -0.48306966 7
2.7757597 -2.1992514 -0.43482983 8
3.2042701 -2.5424061 -0.35786149 5
3.7690928 -2.9937778 -0.25225934 8
4.5907178 -3.6503136 -0.10237581 6
6.0592208 -4.7818508 0.13473257 40
6.0320978 -4.765573 0.40288225 31
5.9648938 -4.7175546 0.66534692 1
5.9366527 -4.7019596 0.92986321 2
6.0645771 -4.8084478 1.2258207 82
21.915842 -17.395206 5.4388199 9
7.2843738 -5.7901015 2.1482828 4
7.2605662 -5.7773843 2.4862161 2
1.7242368 -1.3793991 -0.59166032 11
1.8922096 -1.5154036 -0.55967826 9
2.1135259 -1.6950712 -0.52663285 9
2.3844616 -1.9144169 -0.48432118 8
2.7850947 -2.2384734 -0.43872967 8
3.2081723 -2.5822034 -0.36030185 5
3.7481005 -3.0200181 -0.25225934 8
4.814157 -3.883148 -0.10796059 9
6.0740829 -4.8627777 0.13581464 42
6.0282931 -4.8313007 0.40487102 33
5.9706659 -4.7902522 0.66970474 1
5.9176092 -4.7544794 0.93205678 8
6.0647244 -4.8779063 1.2327038 91
nan nan nan nan
7.2574286 -5.8518243 2.1523318 2
7.0922799 -5.7247925 2.4422166 5
1.7205652 -1.3962719 -0.59373093 11
1.8936844 -1.5384067 -0.56327748 9
2.1092556 -1.7159797 -0.52854097 9
2.3802285 -1.9385014 -0.48619837 8
2.7540143 -2.2453189 -0.43629229 8
3.1962399 -2.6095777 -0.36099908 7
3.7408438 -3.0574863 -0.2532014 8
4.8937192 -4.0040369 -0.11036902 14
6.0679274 -4.9277549 0.13644291 40
6.0161133 -4.8909068 0.4063364 30
5.9772558 -4.8645167 0.67423683 3
5.9027381 -4.8107257 0.9349817 7
nan nan nan nan
6.0076799 -4.9067316 1.5077728 88
nan nan nan nan
5.8982086 -4.8293467 2.0425999 93
1.7167414 -1.4131607 -0.59580147 12
1.8934256 -1.5602646 -0.56642681 10
2.0987384 -1.7319129 -0.52892256 9
2.3818669 -1.9676522 -0.48932707 7
2.7413313 -2.2670207 -0.43677977 8
3.196358 -2.6470773 -0.36309084 5
3.7255576 -3.0886264 -0.25362006 6
4.9148884 -4.07897 -0.11148597 14
6.05653 -4.989068 0.1369665 37
6.0064769 -4.9531178 0.40801117 30
5.972343 -4.9302263 0.67754871 1
5.9011393 -4.8783774 0.94010019 2
3.8471966 -3.183809 0.79093277 19
5.9309464 -4.9134836 1.4970875 22
5.9211874 -4.9123745 1.7762136 100
nan nan nan nan
1.706834 -1.4251113 -0.59580147 12
1.8899629 -1.5796938 -0.56867629 10
2.0805745 -1.7414821 -0.52739608 7
2.3741286 -1.9893074 -0.49057853 7
2.7345634 -2.2937579 -0.4382422 8
3.1904726 -2.6790228 -0.36448529 7
3.7283628 -3.1351268 -0.25529483 4
4.9398355 -4.1582546 -0.11270764 7
6.0138798 -5.0248175 0.13679196 17
6.0039234 -5.0218401 0.41020927 38
5.9576368 -4.9884286 0.67981476 1
5.8927965 -4.9411392 0.94424373 10
3.7114007 -3.1153388 0.76746756 15
5.8574195 -4.9219313 1.4871653 27
5.8085752 -4.8860784 1.7523688 53
5.7977004 -4.8838468 2.0312121 69
1.7012661 -1.4407377 -0.59735435 12
1.8863208 -1.5991505 -0.57092583 10
2.0806475 -1.7657665 -0.53044903 7
2.3635435 -2.0079792 -0.49120426 7
2.7305787 -2.3230829 -0.4401921 8
3.1686583 -2.698647 -0.36413667 7
3.7358136 -3.1850526 -0.2572836 8
4.9547896 -4.2302942 -0.11371988 10
6.0466719 -5.1225104 0.13832778 42
5.9878817 -5.0780921 0.41146535 33
5.9424086 -5.0466652 0.68208081 1
5.8892751 -5.0068512 0.94911855 10
nan nan nan nan
nan nan nan nan
5.7876654 -4.9378939 1.756418 21
5.7173152 -4.8830485 2.0146475 86
1.697283 -1.4573184 -0.59942496 12
1.8768702 -1.6132234 -0.57137573 9
2.0757096 -1.7866524 -0.53235716 9
2.3554537 -2.0295889 -0.49245578 7
2.7267284 -2.3519883 -0.44214204 6
3.1738651 -2.7415407 -0.36692566 9
3.7255733 -3.2215061 -0.25812095 6
4.9757743 -4.3071108 -0.11487174 12
6.0365472 -5.1867528 0.13892116 47
5.9855952 -5.1484246 0.41376811 33
5.9275475 -5.1038971 0.68434685 1
5.8782315 -5.0685849 0.95301831 10
6.0098138 -5.1875315 1.2574203 89
3.7716894 -3.2590823 0.9689281 30
9.1851358 -7.947999 2.80424 4
nan nan nan nan
1.6914381 -1.4729383 -0.60097784 12
1.8552793 -1.617323 -0.5682264 10
2.0735383 -1.8101379 -0.53502846 9
2.3531268 -2.0563822 -0.4949587 7
2.7042656 -2.3657386 -0.44116706 8
3.1576459 -2.7662573 -0.36727428 7
3.7300215 -3.2711408 -0.26000506 8
4.9846554 -4.3760448 -0.11577927 7
6.0243115 -5.2497897 0.13947964 45
5.9735885 -5.2110929 0.41544285 30
5.9217854 -5.1713648 0.68783307 1
5.8621292 -5.1264868 0.95618695 8
6.0061502 -5.2579875 1.2643036 87
3.7119324 -3.252986 0.95938772 15
8.8687096 -7.7831278 2.7241576 2
7.3538938 -6.4605532 2.6228724 9
1.69125 -1.4936625 -0.60460132 12
1.851243 -1.6366898 -0.57047588 9
2.0696707 -1.8323783 -0.53731817 9
2.3446267 -2.0780005 -0.49621019 8
2.6876841 -2.3845601 -0.44116706 8
3.1417229 -2.7903328 -0.36762294 7
3.7130632 -3.3024106 -0.26042375 21
5.0092435 -4.4599376 -0.11707074 10
6.0189805 -5.3195281 0.14021264 42
5.9520216 -5.2659039 0.41648957 22
5.915369 -5.2389998 0.69131935 3
5.8529301 -5.1909966 0.96057427 8
5.9914546 -5.3194623 1.2689966 92
3.8256037 -3.4001131 0.99487817 5
3.8377748 -3.4145298 1.1859421 8
7.3345742 -6.5348678 2.6321898 2
1.6721469 -1.4976996 -0.6014955 12
1.855732 -1.663884 -0.57542485 10
2.0542281 -1.8438005 -0.53655493 10
2.3451216 -2.1071143 -0.49933887 8
2.6650684 -2.3979545 -0.4401921 6
3.1340096 -2.8228655 -0.36901742 9
3.7364812 -3.3690696 -0.26366857 2
3.3809934 -3.0528183 -0.079513162 6
6.0139079 -5.3883967 0.14094563 47
5.9309082 -5.3196316 0.41753629 8
5.9142241 -5.3121223 0.69550282 1
5.8410788 -5.2519517 0.96447408 1
nan nan nan nan
3.5261559 -3.1783097 0.92275238 44
3.4391148 -3.1031199 1.0694174 19
7.2999587 -6.5937047 2.6358132 7
1.6662045 -1.5129428 -0.60304838 12
1.8515735 -1.683031 -0.57767433 9
2.0645359 -1.8792415 -0.54266083 10
2.3274341 -2.120774 -0.49871314 8
2.6662838 -2.4320927 -0.44311696 8
3.1171682 -2.8473637 -0.36936605 5
3.5610538 -3.2562506 -0.25288737 8
3.3866856 -3.1000645 -0.080141447 22
5.9939041 -5.4463882 0.1413645 47
5.9084005 -5.3743463 0.41858301 2
5.8764558 -5.350914 0.69532847 1
3.5746796 -3.2595575 0.59399122 11
3.575911 -3.264111 0.76684189 13
3.6218345 -3.3095086 0.95366341 16
3.4001148 -3.1112673 1.0640185 37
3.3262968 -3.0469217 1.2086849 6
1.6698128 -1.5376244 -0.60822481 11
1.838346 -1.6945955 -0.57722449 11
2.0585787 -1.900267 -0.5445689 11
2.3067684 -2.131608 -0.49746165 8
2.652154 -2.4533434 -0.44360444 6
3.108907 -2.8798873 -0.37076053 5
3.6422138 -3.3774533 -0.26031908 2
3.3708234 -3.1290748 -0.080281071 36
5.9851456 -5.5152016 0.14206259 45
5.913311 -5.4547353 0.42161852 2
5.8814054 -5.4310064 0.70038354 1
5.8211069 -5.3828602 0.97349238 10
3.5631835 -3.2983894 0.76903194 30
3.5122399 -3.254648 0.93076634 8
3.5068731 -3.2542281 1.1045097 19
3.5144229 -3.2646601 1.2852954 28
1.6590375 -1.5492443 -0.60822481 12
1.8307414 -1.7113804 -0.57857412 11
2.0524285 -1.9213006 -0.54647696 10
2.2947135 -2.1503618 -0.49808741 10
2.6436489 -2.4799478 -0.44506687 6
3.0916302 -2.9042499 -0.37110916 5
3.653466 -3.4356358 -0.26283121 2
3.331424 -3.1360834 -0.079862215 22
5.9786396 -5.5868878 0.14283049 47
5.9013391 -5.5204439 0.42350259 2
5.8811584 -5.5073428 0.70491564 1
3.2739699 -3.070164 0.55109322 22
5.9726081 -5.6066904 1.2974676 100
3.5280612 -3.3153877 0.94107002 20
3.4925842 -3.2866442 1.1072092 17
3.4592032 -3.2586489 1.2733897 13
1.6594031 -1.5714153 -0.6123659 11
1.8272349 -1.7321635 -0.58127356 12
2.034694 -1.9315274 -0.54533213 12
2.2939649 -2.1799371 -0.50121611 8
2.6233947 -2.4956071 -0.44457942 8
3.0943613 -2.9477506 -0.37389815 5
3.2694879 -3.1178463 -0.23676789 36
3.2356801 -3.0888433 -0.078082062 29
5.9685206 -5.6560006 0.14352858 45
5.8713503 -5.5697556 0.42413062 2
3.418277 -3.2460926 0.41242099 25
3.2668414 -3.1066246 0.55353063 18
3.3121862 -3.1530504 0.72429162 18
nan nan nan nan
3.2792294 -3.1293228 1.0464724 15
nan nan nan nan
1.6469988 -1.5816236 -0.61184824 12
1.8193123 -1.7489294 -0.5826233 11
2.0296462 -1.9538544 -0.54762185 11
2.2843797 -2.2013814 -0.50246757 8
2.6059084 -2.5138609 -0.44457942 8
3.0742252 -2.9687448 -0.37389815 5
3.2146199 -3.1086621 -0.23436043 28
3.2255316 -3.1224842 -0.078361303 34
5.9606104 -5.728014 0.1442965 45
5.9100494 -5.6853809 0.42978293 2
3.3366916 -3.2132139 0.40527418 36
3.585156 -3.4573109 0.61154038 13
3.23893 -3.1267056 0.71302837 25
3.4715447 -3.354774 0.93839866 22
3.3404896 -3.2315118 1.0730166 3
nan nan nan nan
1.637301 -1.5944309 -0.6123659 11
1.8251985 -1.779272 -0.58847201 12
2.0233252 -1.9744804 -0.54952991 10
2.2749949 -2.2224011 -0.50371903 8
2.6053231 -2.54865 -0.44750425 8
3.0562716 -2.9929218 -0.37424675 7
3.2290418 -3.1654253 -0.23697723 34
3.2250593 -3.1659391 -0.078884877 40
5.948699 -5.7949657 0.14495969 40
3.3345516 -3.2517807 0.24409491 4
3.5094647 -3.4271359 0.42915487 21
3.5572815 -3.4774711 0.61080921 8
3.2105131 -3.141772 0.71146405 22
nan nan nan nan
3.6391995 -3.5699942 1.176944 34
nan nan nan nan
1.6332843 -1.6123246 -0.61495411 11
1.8158175 -1.7943938 -0.5893718 10
2.0122824 -1.9913194 -0.55029315 10
2.2510042 -2.2298882 -0.50184184 8
2.5879149 -2.5663247 -0.44750425 6
3.0437851 -3.0226092 -0.37529263 9
3.1162109 -3.0977733 -0.23027822 9
3.1949303 -3.1793549 -0.078675449 19
5.9351273 -5.8630552 0.14562289 11
3.3373315 -3.3002598 0.24597903 30
3.5412784 -3.5056102 0.43595302 37
3.1818819 -3.1542351 0.55011827 17
3.6133547 -3.5857117 0.80626333 25
3.0697892 -3.0494969 0.84108603 1
3.2715585 -3.2544732 1.0653682 37
8.3748293 -8.3398209 3.1669102 1
1.6288149 -1.6305214 -0.61754227 11
1.8018695 -1.8056471 -0.5889219 10
2.0066464 -2.0136631 -0.55258286 10
2.246531 -2.2567484 -0.50434476 8
2.5727351 -2.5871439 -0.44799173 6
3.0394564 -3.06075 -0.37738436 6
3.1465523 -3.1719167 -0.23415108 18
3.2176983 -3.2470348 -0.079792403 17
3.3821564 -3.3880644 0.083562121 13
3.3015175 -3.3107495 0.24503697 10
nan nan nan nan
5.7707696 -5.8010645 1.004691 6
3.6146894 -3.6374729 0.81220788 15
3.2780256 -3.3021429 0.90443468 17
nan nan nan nan
3.2651191 -3.2971888 1.2433668 25
1.628238 -1.6528628 -0.62168342 11
1.8015218 -1.8306835 -0.59297103 9
1.9897875 -2.0248225 -0.55181968 10
2.2307212 -2.272377 -0.50434476 8
2.5573905 -2.6078765 -0.44847921 8
3.0208023 -3.0847416 -0.37773296 6
3.3058984 -3.3794098 -0.24775843 24
3.3417015 -3.4195893 -0.083457403 1
3.2784586 -3.3303654 0.081572548 28
3.3217363 -3.3778636 0.24828181 15
3.4598737 -3.5220222 0.43194386 1
nan nan nan nan
3.0831788 -3.1462405 0.69769776 30
5.8423257 -5.96807 1.6234031 13
3.6480968 -3.7318225 1.2048379 19
3.1137977 -3.1885998 1.1941911 45
1.6139669 -1.6614183 -0.62064809 8
1.7914116 -1.8460127 -0.59387082 10
1.9756033 -2.0386643 -0.55181968 10
2.2367857 -2.3106034 -0.50935066 8
2.5391221 -2.6256669 -0.44847921 8
3.0033455 -3.110055 -0.3782559 4
3.0478795 -3.1594803 -0.23006889 56
3.21784 -3.3391616 -0.080944255 26
3.1743422 -3.2699521 0.079548068 27
3.3620331 -3.4669261 0.25309673 42
3.2979593 -3.4044189 0.41468704 58
3.0916624 -3.1959245 0.54597467 18
nan nan nan nan
3.2302372 -3.3461771 0.90405309 2
3.0836658 -3.1988111 1.0257769 36
nan nan nan nan
1.606338 -1.6768303 -0.62220097 11
1.7906065 -1.8711455 -0.59791994 11
1.966748 -2.0580842 -0.5533461 10
2.2096884 -2.3147318 -0.50684774 7
2.5371692 -2.6605685 -0.45140409 8
2.9848552 -3.1333113 -0.37860456 4
3.0408905 -3.1965992 -0.23122028 39
3.044301 -3.2035418 -0.077139638 39
3.1998353 -3.3425915 0.08076974 35
3.3115201 -3.4628868 0.25110796 37
3.1557543 -3.3034618 0.39969626 41
3.1268251 -3.2777569 0.55621171 28
3.0893722 -3.2418933 0.70927399 25
3.09986 -3.2563114 0.8739053 45
nan nan nan nan
5.6244578 -5.9228001 2.1885738 25
1.5972459 -1.6908126 -0.6232363 10
1.7815121 -1.8878524 -0.59926963 12
1.9621205 -2.0814235 -0.5560174 10
2.1965902 -2.3325953 -0.50747347 7
2.5212533 -2.6811082 -0.45189157 8
2.962908 -3.154073 -0.37860456 4
3.2117679 -3.4225786 -0.24597903 34
3.0464749 -3.250982 -0.077767923 37
3.1756363 -3.3628407 0.080734834 16
3.1206691 -3.3081014 0.23833798 28
3.1203189 -3.3123603 0.39812744 31
3.099 -3.2931819 0.55523676 53
2.7601044 -2.9361303 0.63825274 6
2.7747207 -2.955811 0.78804117 8
2.879307 -3.0704432 0.97178859 1
nan nan nan nan
1.6028211 -1.7200185 -0.62996554 12
1.7659652 -1.8970823 -0.59836984 11
1.9542251 -2.1022606 -0.55792552 9
2.1802518 -2.3478734 -0.50747347 7
2.5029452 -2.6982079 -0.45189157 8
2.931891 -3.163938 -0.37738436 12
3.15117 -3.4053373 -0.24315289 26
2.9876261 -3.2319956 -0.0768255 24
2.9885495 -3.209316 0.076546252 33
3.096138 -3.3283448 0.23823328 37
3.0217502 -3.25179 0.38836598 32
3.0030191 -3.2361608 0.54207492 22
5.6818581 -6.1294074 1.3237487 7
2.9946415 -3.2339189 0.85673243 3
2.8742204 -3.1071374 0.97718745 30
2.8078346 -3.0396266 1.1087809 26
1.5946956 -1.7354338 -0.63151848 12
1.7632207 -1.9208496 -0.60196906 11
1.9411972 -2.116961 -0.55830717 10
2.172226 -2.3713992 -0.50935066 7
2.4920864 -2.7244041 -0.453354 8
2.9070427 -3.1813869 -0.37703574 8
3.010772 -3.298372 -0.23404641 26
3.0229158 -3.3163223 -0.078326404 24
3.1235571 -3.4004145 0.08059521 33
nan nan nan nan
3.6168063 -3.9470513 0.46837494 8
4.4901471 -4.9052896 0.81652468 8
3.023288 -3.306284 0.7095868 33
2.8819718 -3.1561615 0.83078241 23
2.8248794 -3.0968921 0.96773946 37
4.3731904 -4.7993383 1.7397816 31
1.5841434 -1.7476796 -0.63203615 12
1.7605691 -1.9443635 -0.60556829 12
1.9290043 -2.1333737 -0.55907035 9
2.1529691 -2.3835745 -0.50872493 7
2.4783239 -2.747632 -0.45432895 8
2.8740926 -3.1897633 -0.37564126 4
2.9876721 -3.3193107 -0.23404641 39
2.8593304 -3.1811862 -0.074661396 13
3.1225641 -3.4473336 0.081188597 8
3.0767546 -3.4003363 0.24032672 4
4.3139729 -4.7726936 0.56285179 8
2.6987474 -2.9899082 0.49454582 1
nan nan nan nan
2.8598673 -3.1762049 0.83078241 18
nan nan nan nan
2.8043933 -3.1211607 1.12431 17
1.5741712 -1.7618519 -0.63307142 11
1.7582892 -1.9699966 -0.60961735 11
1.9166768 -2.1497195 -0.55983365 10
2.138485 -2.4018703 -0.50935066 8
2.4630394 -2.7693164 -0.45506018 9
2.7882345 -3.1382568 -0.36727428 20
2.9598668 -3.3361225 -0.2337324 35
2.8529675 -3.2190285 -0.075080253 30
3.0224924 -3.3840382 0.079199016 28
2.9154134 -3.2687411 0.22954552 48
2.8151453 -3.1596498 0.37023759 48
nan nan nan nan
2.8581412 -3.2158086 0.68142867 33
2.8232858 -3.1799433 0.82658464 43
2.7826579 -3.1374905 0.96818942 36
2.7179451 -3.0688384 1.0984281 41
1.5669411 -1.7785969 -0.63514197 11
1.7341939 -1.9705205 -0.60601819 7
1.9025407 -2.1648543 -0.56021523 9
2.1268778 -2.4226792 -0.51060218 7
2.4562459 -2.8017976 -0.45749757 11
2.7381413 -3.1266522 -0.36361378 37
3.1114058 -3.5566344 -0.24765378 12
2.7509236 -3.1490023 -0.072985962 48
2.8554909 -3.2434807 0.075429298 32
2.8885658 -3.2845151 0.22923151 48
2.8719172 -3.2690346 0.38069627 45
2.8303239 -3.2262297 0.52696311 35
2.813488 -3.210428 0.67610979 13
2.6582377 -3.0375495 0.78460658 22
2.8781338 -3.2923005 1.0095805 30
2.4994938 -2.8621967 1.0181942 31
1.5579736 -1.79414 -0.63669485 8
1.7251565 -1.9887679 -0.60781777 14
1.8899522 -2.1810513 -0.56097847 9
2.1133649 -2.4423177 -0.51154077 6
2.4379239 -2.8203788 -0.45774129 8
2.7474978 -3.1818836 -0.36779723 28
2.8289368 -3.2808261 -0.22703341 22
2.7275681 -3.1666155 -0.072951064 16
2.8445756 -3.2769275 0.075743444 40
2.7642562 -3.1888945 0.22117178 50
2.7493291 -3.1750319 0.3674486 28
2.6700718 -3.0867674 0.50112677 10
2.6445289 -3.0615549 0.64075565 51
2.5907943 -3.0025234 0.77086836 22
2.6438746 -3.0672843 0.93489665 18
2.5066743 -2.9122207 1.0295821 36
1.5485543 -1.8073674 -0.63773018 7
1.7169973 -2.0060878 -0.60961735 14
1.871236 -2.1893878 -0.55983365 9
2.0945554 -2.4532759 -0.51091504 6
2.4127245 -2.8289337 -0.45652261 11
2.7529042 -3.2323647 -0.37145776 16
2.7838199 -3.2721338 -0.2251493 35
2.6883767 -3.1633034 -0.072462395 36
2.7467723 -3.2081122 0.073718965 21
2.9157031 -3.4090276 0.23509313 21
2.7333879 -3.1992552 0.36814582 7
2.6618836 -3.1199715 0.50356412 13
2.5934141 -3.0429442 0.63324684 9
2.5682788 -3.0166504 0.77010518 22
2.5181692 -2.9619794 0.89755476 27
2.8236973 -3.3248813 1.1688268 8
1.5334054 -1.8151826 -0.63669485 8
1.705464 -2.0210044 -0.6105172 12
1.8559058 -2.2023981 -0.55983365 9
2.0951869 -2.4889958 -0.51529521 5
2.4159124 -2.8730564 -0.46090987 9
2.6008687 -3.097398 -0.35385233 24
2.7031486 -3.2226293 -0.22043908 40
2.5763254 -3.0747015 -0.070019051 34
2.7449477 -3.2516587 0.074277438 13
2.6884005 -3.1880581 0.21855497 16
2.6686275 -3.1679745 0.36239356 6
nan nan nan nan
2.4119859 -2.8704205 0.59382528 6
2.4474409 -2.9157126 0.73995733 29
2.5687845 -3.0646152 0.92319918 9
3.3622367 -4.0154896 1.403317 17
1.5194595 -1.8243591 -0.63617724 10
1.6975452 -2.0403516 -0.61276674 12
1.8517762 -2.2288916 -0.56326818 10
2.0727134 -2.4974818 -0.51404375 6
2.4084654 -2.9051349 -0.46334729 9
2.6274617 -3.173799 -0.36047614 26
2.6513097 -3.2060218 -0.21803163 33
2.5586181 -3.0972378 -0.070123769 40
nan nan nan nan
2.8001482 -3.3680074 0.22954552 26
2.6057122 -3.1374807 0.35681561 22
3.3289692 -4.0140371 0.64030159 11
2.4574189 -2.9662905 0.61009449 1
nan nan nan nan
3.8619561 -4.6732831 1.3996456 5
nan nan nan nan
1.5066861 -1.8349226 -0.63617724 9
1.678316 -2.0461259 -0.6109671 12
1.8361706 -2.241765 -0.56326818 11
2.0527256 -2.5088336 -0.51341796 5
2.3931503 -2.9280262 -0.46432224 9
2.5939021 -3.1781723 -0.35890734 38
2.7247794 -3.3421001 -0.22598669 52
2.6480582 -3.2514722 -0.07319539 19
2.5293064 -3.0825169 0.069600195 27
2.644892 -3.2268279 0.21865964 5
2.5862694 -3.1586785 0.3571642 10
4.2181211 -5.1590462 0.81823081 12
2.3829195 -2.9175868 0.59664112 60
2.4189038 -2.964812 0.74377352 24
2.6217535 -3.2180257 0.95829159 6
nan nan nan nan
1.5059942 -1.8604116 -0.64135361 6
1.6664413 -2.0608234 -0.61186689 12
1.827876 -2.2636938 -0.5655579 10
2.0426018 -2.5323284 -0.51529521 10
2.3788779 -2.9523907 -0.46554092 8
2.6021914 -3.2330053 -0.36309084 24
2.6300611 -3.2723057 -0.22002037 35
2.6553404 -3.3073027 -0.074033104 39
2.4951484 -3.0845525 0.06925115 28
2.4967713 -3.0898662 0.20819245 2
2.4690471 -3.0588307 0.34391654 4
2.3631985 -2.9318833 0.46237233 19
2.3736424 -2.947999 0.59945697 4
2.3292413 -2.8959568 0.72240293 6
3.3687398 -4.1928635 1.24173 33
4.1623406 -5.1880231 1.782228 18
1.4857395 -1.8618201 -0.63824779 3
1.6617312 -2.0845978 -0.61546612 11
1.8124253 -2.2760832 -0.5655579 12
2.0290067 -2.5508108 -0.5162338 7
2.3298116 -2.9331751 -0.45993495 11
2.5671737 -3.2354856 -0.36134771 36
2.6126893 -3.2963932 -0.22043908 31
2.591233 -3.2740154 -0.072881252 28
2.471601 -3.0983384 0.069181338 18
2.4271388 -3.045872 0.20411025 11
nan nan nan nan
2.3715966 -2.9836431 0.46797833 30
2.341238 -2.9486172 0.59632826 22
3.2676826 -4.1213112 1.0223546 10
3.4107718 -4.3064098 1.2682742 29
4.0562105 -5.1268482 1.7516873 2
1.481395 -1.882517 -0.64187121 7
1.6547294 -2.1050527 -0.61816555 10
1.7928545 -2.2840481 -0.56441307 11
2.0233383 -2.5804586 -0.51936251 7
2.3403933 -2.9880347 -0.46602839 8
2.5580254 -3.2705917 -0.36326513 28
2.6129754 -3.3444557 -0.22242783 26
2.589803 -3.3183763 -0.073474631 30
2.490701 -3.1673908 0.070333198 28
2.3910108 -3.0438945 0.20285419 23
2.3872807 -3.042424 0.33833858 25
2.3800936 -3.0376287 0.47382805 31
2.3230312 -2.9680014 0.59695399 15
2.7776244 -3.5526402 0.8765766 20
3.3806243 -4.3301167 1.2682742 28
2.4913154 -3.1944802 1.0854871 1
1.4705848 -1.8958663 -0.64290655 19
1.6411867 -2.118094 -0.61861545 10
1.7720594 -2.2902975 -0.56288654 13
1.9944021 -2.5804546 -0.51654667 7
2.3219023 -3.0074434 -0.46651587 5
2.5229654 -3.2725911 -0.36152202 29
2.5859075 -3.3578691 -0.22211383 40
2.6202216 -3.4061151 -0.075010449 42
2.4207501 -3.1230621 0.06897191 29
2.5885754 -3.3431919 0.22159046 49
2.3586688 -3.0495601 0.3372927 25
2.3321342 -3.0196071 0.46846578 12
nan nan nan nan
2.7443662 -3.56106 0.8739053 35
nan nan nan nan
nan nan nan nan
1.4620067 -1.9122252 -0.64497709 24
1.6275425 -2.1310487 -0.61906534 10
1.7286451 -2.2667079 -0.55410933 7
1.7369275 -2.2800431 -0.45397288 2
2.3116691 -3.0377977 -0.46870953 4
2.5247457 -3.3214116 -0.36500823 33
2.533421 -3.3376589 -0.21960169 35
2.5782561 -3.4004223 -0.074486867 27
2.6149821 -3.42273 0.075184964 50
2.572443 -3.370708 0.2222185 9
2.5293806 -3.3178835 0.36500823 52
2.3121994 -3.037394 0.46870953 20
nan nan nan nan
nan nan nan nan
2.6786261 -3.5302384 1.0230775 36
2.1513073 -2.8393843 0.9545247 41
1.4637353 -1.9424424 -0.6517064 27
1.6067656 -2.1345744 -0.61681581 10
1.7214355 -2.2894061 -0.5567807 9
1.7023863 -2.2665417 -0.44896698 4
1.7198884 -2.2931755 -0.35195872 2
2.4477389 -3.2672026 -0.3571642 22
2.6327059 -3.5179303 -0.23027822 16
2.5676215 -3.4359596 -0.074870825 19
2.6000462 -3.4516308 0.075429298 36
2.4521697 -3.2588701 0.21374007 27
2.5336831 -3.3720968 0.36901742 36
2.2497644 -2.9974945 0.4601787 14
2.3533168 -3.138885 0.62135774 31
2.2025661 -2.9420891 0.71438891 40
2.1509082 -2.8762248 0.82916963 17
2.6336973 -3.5256648 1.1791797 41
1.4550879 -1.9585633 -0.65377688 25
1.599167 -2.1548512 -0.61951524 10
1.7135925 -2.3124096 -0.559452 11
1.7018 -2.2990115 -0.45303425 6
1.6896777 -2.2859704 -0.34903383 3
1.6840365 -2.2808359 -0.24804525 3
2.549993 -3.4574628 -0.2251493 20
2.5518723 -3.4650722 -0.075115159 9
2.6331017 -3.5467672 0.077104732 11
2.4067545 -3.2454288 0.2117513 27
nan nan nan nan
2.4672446 -3.3355067 0.5094139 38
2.3430851 -3.1711252 0.62448645 28
2.1738138 -2.9463356 0.71171761 29
2.1400254 -2.9037206 0.83276886 34
3.025913 -4.1102529 1.3676 25
1.4341899 -1.959572 -0.65067112 30
1.5848564 -2.1678121 -0.61996514 10
1.685829 -2.3084614 -0.55563581 7
1.6841413 -2.3095341 -0.45272139 5
1.6830277 -2.3105474 -0.35098374 7
1.6586944 -2.2796485 -0.24665076 4
1.6646745 -2.2912281 -0.14842479 6
nan nan nan nan
2.2446058 -3.0679877 0.066354051 14
2.5425246 -3.4802873 0.22588199 16
3.1511045 -4.3180757 0.46767771 12
2.6836104 -3.6814983 0.55938035 42
