# .PCD v0.7 - Point Cloud Data file format
VERSION 0.7
FIELDS x y z intensity
SIZE 4 4 4 4
TYPE F F F F
COUNT 1 1 1 1
WIDTH 1459
HEIGHT 1
VIEWPOINT 0 0 0 1 0 0 0
POINTS 1459
DATA ascii
2.8967052 3.1237812 -0.22326522 16
2.5780847 2.777266 -0.066144623 28
2.6288679 2.8528707 0.067715339 3
2.5973637 2.8157227 0.20076075 10
2.4694993 2.6742978 0.31846708 18
2.7129931 2.9338729 0.490646 27
3.1118643 3.361686 0.72554308 21
3.1625738 3.4128768 0.90443468 13
3.2595294 3.512588 1.1063094 14
3.2922702 3.5441473 1.2961658 27
1.563747 1.6745697 -0.61391884 27
1.7073882 1.8264707 -0.57722449 24
1.8649497 1.9922318 -0.53044903 34
1.9437 2.0741789 -0.45021844 12
2.266721 2.4163473 -0.40679988 15
2.5190945 2.6825638 -0.32195333 27
2.8048794 2.9827187 -0.21457745 31
2.8167171 2.9921663 -0.071729392 16
2.5749931 2.7555511 0.065830477 21
2.6019492 2.7814765 0.19960935 6
2.5916102 2.7675185 0.33171475 15
2.6505787 2.8265321 0.47577798 12
5.0388551 5.3677144 1.1660627 10
3.2118659 3.4178991 0.91168547 30
3.1191287 3.315733 1.0509714 8
3.013587 3.1990612 1.1776267 5
1.5740722 1.6622084 -0.61340117 35
1.7093722 1.8031923 -0.57362527 25
1.8717099 1.9723707 -0.52854097 42
2.0013099 2.1067302 -0.46023026 12
2.2712212 2.3875194 -0.40460625 15
2.5308909 2.6576977 -0.32108176 15
2.8457885 2.9852419 -0.21614751 28
2.8430612 2.9782147 -0.071869008 10
2.5634336 2.7060232 0.065062575 9
2.5108755 2.6477635 0.1912356 31
2.5450134 2.6800106 0.32334781 18
2.601372 2.7364876 0.46359101 18
4.9676967 5.2202439 1.141346 7
3.3114948 3.4749835 0.93305606 13
3.3197565 3.4800029 1.1103585 16
3.2407584 3.3936319 1.2573429 1
1.5907004 1.6570306 -0.61547172 22
1.718905 1.7887056 -0.57272542 25
1.8704597 1.9436949 -0.52434313 23
2.0200803 2.0969751 -0.46116886 10
2.281908 2.3662889 -0.4036313 17
2.541079 2.6313648 -0.32003587 21
2.8998759 2.9997652 -0.21865964 26
2.9592195 3.0579472 -0.074277438 10
nan nan nan nan
2.5846763 2.687753 0.19542249 10
2.556288 2.655448 0.32247624 11
2.5983679 2.6953945 0.4596912 18
3.1700339 3.2849634 0.72304016 9
3.0977278 3.2066741 0.86665452 6
nan nan nan nan
nan nan nan nan
1.5833645 1.6265056 -0.60822481 36
1.7218304 1.7668923 -0.56957608 31
1.8839828 1.9305903 -0.52434313 21
2.0263875 2.0743439 -0.45929164 9
2.2914317 2.343205 -0.40241259 11
2.5370834 2.5907843 -0.31724688 13
2.8676176 2.9252493 -0.21468212 22
2.7844105 2.8373966 -0.069390766 23
2.6065485 2.6756961 0.065202191 25
2.6438158 2.7111104 0.19845797 16
2.8044052 2.872777 0.35123762 7
2.8308229 2.8957918 0.49722698 11
3.1362457 3.2048659 0.71021259 13
3.2107155 3.2775302 0.89184129 5
3.2028942 3.2649868 1.0559204 16
3.0780206 3.1344078 1.1771091 11
1.5946819 1.6154112 -0.60822481 28
1.7423431 1.7631446 -0.57227552 22
1.89051 1.910413 -0.52243507 30
2.0213568 2.0404994 -0.4549115 11
2.3007455 2.3201029 -0.40119389 8
2.5382607 2.5560453 -0.31515515 22
2.8696637 2.8867457 -0.21332137 15
2.8831403 2.8972673 -0.071345441 34
2.6040838 2.636096 0.064678617 31
2.5615625 2.590338 0.19092159 31
2.6561892 2.6832163 0.33032027 18
nan nan nan nan
nan nan nan nan
3.2611911 3.2828918 0.89947367 24
3.2517247 3.2687953 1.0644685 9
3.1816192 3.1949742 1.2081673 27
1.615487 1.6137967 -0.61184824 25
1.7601264 1.7564446 -0.5740751 29
1.9107554 1.9040964 -0.52434313 33
2.0369537 2.0277305 -0.45522434 7
2.3056273 2.2927852 -0.39924401 5
2.5730083 2.5551095 -0.31724688 13
2.8599706 2.8371031 -0.21112327 54
2.7839832 2.7588327 -0.068413429 13
2.6068563 2.6023114 0.064294666 13
2.5951407 2.5879049 0.19207297 28
2.7750757 2.7644422 0.34269637 11
2.7499459 2.7355864 0.47626543 12
3.2283258 3.2081072 0.72085011 18
nan nan nan nan
3.1083896 3.0813811 1.0104802 52
3.0706961 3.0408289 1.1579564 5
1.625338 1.6011235 -0.61133063 26
1.7612339 1.7331789 -0.57047588 29
1.9296021 1.8962153 -0.52586961 34
2.0581079 2.0203807 -0.45678869 9
2.3144903 2.269685 -0.39802533 4
2.5765498 2.5231431 -0.31550378 16
2.9639444 2.8994694 -0.21729892 19
2.705924 2.6442907 -0.066039905 33
2.6377857 2.5966742 0.064608812 5
2.6159928 2.5725255 0.19228233 27
2.6692319 2.6221323 0.32735696 14
2.7434695 2.6912992 0.47187814 28
3.0136182 2.9532161 0.66828811 25
3.2954848 3.2260525 0.89642078 15
3.18696 3.1154575 1.0289263 13
3.1360786 3.0625083 1.1745209 12
1.6392475 1.5924296 -0.6123659 43
1.7746894 1.7221981 -0.57092583 20
1.932924 1.8731343 -0.52319831 27
2.0721626 2.0059631 -0.45678869 9
2.3202901 2.2438116 -0.39631912 8
2.0093541 1.9404098 -0.24438471 10
2.8978679 2.7955065 -0.21101859 31
2.7718358 2.6711259 -0.067191765 24
2.678807 2.6004817 0.065167286 23
2.6295869 2.5500283 0.19196831 21
2.5844386 2.5036216 0.31480655 13
2.7436438 2.6541378 0.46870953 23
3.2145638 3.1064389 0.70802242 13
3.1837406 3.0734305 0.86016703 17
3.748781 3.6138408 1.2021385 31
3.6583319 3.5229542 1.3608706 27
1.6321887 1.5635746 -0.6056366 25
1.7866685 1.7097673 -0.57092583 27
1.9402766 1.8541689 -0.52167183 22
2.0804009 1.9859917 -0.45553723 11
2.3287153 2.2207084 -0.39510044 16
2.5764699 2.4543979 -0.3113203 24
2.9549365 2.8110003 -0.21374007 15
2.8208559 2.6806388 -0.067924768 2
2.6694505 2.555443 0.064504094 28
2.6069083 2.4929576 0.1890375 22
2.6753285 2.5557067 0.32369643 18
2.7549255 2.6280665 0.46749085 21
3.5250413 3.3591967 0.771222 19
nan nan nan nan
nan nan nan nan
3.6141958 3.4321442 1.3355063 9
1.6444696 1.5534673 -0.6061542 30
1.7999796 1.6985891 -0.57137573 29
1.9499953 1.8382255 -0.52090853 22
2.0866804 1.9650135 -0.45397288 10
2.3600683 2.2193568 -0.39778158 15
2.5920889 2.4349878 -0.31114599 25
2.9507003 2.7689526 -0.21206531 49
3.0116811 2.8222287 -0.072043538 24
nan nan nan nan
2.649967 2.4998257 0.19092159 3
2.6974561 2.5410657 0.32421938 28
2.8103364 2.6446254 0.47382805 11
3.2801175 3.0834696 0.71302837 21
3.6586208 3.434473 0.97541571 20
3.2353368 3.033937 1.0239773 10
3.1115911 2.914834 1.1424273 22
1.6493518 1.5369706 -0.60408366 28
1.8015143 1.6770039 -0.5682264 46
1.9383361 1.8018435 -0.51442105 41
1.9671763 1.8267338 -0.42518893 27
2.3838534 2.21134 -0.39924401 15
2.6100659 2.4186406 -0.3113203 22
2.9289126 2.7103047 -0.2091345 40
2.9471216 2.7242918 -0.070053965 21
2.7395523 2.5511024 0.065341808 21
2.6951406 2.5071099 0.19291034 13
2.771611 2.5755398 0.33101749 10
2.7938068 2.5925355 0.46797833 16
3.1030927 2.876518 0.67016536 15
3.6300545 3.3614709 0.96167743 15
3.1400394 2.9046566 0.98753524 13
3.1162548 2.8786206 1.1367333 9
1.658619 1.5241112 -0.60356599 27
1.7973864 1.6498902 -0.56327748 29
1.9563433 1.7939165 -0.51594758 33
2.1019216 1.925383 -0.45146993 7
2.3860497 2.1825862 -0.39705035 13
2.6401248 2.4124558 -0.3128891 19
2.9531937 2.6956916 -0.20955318 40
2.9985819 2.7332871 -0.070821866 13
3.3076351 3.0383332 0.078396209 5
2.688597 2.4671023 0.1912356 36
2.9129155 2.6691949 0.34565967 23
2.7791765 2.5439699 0.46261609 10
3.5847235 3.2778945 0.76934481 21
3.4403181 3.1414421 0.90557957 20
3.8541982 3.5156682 1.204388 10
3.1486287 2.8690529 1.1413921 1
1.6632297 1.5075964 -0.6014955 27
1.8114643 1.6402335 -0.56417727 36
1.9586266 1.7709967 -0.51327622 25
2.1138468 1.9093366 -0.45115703 9
2.3964305 2.1623037 -0.39631912 12
2.7013063 2.4339771 -0.31811845 7
2.9763932 2.6790185 -0.20986721 22
2.9829149 2.6820631 -0.070019051 19
2.8470881 2.5788682 0.067052148 6
2.6776161 2.422811 0.18924683 21
2.696002 2.4368813 0.31794414 15
2.7865536 2.5151947 0.46090987 19
3.0808432 2.7779 0.65702486 18
3.5112188 3.1626251 0.91855454 33
3.219409 2.8957179 0.99968255 12
3.1815145 2.8586218 1.1460507 23
1.6549892 1.4792122 -0.5947662 35
1.8214175 1.6262492 -0.56372738 38
1.9592189 1.7468284 -0.51022327 27
2.127125 1.8945327 -0.45115703 9
2.4144337 2.1481597 -0.3968066 15
2.707808 2.4057949 -0.31689829 3
3.0368507 2.6952941 -0.21279801 21
3.022516 2.6797438 -0.07050772 22
2.8262455 2.5242946 0.066144623 20
2.7019169 2.4107072 0.18977019 16
2.6995625 2.4060693 0.31637534 10
2.7995956 2.4917219 0.4601787 10
3.1474006 2.7983267 0.66703665 28
3.3321104 2.9594283 0.86627293 31
3.2555833 2.8873949 1.0046314 16
3.2997203 2.923455 1.1812501 4
1.6710728 1.4727311 -0.59683669 36
1.8254131 1.6070552 -0.56147784 28
1.958096 1.7214415 -0.50678873 33
2.1239717 1.8652991 -0.44771552 11
2.417433 2.1207795 -0.39485672 17
2.7226214 2.3859956 -0.31672394 9
3.0661149 2.6832347 -0.21353073 24
3.0411506 2.6585774 -0.07050772 22
3.1499393 2.7741163 0.07326521 11
2.7936594 2.4577463 0.19500379 11
2.7956145 2.4568706 0.32561383 10
2.7661943 2.4275973 0.45189157 9
3.3970957 2.978126 0.71553135 42
nan nan nan nan
nan nan nan nan
1.9248133 1.6814908 0.68483526 4
1.6871461 1.4660984 -0.59890729 28
1.8365872 1.5942731 -0.56147784 35
1.9638361 1.7029277 -0.50526226 10
2.1187029 1.8352768 -0.44396105 11
2.4441905 2.1142404 -0.3968066 12
2.7241371 2.3539035 -0.31498083 12
3.1100092 2.6844893 -0.21531016 21
3.1156783 2.6855898 -0.071799204 13
2.9619277 2.5729504 0.068483248 10
2.8435099 2.4674728 0.19730657 11
2.7584913 2.3903236 0.31933865 24
2.8366864 2.4554832 0.46066615 13
3.2843029 2.8399405 0.68768603 12
3.286922 2.8381951 0.84413904 21
1.9758704 1.7043217 0.60241896 6
1.9332881 1.665827 0.68379998 5
1.6970872 1.4545797 -0.59890729 26
1.8399959 1.575397 -0.55922836 31
1.9741838 1.6879011 -0.50488061 13
2.1194463 1.8101786 -0.44145811 13
2.4483187 2.0881081 -0.39510044 11
2.7389889 2.3335347 -0.31480655 13
3.1758263 2.7028387 -0.21855497 21
3.3872936 2.8787391 -0.077593401 16
2.972223 2.5457067 0.068308719 12
2.9031584 2.4839189 0.20023739 3
2.7580364 2.3572538 0.3174212 23
3.2901282 2.8080502 0.53110665 30
3.2604563 2.7797766 0.67861283 12
1.9926631 1.6964898 0.50869679 7
1.9847509 1.6879619 0.60151911 6
1.9640094 1.6685507 0.69052929 7
1.691219 1.4286848 -0.59321326 26
1.8571794 1.5672171 -0.561028 50
1.9739109 1.6639547 -0.50182766 11
2.1535029 1.8127757 -0.44583827 10
2.1954346 1.84611 -0.35220242 12
2.7536862 2.3130758 -0.31463224 15
3.1277556 2.6235697 -0.21394941 31
3.1727977 2.6585219 -0.072252966 6
nan nan nan nan
2.8949022 2.4411926 0.19845797 23
2.7931206 2.3528595 0.31951293 32
nan nan nan nan
2.0189734 1.6965234 0.41768005 7
2.001451 1.6800127 0.50793356 4
1.9949936 1.6728126 0.60106927 7
1.9907109 1.6668562 0.69570565 9
1.7130266 1.4267346 -0.59735435 26
1.856091 1.5442425 -0.55742878 42
1.9706664 1.6372412 -0.4980115 10
2.1463449 1.7812971 -0.44177097 36
2.4470243 2.0279546 -0.39022568 11
2.7532859 2.279336 -0.31271479 22
3.2090998 2.6538556 -0.21824095 19
2.938868 2.4269271 -0.066528574 17
3.1001346 2.580188 0.07040301 26
2.8135831 2.3392038 0.19175896 28
nan nan nan nan
2.0307026 1.6841266 0.32392874 7
2.0246832 1.6773462 0.4164286 5
2.0406504 1.6881732 0.51480269 8
2.0144236 1.6647009 0.60331875 9
1.9769722 1.6320101 0.68690574 5
1.7067673 1.4009566 -0.59166032 26
1.8776423 1.5395703 -0.56057805 26
1.9850862 1.6259314 -0.49877474 9
2.1468039 1.7558875 -0.43926802 31
2.2981753 1.8776879 -0.36438939 8
2.7675881 2.2587991 -0.3125405 10
3.2078817 2.6144207 -0.21688022 17
2.9526379 2.4038258 -0.066458762 22
2.9449325 2.4164131 0.066493668 10
nan nan nan nan
2.0521233 1.6796448 0.23200859 8
2.0516305 1.6774485 0.32539117 6
2.0519359 1.6753079 0.4195573 7
2.0432577 1.6664406 0.51251298 6
2.0214639 1.6469042 0.60196906 5
1.9766116 1.6080683 0.68276465 9
1.710016 1.3847431 -0.58958983 30
1.8696307 1.5123763 -0.55517924 12
2.0052712 1.6197836 -0.50106448 10
2.1553278 1.7391298 -0.43864229 29
2.2240279 1.7926421 -0.35073999 12
2.7906585 2.2461557 -0.31341204 15
3.2204795 2.5893347 -0.21656621 10
nan nan nan nan
2.0814676 1.6843375 0.046737548 2
2.078259 1.6799412 0.14005104 9
2.0771692 1.6772628 0.23357739 7
2.0645471 1.6646895 0.32563493 8
2.0630019 1.661662 0.4195573 6
2.0297914 1.6331609 0.50640708 4
2.020474 1.623342 0.59836984 7
3.3688047 2.7037518 1.1574388 1
1.7181313 1.3715667 -0.58907217 27
1.8816663 1.5005028 -0.55562913 37
2.0057797 1.5971839 -0.49839315 10
2.1658707 1.7228106 -0.4383294 36
2.1820917 1.7338489 -0.34220913 28
2.8312449 2.2464314 -0.31620103 13
2.1412468 1.6971313 -0.14319119 5
2.1259348 1.6831833 -0.047330927 7
2.0900493 1.667271 0.046667732 6
2.0899365 1.6653912 0.14005104 6
2.1028576 1.6738883 0.23514619 9
2.0652399 1.6415905 0.32392874 6
2.062175 1.6373931 0.41705433 6
2.0472956 1.6238317 0.50793356 5
3.3944106 2.688448 0.99968255 7
3.6996939 2.9270878 1.2640723 13
1.7261467 1.3583438 -0.58855456 26
1.8875 1.483717 -0.55427945 37
2.015336 1.5819309 -0.4980115 10
2.1809537 1.7100871 -0.43895519 33
2.1925797 1.7173501 -0.34196541 55
2.1783023 1.7037132 -0.24194433 7
2.1498952 1.6796819 -0.14298184 5
2.1407866 1.6707611 -0.047400735 7
2.1189299 1.666235 0.047051687 7
2.1093662 1.6569278 0.1405744 10
2.1050882 1.6517861 0.23410031 6
2.0829003 1.6320297 0.3249037 6
2.0735562 1.6229566 0.41705433 6
nan nan nan nan
3.3931265 2.6490963 0.99383384 33
3.9637747 3.0912762 1.3468944 46
1.7325346 1.3438919 -0.58751929 18
1.8870291 1.4621483 -0.55113012 31
2.0170145 1.5606142 -0.49572179 10
2.1693945 1.6766993 -0.4342621 24
2.1998017 1.6983615 -0.34123421 7
2.1601622 1.6653523 -0.23863243 3
2.1916342 1.6877866 -0.14497061 8
2.1603227 1.6618723 -0.047575258 10
2.1463149 1.6636533 0.047400735 7
2.1050892 1.6299347 0.13952768 4
2.1008077 1.6248611 0.2323572 6
2.0926728 1.6162341 0.32465994 6
3.1733935 2.4482553 0.6348111 66
3.7352257 2.8785877 0.91664648 15
3.5474439 2.7299292 1.0334252 34
3.4001822 2.613771 1.1491566 20
1.7403398 1.3305904 -0.58700162 14
1.8925446 1.4453903 -0.54978037 32
2.0372272 1.5536379 -0.4980115 16
2.1951895 1.6722867 -0.43707794 10
2.2147641 1.6853669 -0.34172165 7
2.1936541 1.6674899 -0.24107277 6
2.2081363 1.6760675 -0.14528462 6
2.1543443 1.63346 -0.047191311 5
2.132453 1.6292044 0.046842258 5
2.1164169 1.6151987 0.13952768 9
2.1057625 1.6053236 0.23165996 5
2.9963264 2.2809374 0.46237233 21
3.190407 2.426043 0.6348111 33
3.5816951 2.7206268 0.87428689 41
3.5488667 2.6927619 1.0284762 58
3.4737809 2.6319675 1.1677916 34
1.7434151 1.3137574 -0.58493102 13
1.9072601 1.4356586 -0.55113012 50
2.0430477 1.5361952 -0.49686664 16
2.2238958 1.6703554 -0.44051951 10
2.2423573 1.6817745 -0.34415907 8
2.208431 1.654524 -0.24142142 3
2.2003052 1.6466382 -0.14402856 5
2.1688991 1.620774 -0.047261119 7
2.1355062 1.6086366 0.046667732 6
2.1321495 1.604359 0.13984169 1
3.0137014 2.2643969 0.32979733 31
3.0340102 2.2771719 0.46578467 13
3.2590034 2.4433737 0.64513582 24
3.9164984 2.9320488 0.95099211 16
3.7969906 2.8394797 1.0946119 14
4.0100946 2.9955714 1.3412004 13
1.750766 1.3007088 -0.58441341 12
1.8997738 1.4098692 -0.5461812 25
2.0537224 1.5218946 -0.49686664 9
2.235503 1.654789 -0.44051951 15
2.2377911 1.6546701 -0.34172165 5
2.2071054 1.6295983 -0.24002692 3
2.2021031 1.6241242 -0.14340053 5
3.5837629 2.6402485 -0.077698112 21
3.1148612 2.3124566 0.067715339 29
3.0914197 2.2925436 0.20170279 21
3.0146365 2.2331574 0.32822853 24
3.053025 2.2582974 0.46627215 12
3.1965437 2.3618691 0.62949234 24
4.2080569 3.1058502 1.0166303 9
3.8182902 2.8140588 1.0950618 42
3.6933155 2.7189701 1.2288729 64
1.7598041 1.2884544 -0.58441341 12
1.9017062 1.3908191 -0.54393172 30
2.05954 1.5040473 -0.49572179 10
2.248596 1.6403071 -0.44083238 10
2.2268269 1.6226413 -0.33830932 6
2.237761 1.6282167 -0.24211864 5
3.341085 2.4283316 -0.21646154 21
3.7768734 2.7420459 -0.081467837 10
3.6215496 2.6496024 0.078326404 12
3.3734171 2.465353 0.21897365 11
3.1218786 2.2790174 0.33816427 6
3.0671129 2.2357574 0.46602839 12
3.2049716 2.3336802 0.62792808 21
3.8358872 2.7900052 0.92198914 23
4.2430696 3.0816431 1.2106867 10
3.8560655 2.7974882 1.2764956 18
1.7468237 1.2603118 -0.5771665 12
1.924017 1.3866237 -0.54753089 34
2.063616 1.4850453 -0.49419534 10
2.2615969 1.6257222 -0.44114524 9
2.4412723 1.7529399 -0.3690204 4
2.9161842 2.0908659 -0.31393498 7
3.3595788 2.4061117 -0.21656621 33
3.6186502 2.5887921 -0.077663213 8
3.6967304 2.6651869 0.079548068 1
3.1328506 2.2561617 0.20233083 31
3.1393292 2.258332 0.33833858 46
3.1003819 2.2270298 0.46870953 20
3.269335 2.3457961 0.63731414 36
4.0403757 2.8958259 0.9662568 26
3.7969894 2.7173755 1.0779655 1
3.7592068 2.6873605 1.2381904 42
1.7587281 1.2503257 -0.57820177 12
1.9304721 1.3709021 -0.5466311 34
2.0835433 1.4774152 -0.49648505 10
2.2712801 1.6087507 -0.44083238 12
2.5863323 1.8298697 -0.38900697 8
2.7940199 1.9738886 -0.29929283 6
3.3811903 2.3860536 -0.21688022 21
4.051785 2.8561022 -0.086529031 13
3.5065801 2.4910769 0.075080253 2
3.1664426 2.2469494 0.20348223 33
3.233041 2.2916644 0.34670553 18
3.0931685 2.1892765 0.46529719 27
3.2969215 2.3308988 0.63950419 16
4.028419 2.8448997 0.95862442 16
9.5842609 6.7584472 2.7075109 2
3.7668211 2.6532636 1.2345669 13
1.7737433 1.2424504 -0.58027232 15
1.9336091 1.3529227 -0.54483151 39
2.093806 1.4628342 -0.49648505 10
2.2792153 1.5905951 -0.44020665 10
2.6055572 1.8163111 -0.38998193 6
2.9712584 2.0681558 -0.31672394 9
3.3862879 2.3544075 -0.21614751 22
3.6265228 2.5186214 -0.077069834 21
3.4337816 2.4034679 0.073160492 10
3.1705937 2.2167776 0.20274951 12
3.2718306 2.2850072 0.34914589 12
3.1148901 2.1721709 0.46627215 34
3.3147349 2.3089542 0.63981706 33
4.1803284 2.9086535 0.9899171 17
4.0938249 2.8442225 1.1508497 32
4.0820413 2.8328679 1.3313652 13
1.7903241 1.2355233 -0.58286053 21
1.9221492 1.3250122 -0.53898275 21
2.1023502 1.447068 -0.49610341 10
2.2951477 1.5780019 -0.44114524 9
2.6116285 1.7935815 -0.38900697 8
2.9757652 2.0406013 -0.31567809 9
3.4026423 2.3307095 -0.21614751 10
4.1176734 2.8173184 -0.087087512 7
3.620038 2.4963653 0.076755688 2
3.3685665 2.3203499 0.2143681 1
3.2335367 2.2248428 0.34339362 24
3.1447043 2.1604886 0.46846578 31
3.3421745 2.2935805 0.64200711 27
4.2410173 2.9071472 0.9994576 2
3.9768894 2.7220156 1.112608 53
4.1192603 2.8162966 1.3370593 10
1.7877222 1.2153924 -0.57923704 11
1.9265162 1.3082764 -0.53763306 16
2.1075265 1.42905 -0.49495855 10
2.3077435 1.5630478 -0.44145811 7
2.6142213 1.7686311 -0.38754454 8
2.9932399 2.0220087 -0.31602672 7
3.4221408 2.3091335 -0.21635687 10
3.6464095 2.4576845 -0.076755688 8
5.6008005 3.8048718 0.1181877 1
3.3863361 2.2978978 0.21447276 9
3.2671313 2.2145107 0.34531105 30
3.161356 2.1395931 0.46870953 28
3.3466513 2.2624462 0.63981706 18
20.669874 13.957752 4.8480754 8
4.0765843 2.7486572 1.135103 24
4.1260023 2.7788365 1.332918 9
1.7833229 1.1942815 -0.57509595 12
1.9307435 1.2915443 -0.53628331 10
2.1158185 1.4132124 -0.49457693 10
2.3333881 1.5567667 -0.44427395 9
2.6248541 1.7492353 -0.38730082 9
2.5146396 1.673255 -0.26425621 11
3.4531488 2.2951365 -0.21729892 3
3.6551485 2.4266374 -0.076581158 14
3.5149393 2.3521588 0.073823676 10
3.4222217 2.2875197 0.21572883 6
3.3090241 2.2093492 0.34810004 22
3.2191591 2.1461012 0.47504675 24
3.3245471 2.2138462 0.63262105 19
nan nan nan nan
4.0761957 2.707191 1.1297042 14
4.1968179 2.7841365 1.3494825 27
1.7867793 1.1786113 -0.57354301 12
1.939713 1.2780337 -0.53628331 9
2.1305542 1.4016428 -0.49572179 10
2.3309932 1.5317589 -0.44177097 9
2.645299 1.7363154 -0.3885195 8
3.0008399 1.9674375 -0.31393498 7
3.4540482 2.2611277 -0.21635687 10
3.7556849 2.4557779 -0.078326404 19
5.653378 3.7263038 0.1181877 8
3.8084416 2.5073938 0.23896599 46
3.3310254 2.1905746 0.34879729 18
3.2440193 2.1301124 0.47650915 32
3.4439843 2.2588351 0.65233177 18
20.885729 13.682866 4.8534179 8
3.9542925 2.5876176 1.0910127 14
4.1886582 2.7368076 1.3406827 27
1.7965835 1.1671618 -0.57406068 12
1.9306056 1.2527932 -0.53133446 11
2.13675 1.3849734 -0.49495855 10
2.3380487 1.513711 -0.44114524 9
2.6440194 1.7091841 -0.38656959 8
3.014502 1.9464397 -0.31393498 7
3.5129991 2.2657099 -0.21907835 10
4.1526999 2.6741819 -0.086214885 16
5.5595398 3.6104064 0.11570945 4
3.8002877 2.4651072 0.23739593 13
3.4181466 2.2138376 0.35629267 22
3.3467798 2.1651289 0.48942733 13
3.4178021 2.2085378 0.64451009 22
nan nan nan nan
4.6143751 2.9737625 1.2673743 3
6.8533344 4.4115968 2.1839154 8
1.8044871 1.1549048 -0.57406068 12
1.9374472 1.2385724 -0.5308845 9
2.1529865 1.3742477 -0.49648505 10
2.3552217 1.5015992 -0.4423967 9
2.6488936 1.6868831 -0.38559461 8
3.0381052 1.9317613 -0.31498083 7
2.6065066 1.6554159 -0.1618228 7
4.1235261 2.6158602 -0.085237555 11
5.5862927 3.5725856 0.11574436 14
5.8557086 3.7405663 0.36415362 7
3.4633682 2.2098114 0.35943025 15
3.3383746 2.1267791 0.48601499 23
3.4914672 2.2217405 0.65546048 18
7.0036979 4.4515438 1.6130993 4
6.9286761 4.3970728 1.8945378 12
4.1705179 2.6436298 1.323083 3
1.8141396 1.1433098 -0.57457829 12
1.962538 1.2353985 -0.53538352 9
2.1459064 1.3487352 -0.49266884 10
2.3756864 1.4914206 -0.44427395 9
2.6471524 1.6599115 -0.38364473 8
3.0447614 1.9062766 -0.31428361 7
2.6281595 1.6435337 -0.16245082 25
3.7159851 2.321106 -0.076476447 24
5.5772552 3.5121872 0.11504627 14
5.710927 3.5921903 0.35358176 15
3.5343843 2.2205565 0.36518255 11
3.4220872 2.1466706 0.49600828 13
3.5135884 2.2015069 0.656712 19
7.0046496 4.3837929 1.6062301 4
6.9261527 4.3279405 1.8855398 2
6.8454304 4.2725172 2.1621742 12
1.8105867 1.123487 -0.57095486 12
1.9644895 1.2175611 -0.53358394 10
2.1569397 1.3347542 -0.49305046 9
2.3776391 1.469606 -0.44270959 7
2.6620545 1.6434761 -0.38413221 8
3.0546045 1.8828813 -0.31393498 7
nan nan nan nan
4.1596475 2.5580313 -0.085237555 15
5.6339297 3.4931862 0.11570945 9
5.727376 3.5469749 0.3530584 18
5.9490929 3.6799767 0.61200762 11
5.7288785 3.5382302 0.82676172 20
5.7396698 3.5407445 1.0681347 8
7.0049949 4.3162494 1.5993611 5
4.6341462 2.8509457 1.2561268 12
6.8290052 4.1963043 2.1476805 12
1.8051974 1.1027626 -0.56681371 12
1.9679512 1.2007716 -0.53223425 10
2.1594985 1.3155787 -0.49152401 9
2.3878403 1.4529722 -0.44270959 7
2.6836405 1.6310384 -0.38559461 8
3.0540488 1.8532416 -0.3125405 6
3.6073442 2.1864061 -0.22106709 7
4.1842475 2.5330718 -0.085377172 7
5.6240444 3.4329286 0.11501136 16
5.8935409 3.5931962 0.36174616 7
5.7789459 3.5191808 0.5919618 33
5.6007843 3.4053321 0.80482519 20
5.6696978 3.4431674 1.050614 19
6.9778852 4.2326217 1.586386 5
6.9042268 4.1813517 1.8634946 8
6.8135023 4.1215329 2.1337044 12
1.8128515 1.0901339 -0.56681371 12
1.9812974 1.1900145 -0.53358394 8
2.1820998 1.3085479 -0.49457693 12
2.3742003 1.4220562 -0.4383294 7
2.688148 1.6081871 -0.38461968 8
3.0597503 1.8283237 -0.31184325 7
3.5624874 2.125356 -0.21740359 10
4.1743431 2.4874222 -0.084818691 1
5.5158887 3.314281 0.11232369 11
5.9544439 3.57355 0.36394429 26
5.861474 3.5135813 0.59788835 17
5.7368441 3.4334283 0.820912 27
5.598649 3.34674 1.0330933 21
6.9600687 4.1556201 1.5757008 4
6.9375515 4.1372499 1.8648443 6
6.9217849 4.1213045 2.158551 9
1.8303934 1.0833542 -0.56991959 12
1.9912349 1.1771442 -0.53403383 10
2.185885 1.29067 -0.4934321 11
2.3991389 1.4148937 -0.44114524 9
2.7027309 1.5913954 -0.38510716 8
3.0827444 1.8129781 -0.3128891 6
3.5785947 2.1020672 -0.21750826 7
4.2278304 2.4794631 -0.085551701 3
5.5486455 3.2827706 0.11253312 6
7.1444378 4.2218437 0.43491185 11
5.8755651 3.4665005 0.59684253 35
5.7600803 3.3943019 0.820912 7
5.815371 3.4227829 1.0687604 16
7.0295324 4.1308036 1.5848596 4
7.023406 4.1222582 1.8801411 6
6.9830093 4.0936341 2.1689036 63
1.8293794 1.0660069 -0.56733137 12
1.9924644 1.159642 -0.53223425 10
2.1846571 1.26946 -0.49114239 11
2.4089584 1.3981103 -0.44114524 9
2.703196 1.5669883 -0.38364473 6
3.0846679 1.7859628 -0.31184325 7
3.6346812 2.1010232 -0.22002037 7
4.2238283 2.4386296 -0.085132837 20
5.5420504 3.2268486 0.11193974 9
7.0528798 4.1015787 0.4275848 8
5.8352795 3.3894002 0.59039295 27
nan nan nan nan
5.7331452 3.3207157 1.0493625 22
nan nan nan nan
nan nan nan nan
7.0264792 4.053472 2.1735625 100
1.828397 1.0484054 -0.56474322 12
1.9988201 1.1447362 -0.5317843 11
2.1898386 1.2526115 -0.49037915 12
2.4081273 1.375802 -0.43926802 9
2.7106211 1.5461111 -0.38315722 6
3.0935986 1.7624117 -0.31149462 9
3.6471624 2.0752463 -0.2199157 10
4.2337956 2.4051313 -0.084993221 5
5.5621529 3.1880529 0.11190483 11
7.1239686 4.0782838 0.43020159 8
5.8138247 3.3228745 0.58586085 20
5.7339258 3.2732267 0.81067497 17
5.7710605 3.2904203 1.0521784 14
7.1608906 4.0762229 1.6016507 64
7.071105 4.0202131 1.8778915 100
nan nan nan nan
1.8324871 1.0333972 -0.56370795 12
2.0035646 1.1284909 -0.5308845 11
2.2092299 1.2422981 -0.49266884 11
2.4147038 1.356177 -0.43864229 9
2.7250783 1.5286173 -0.38364473 8
3.082098 1.7260579 -0.30905426 6
3.650075 2.0416307 -0.21918301 7
4.2351856 2.3659959 -0.084679075 10
5.5557561 3.1305068 0.11131145 13
7.0997148 3.9955864 0.42695674 8
5.8287702 3.2763057 0.58498931 26
5.9429955 3.3350573 0.83675498 31
5.8122554 3.2576888 1.055307 19
7.1504731 4.0028234 1.5928736 64
nan nan nan nan
10.333638 5.768178 3.171051 1
1.8430353 1.0224531 -0.56474322 11
2.0113943 1.1144758 -0.5308845 11
2.2161305 1.2258953 -0.49228725 9
2.4223831 1.3383319 -0.4383294 10
2.7322066 1.5076385 -0.38315722 9
3.1150143 1.7160351 -0.31114599 7
3.6642392 2.0160985 -0.21918301 7
4.2813935 2.3527431 -0.085272454 3
5.4567966 3.0247505 0.10890301 11
7.0872483 3.9236751 0.42454931 8
nan nan nan nan
5.8879309 3.2503119 0.82578677 12
5.8365879 3.2179832 1.0556198 17
7.1335325 3.9281802 1.5829515 67
nan nan nan nan
10.192461 5.5964122 3.1156638 1
1.8518248 1.0104856 -0.56526077 12
2.0122814 1.0966754 -0.52908486 11
2.2211859 1.2085173 -0.49152401 7
2.4351389 1.3232744 -0.43895519 10
2.7374315 1.4856867 -0.38242605 9
3.1231189 1.6928947 -0.31079736 7
3.6571453 1.9790633 -0.21792693 7
4.2730842 2.3094869 -0.084783792 5
5.5216713 3.0105147 0.10977564 9
7.1390224 3.887476 0.42601472 17
7.0833902 3.8523753 0.70543861 1
5.954092 3.2328072 0.83188021 10
5.923162 3.2119992 1.0671961 9
7.1297088 3.8614535 1.5760823 68
10.080297 5.4526696 2.6458743 2
10.200688 5.5085917 3.1063464 1
1.8554293 0.99570686 -0.56422555 12
2.0198882 1.0826012 -0.52908486 11
2.2172444 1.1868844 -0.48885265 9
2.4406054 1.3048054 -0.4383294 10
2.7442346 1.4646688 -0.38193855 9
3.1348619 1.6710484 -0.31079736 4
3.6705325 1.9541222 -0.21792693 7
4.2449584 2.2561364 -0.083911166 24
5.5226512 2.9624622 0.10939168 11
7.158278 3.835016 0.42559603 28
7.0556483 3.7737 0.70003492 1
6.1055269 3.2614195 0.84991688 1
6.9766579 3.7220621 1.2524145 10
7.1322317 3.7986677 1.5707397 63
10.198979 5.4251819 2.6670198 2
10.365899 5.5070109 3.145169 1
1.8536217 0.97854483 -0.56163734 12
2.0220392 1.0661007 -0.52773523 12
2.2185273 1.1677185 -0.4873262 9
2.4514039 1.2886542 -0.43864229 9
2.7471099 1.4422659 -0.38096359 9
3.1288042 1.6398746 -0.30905426 4
3.687624 1.9303038 -0.2181363 7
4.2442679 2.2188516 -0.083597034 19
5.5237427 2.9135721 0.10900773 14
7.1513009 3.7672651 0.42360729 28
7.0600123 3.7144539 0.69794315 1
7.0314655 3.6931694 0.97519863 3
6.9674888 3.6549094 1.2461572 10
7.1231446 3.7318068 1.5631074 67
10.202068 5.3357844 2.6580219 2
10.414366 5.4398756 3.1482749 1
1.8586936 0.96469045 -0.56111974 12
2.0346229 1.0546485 -0.52908486 11
2.2266254 1.1522019 -0.4873262 11
2.451566 1.2669741 -0.43707794 10
2.7535841 1.4212314 -0.38047612 9
3.1472607 1.6216416 -0.30975151 7
3.7027857 1.9054261 -0.21824095 5
4.2987833 2.2092762 -0.084364928 8
5.5244217 2.8648119 0.10862378 11
7.1082611 3.6814258 0.41952509 8
7.0503793 3.6467681 0.69445693 2
7.0218 3.6257749 0.9703238 3
6.9577203 3.5880737 1.2398998 10
7.1176047 3.6658094 1.5562382 79
10.284131 5.2875981 2.6697195 2
10.644567 5.4658661 3.2062504 1
1.8584996 0.94817889 -0.55904913 12
2.0280457 1.0333409 -0.52548569 9
2.2311149 1.1348499 -0.48656297 12
2.4585905 1.2489334 -0.43676507 9
2.77052 1.4055654 -0.38145107 9
3.1478405 1.594229 -0.30870563 6
3.707087 1.8750222 -0.2177176 7
4.3230271 2.1837194 -0.084539458 17
5.4552078 2.7807665 0.10687853 8
7.1409073 3.6353352 0.41994375 23
7.0419226 3.5803018 0.691145 3
7.0044584 3.5551026 0.96447408 2
6.9544082 3.5251224 1.2348938 10
7.1044888 3.5965223 1.5478426 75
10.265141 5.187541 2.6553226 2
nan nan nan nan
1.8633469 0.93431509 -0.55853152 12
2.0282402 1.015667 -0.52368605 9
2.2442517 1.1218785 -0.48770785 12
2.4584126 1.2273271 -0.43520072 10
2.7767124 1.3844179 -0.38096359 11
3.1695948 1.5775422 -0.30975151 7
3.7165103 1.8473163 -0.21750826 7
4.3220477 2.1454816 -0.084225312 21
5.5692449 2.7900889 0.1087285 9
7.0893059 3.5469694 0.41544285 8
7.0471387 3.52126 0.68922758 3
7.0042377 3.493711 0.96106172 3
6.9540949 3.4641542 1.2305136 10
7.1012998 3.5328443 1.5417367 72
10.665883 5.2969131 2.749352 2
nan nan nan nan
1.8732897 0.92299235 -0.5595668 12
2.0352809 1.0014834 -0.52368605 10
2.2361698 1.0983934 -0.48427325 11
2.4793358 1.2162242 -0.43739083 10
2.7756138 1.3597591 -0.37950116 9
3.1805315 1.5553741 -0.30975151 6
3.7185476 1.8160681 -0.21688022 7
4.3584871 2.125777 -0.084644176 17
5.5580878 2.7361259 0.1081351 11
7.1174827 3.4991496 0.41565222 22
7.0483022 3.4605575 0.68696153 5
6.9928055 3.4272575 0.95618695 8
6.9373002 3.3955505 1.2233176 12
7.1010952 3.4711146 1.536394 64
20.515512 10.010519 5.2701535 9
nan nan nan nan
1.8709937 0.90568328 -0.55697864 11
2.0439777 0.9880982 -0.52413601 10
2.2331741 1.0776368 -0.48198354 11
2.485986 1.1980289 -0.43707794 10
2.7886157 1.3420715 -0.37998864 11
3.1841292 1.5296811 -0.30905426 7
3.7347369 1.7917913 -0.21708956 7
4.3714185 2.0944331 -0.084609263 15
5.4996467 2.6598163 0.1066342 9
7.1147599 3.4363449 0.41408211 24
7.0453711 3.3982828 0.68434685 8
7.0058308 3.3731885 0.95472455 2
6.9270139 3.3307688 1.2173731 10
7.0933013 3.4061549 1.529525 67
20.721968 9.9327526 5.3052459 9
nan nan nan nan
1.8772715 0.89259833 -0.55697864 9
2.0490661 0.97296757 -0.52368605 10
2.2477393 1.0653837 -0.48351002 11
2.4907184 1.1789542 -0.43645221 10
2.8015068 1.3242674 -0.38047612 9
3.1731081 1.4972118 -0.30696252 4
3.7507689 1.767377 -0.21729892 7
4.3841243 2.0630121 -0.084574364 17
5.5144677 2.6196432 0.1065644 13
7.0880499 3.3626244 0.41115132 16
7.0329113 3.3319566 0.68086064 10
7.0004978 3.3106143 0.95082474 2
6.93045 3.2730486 1.2139316 12
7.0867219 3.3423145 1.5230374 73
20.99885 9.8857975 5.3583345 9
nan nan nan nan
1.8817061 0.87865418 -0.55646098 10
2.0416789 0.95205104 -0.52008688 10
2.2569022 1.0504938 -0.48389161 11
2.4863496 1.1557072 -0.4342621 9
2.814285 1.3063473 -0.38096359 9
3.1943295 1.4800501 -0.3080084 4
3.737638 1.7294084 -0.2158335 7
4.4129415 2.0390675 -0.084853604 7
5.4945655 2.5633268 0.10583139 14
7.1204047 3.3172758 0.41167465 38
7.0307112 3.2710104 0.67842031 11
6.9730277 3.2382498 0.94400001 2
6.92625 3.2121191 1.2092385 12
7.0689087 3.2737823 1.5142603 83
21.226559 9.812542 5.3988256 10
nan nan nan nan
1.8860383 0.86469084 -0.55594331 9
2.046504 0.93696308 -0.51963699 10
2.2606103 1.033079 -0.4831284 10
2.5087342 1.144882 -0.43676507 9
2.8124983 1.2817286 -0.37950116 9
3.2009571 1.4560634 -0.30765978 9
3.7496212 1.7032708 -0.2158335 7
4.4052172 1.9982945 -0.084434748 10
5.4450593 2.4940937 0.10453992 9
7.0780039 3.237577 0.40790647 27
7.035253 3.2135689 0.67667717 13
6.9593396 3.173023 0.93912524 2
6.9233351 3.1522298 1.2048583 10
7.0594206 3.209729 1.5073912 83
21.418762 9.7204866 5.4303188 10
6.9239645 3.1379349 2.036906 54
1.8990759 0.85467416 -0.55801392 11
2.0512178 0.92185414 -0.51918709 9
2.2606018 1.0140588 -0.48160195 11
2.5148625 1.1265335 -0.43645221 10
2.8141294 1.2588216 -0.37852621 9
3.2074065 1.432055 -0.30731115 7
3.7486517 1.6713588 -0.2151008 5
4.3880048 1.9536648 -0.083841361 1
5.3802657 2.4191198 0.10296919 14
7.0712838 3.1749916 0.40623173 22
7.0375204 3.1554055 0.67475975 16
6.9704504 3.1194947 0.93766278 2
6.8874626 3.078028 1.1948466 10
nan nan nan nan
nan nan nan nan
6.9209895 3.0785315 2.029659 100
1.8926259 0.83593261 -0.55439043 12
2.05582 0.90672594 -0.51873714 10
2.258642 0.99429709 -0.47969386 11
2.5154324 1.1057692 -0.43520072 10
2.8283019 1.2415383 -0.37925744 6
3.2136753 1.4080305 -0.30696252 7
3.7766964 1.6523546 -0.21604285 5
4.331903 1.8925631 -0.082514979 1
5.367753 2.3685803 0.10241073 14
7.0731707 3.1166918 0.40508035 22
7.032021 3.0941641 0.67214507 20
nan nan nan nan
4.2892718 1.8810716 0.74181229 1
4.2531371 1.8625703 0.90252656 2
6.9978309 3.0587337 1.7631664 63
6.9192958 3.0200925 2.0229297 45
1.8948706 0.82116187 -0.5533551 12
2.0728314 0.89699423 -0.52143657 10
2.2691326 0.98006254 -0.48045707 11
2.5158353 1.085052 -0.43394926 10
2.8332541 1.2201923 -0.37876993 8
3.2161055 1.3824134 -0.30626526 9
3.7936459 1.6283113 -0.21635687 5
4.3560381 1.8670012 -0.082724407 1
5.411684 2.3429661 0.10293429 13
nan nan nan nan
nan nan nan nan
4.3151917 1.8593087 0.57692951 1
6.8934765 2.9659488 1.1885892 8
nan nan nan nan
nan nan nan nan
6.8940396 2.9519389 2.0094712 77
1.8987796 0.80715752 -0.55283749 12
2.0718679 0.87945557 -0.51963699 11
2.2849581 0.96802634 -0.48236516 10
2.5160718 1.0643831 -0.43269777 10
2.8545041 1.2057899 -0.38047612 9
3.2180974 1.3573927 -0.30556804 9
3.7846725 1.5932626 -0.21520546 7
4.4316425 1.8628918 -0.083911166 1
4.4247847 1.8791232 0.083911166 1
4.401989 1.8667201 0.25058457 1
7.0231662 2.9739265 0.66726434 30
4.3058076 1.8206159 0.57400465 1
nan nan nan nan
7.0449748 2.9686725 1.4860206 7
nan nan nan nan
nan nan nan nan
1.9006635 0.79272783 -0.55180228 12
2.0634139 0.85933971 -0.51603776 10
2.2842433 0.94943553 -0.48083872 10
2.5214341 1.0464751 -0.43238491 11
2.8443072 1.1787322 -0.37803873 9
3.2383084 1.3400272 -0.30661389 7
3.7806618 1.5613652 -0.2143681 5
4.4442205 1.8326833 -0.083911166 1
5.4360905 2.2650518 0.10279468 13
nan nan nan nan
nan nan nan nan
nan nan nan nan
6.8899102 2.8524892 1.1810803 10
nan nan nan nan
19.342478 7.9842463 4.8310494 8
nan nan nan nan
1.9113795 0.78196549 -0.5533551 12
2.069216 0.84527367 -0.51603776 10
2.2779272 0.92867696 -0.47816736 10
2.5358171 1.0322669 -0.43363637 9
2.8451097 1.1558591 -0.37706378 9
3.2475841 1.3173884 -0.30661389 9
3.7856476 1.5333472 -0.21405408 5
4.3475232 1.7573963 -0.08185178 5
nan nan nan nan
4.3160405 1.761345 0.24430427 1
4.2234073 1.7209631 0.39899898 7
nan nan nan nan
6.865242 2.7876852 1.1735715 10
7.0415683 2.8535593 1.4768617 82
19.412197 7.8548632 4.8346481 8
nan nan nan nan
1.9133399 0.76683062 -0.55231988 12
2.0806394 0.8326171 -0.51738745 10
2.2807086 0.91129446 -0.47740412 11
2.5468082 1.0155592 -0.4342621 10
2.8567984 1.1374369 -0.37755126 9
3.2418909 1.288794 -0.30521941 7
3.807662 1.5106376 -0.21468212 5
4.3373761 1.7181667 -0.081432931 8
4.4142804 1.7682689 0.08300364 1
nan nan nan nan
4.2448668 1.6943904 0.39987054 1
4.125093 1.6440779 0.54524344 1
6.8556461 2.7268062 1.1685656 12
7.0357733 2.7941854 1.471519 85
19.531775 7.745008 4.8508449 8
nan nan nan nan
1.9114537 0.75063068 -0.55024934 11
2.0918436 0.82020617 -0.51873714 10
2.2889998 0.89566624 -0.47778577 11
2.544637 0.99415892 -0.43269777 10
2.86467 1.1174636 -0.37755126 9
3.2324631 1.2583364 -0.30347627 8
3.806946 1.479677 -0.21405408 7
4.3436728 1.6856738 -0.081328213 7
4.3002343 1.686976 0.080630124 1
nan nan nan nan
4.2380366 1.6574574 0.39812744 7
4.1108632 1.6044132 0.54183114 1
6.8597903 2.6731439 1.1660627 10
7.0221744 2.732188 1.4646499 81
19.688427 7.6445427 4.8760395 8
nan nan nan nan
1.9130416 0.73588079 -0.54921407 11
2.088423 0.80208898 -0.51648766 10
2.2970295 0.88036782 -0.47816736 10
2.5367558 0.97072315 -0.43019485 7
2.8742554 1.098147 -0.37779501 6
3.2597861 1.2428353 -0.30521941 9
3.7985177 1.4459562 -0.21300736 7
4.3497281 1.6531748 -0.081223503 7
4.2521744 1.6339607 0.079513162 1
4.2590361 1.6340387 0.23907068 1
4.1918273 1.6057359 0.39272377 1
4.1238179 1.5763836 0.54207492 3
6.8598304 2.6181448 1.1629339 10
7.0117245 2.6719122 1.458544 79
18.058258 6.866909 4.46033 7
nan nan nan nan
1.9271717 0.72591221 -0.55180228 12
2.0793798 0.78200185 -0.51288843 10
2.3012817 0.86362034 -0.47778577 7
2.5527201 0.95645505 -0.43175918 9
2.8744149 1.0752722 -0.37682006 8
3.2721162 1.2214425 -0.30556804 9
3.8047762 1.418009 -0.21279801 3
4.3630366 1.6234671 -0.081258401 7
4.2541199 1.6007138 0.07933864 2
4.1992922 1.577574 0.23509313 1
4.1880121 1.5708348 0.39132929 8
4.1310048 1.5461638 0.54158741 35
6.8631377 2.5646584 1.160431 10
7.0044546 2.6132882 1.4532013 79
17.919476 6.67132 4.4144397 6
nan nan nan nan
1.9321922 0.71244121 -0.55180228 12
2.092103 0.77015978 -0.51468807 11
2.2980406 0.84414858 -0.47587767 9
2.5556259 0.93725008 -0.43113342 9
2.8706675 1.0510836 -0.3753576 5
3.2768207 1.1972015 -0.30521941 9
3.8164597 1.3920968 -0.21290269 5
4.3535957 1.585441 -0.080874451 8
4.2389212 1.5612996 0.078849971 2
4.2008309 1.5447726 0.23456979 4
4.2026172 1.5429322 0.39167792 5
nan nan nan nan
6.8493371 2.505147 1.1551123 12
7.0151515 2.5616305 1.4516749 81
17.859417 6.5073614 4.3883457 6
nan nan nan nan
1.9298502 0.696311 -0.54973167 12
2.097429 0.75553441 -0.51468807 9
2.3001821 0.82675755 -0.47511441 9
2.5639656 0.92005408 -0.43144631 9
2.8966224 1.0377132 -0.37779501 5
3.2700901 1.1689308 -0.3038249 6
3.8185613 1.3627337 -0.21248402 5
4.3325353 1.5435992 -0.080281071 7
4.3061547 1.552009 0.079897113 2
4.2434611 1.5269032 0.23634921 1
4.1982856 1.5081658 0.39028341 1
4.1690083 1.4943633 0.5437811 1
6.8369012 2.4466195 1.1501063 12
7.0143762 2.5059879 1.4478587 81
17.775923 6.3367071 4.3568521 6
10.263142 3.6525187 2.9189613 2
1.9237341 0.67896336 -0.54662579 12
2.1044908 0.74152082 -0.51513797 10
2.3040464 0.81002694 -0.47473282 9
2.5610073 0.89885962 -0.42988196 9
2.8888099 1.0122129 -0.37584507 6
3.2725282 1.1441017 -0.30330199 8
3.8374093 1.3393344 -0.21300736 5
4.3450933 1.5139749 -0.080315977 3
4.3583746 1.5365381 0.080665022 2
4.303 1.5144835 0.23907068 1
4.2162304 1.4814636 0.39098063 1
4.194325 1.4704756 0.54573095 3
6.8183899 2.3864305 1.1441618 7
7.0001931 2.4459484 1.4413712 90
17.7314 6.1816692 4.3352571 6
nan nan nan nan
1.9339056 0.66740823 -0.54817873 12
2.0930336 0.72109866 -0.51108885 9
2.3115017 0.79456002 -0.47511441 9
2.5560093 0.87711143 -0.42800474 10
2.9051957 0.99523723 -0.37706378 9
3.2879777 1.1238033 -0.30399922 8
3.8428864 1.3112198 -0.21279801 5
4.3725939 1.4894042 -0.080630124 1
4.355762 1.5015115 0.080420688 1
4.3210225 1.4870056 0.23948936 1
4.2471976 1.4591134 0.39289808 3
4.219511 1.4463092 0.54768091 7
6.8218007 2.3342977 1.1419717 3
nan nan nan nan
nan nan nan nan
9.8577414 3.3539302 2.7900696 6
1.9440092 0.65574312 -0.54973167 12
2.0998638 0.70709085 -0.51153874 9
2.3188531 0.77902967 -0.47549605 8
2.5733075 0.86301571 -0.42988196 9
2.9007783 0.97115105 -0.37560135 9
3.295743 1.1008215 -0.30399922 8
3.8519468 1.2843593 -0.21279801 5
nan nan nan nan
4.4116197 1.4863875 0.081258401 1
4.4183798 1.4860897 0.24430427 1
4.3101664 1.4471815 0.39777881 3
4.2596216 1.4269048 0.55158067 3
6.8191967 2.2803509 1.1388431 7
nan nan nan nan
4.1711135 1.3891642 1.0149792 1
10.375878 3.4495845 2.9298317 2
1.9467052 0.64155078 -0.54921407 12
2.1028976 0.69180483 -0.51108885 10
2.3149087 0.75976098 -0.47358796 9
2.583024 0.84625959 -0.43050769 9
2.8942802 0.94655675 -0.37389517 8
3.2957709 1.0753156 -0.30330199 8
3.8494251 1.2537254 -0.21216999 7
4.4348006 1.4418094 -0.081398018 1
4.4522796 1.4655583 0.081816882 1
nan nan nan nan
4.3599205 1.4300982 0.40143937 3
4.2581611 1.3934261 0.55011827 11
6.8105407 2.2247112 1.1347758 1
nan nan nan nan
17.553051 5.710115 4.2614727 6
10.035901 3.2589304 2.8273394 2
1.9419415 0.62498534 -0.54662579 12
2.1188083 0.68068326 -0.51378828 9
2.3164172 0.742383 -0.47282472 9
2.5926318 0.82940984 -0.43113342 9
2.9102728 0.92934704 -0.37511387 9
3.3031979 1.0522807 -0.30330199 6
3.8676002 1.2298489 -0.21269335 7
4.4295101 1.4059762 -0.081118785 1
5.1972518 1.6706572 0.095290139 1
6.8976669 2.2132721 0.37964505 7
nan nan nan nan
4.2602205 1.3612497 0.54914331 1
4.2344322 1.3505667 0.70395517 12
6.9759641 2.2209477 1.4230535 3
10.055505 3.1936562 2.43577 2
nan nan nan nan
1.9444146 0.61083382 -0.54610825 12
2.116071 0.66354221 -0.51198864 9
2.3365333 0.73088223 -0.47587767 9
2.5738461 0.80363595 -0.42706612 7
2.9147954 0.90841496 -0.37487015 9
3.2988696 1.0262195 -0.30225611 8
3.8684621 1.2004503 -0.21227466 7
4.393374 1.3608181 -0.080281071 1
4.4417801 1.3936729 0.081258401 1
4.3227386 1.3538362 0.23739593 1
4.3091025 1.3470886 0.39498982 1
6.8545117 2.1375692 0.88160288 3
6.7975574 2.1159036 1.1275797 8
nan nan nan nan
10.123541 3.1395721 2.4470177 2
6.8193293 2.1096296 1.9126729 65
1.954173 0.59894276 -0.54766113 12
2.1187882 0.64818305 -0.51153874 10
2.330188 0.71152085 -0.47358796 9
2.5773671 0.78552181 -0.42675328 9
2.9210658 0.88804507 -0.37487015 8
3.2983272 1.0008515 -0.30155888 8
3.8765435 1.1740906 -0.21227466 7
4.4314809 1.3387859 -0.080804639 3
5.1719923 1.5841985 0.09441752 1
6.7880988 2.0753305 0.372004 4
6.9102039 2.1073918 0.63205343 37
6.8423176 2.0827663 0.87819058 10
6.8023534 2.0667107 1.1260154 7
6.9405327 2.103405 1.4096969 77
nan nan nan nan
nan nan nan nan
1.9563534 0.58507365 -0.54714346 12
2.1138146 0.63095897 -0.50928926 11
2.3369801 0.69579715 -0.47396958 9
2.5790012 0.76638514 -0.42612755 9
2.9194298 0.86588484 -0.37389517 8
3.3088834 0.97950989 -0.30190748 8
3.8731523 1.1436051 -0.21164663 7
4.4635086 1.3153762 -0.081223503 7
5.1944222 1.5514863 0.094626948 4
6.8215618 2.0335958 0.37305072 7
6.905293 2.0546212 0.6303103 33
6.8148227 2.0225251 0.8728283 25
nan nan nan nan
6.6948767 1.9793013 1.3570337 95
6.6258492 1.9551222 1.594903 100
6.5679264 1.9330441 1.8345095 100
1.9622452 0.57194209 -0.54766113 12
2.1256526 0.61836374 -0.51108885 10
2.3378916 0.67877769 -0.47320631 9
2.5917475 0.75101054 -0.42737901 9
2.9177759 0.84327626 -0.37292022 8
3.3309562 0.9608016 -0.30330199 8
3.8942821 1.1210825 -0.21237932 5
4.4687386 1.2830791 -0.081153691 12
5.1952624 1.5132993 0.094452426 6
6.8390813 1.9882343 0.37326008 7
6.900332 2.0008178 0.62856722 41
6.792201 1.9656098 0.86819732 76
6.7391057 1.9464209 1.1109977 68
6.6896663 1.9270797 1.3532175 88
6.6131172 1.9012791 1.5886045 100
6.5697899 1.8850991 1.8314036 100
1.9549427 0.55540544 -0.54455531 12
2.1260626 0.60281837 -0.51018906 9
2.3369055 0.66083807 -0.47206149 9
2.5950258 0.7323631 -0.42706612 10
2.919627 0.82231969 -0.37243277 8
3.3260739 0.93429083 -0.30225611 8
3.9039373 1.0944072 -0.21248402 5
4.4523339 1.2456276 -0.080699928 10
5.192235 1.4731694 0.094208091 4
6.2186332 1.7608674 0.33871832 2
6.8888674 1.9467553 0.62630117 16
6.7828302 1.9116811 0.8652724 65
6.7373171 1.8950467 1.1084948 94
6.6875067 1.8772548 1.3501645 92
6.6187229 1.8529631 1.5868049 100
6.5511599 1.8303499 1.8226038 100
1.9550484 0.54071385 -0.54352003 12
2.1358552 0.58951539 -0.51153874 9
2.3433549 0.64502829 -0.4724431 9
2.5943613 0.71265882 -0.42612755 9
2.9329541 0.80401748 -0.37340769 8
3.3209844 0.90789539 -0.30121022 8
3.9153361 1.0681772 -0.21269335 7
4.4339089 1.2071598 -0.080211259 12
5.1792622 1.4304987 0.093789227 3
6.2134452 1.7126367 0.3377763 6
6.877317 1.891745 0.62403512 35
6.7864394 1.8616524 0.86405367 86
6.7237105 1.8406599 1.1041147 84
6.6777239 1.824313 1.3455851 92
6.6145754 1.8021034 1.5827557 100
6.5283585 1.774943 1.8127686 90
1.9625069 0.52805585 -0.54455531 12
2.1305084 0.57206315 -0.50928926 9
2.3459046 0.6281451 -0.47206149 9
2.5878227 0.69146985 -0.42425033 9
2.93466 0.78249776 -0.37292022 5
3.3349431 0.88673782 -0.30190748 8
3.9130449 1.0382578 -0.21216999 5
4.465425 1.1823199 -0.080630124 7
5.1833291 1.3927492 0.093684517 6
6.2715487 1.6816313 0.34028843 2
6.8788071 1.8405995 0.62298924 42
6.7647476 1.8050169 0.85966641 78
6.7268519 1.7911332 1.1025503 85
nan nan nan nan
nan nan nan nan
nan nan nan nan
1.9717524 0.51580882 -0.54610825 12
2.1269076 0.55520761 -0.50748962 9
2.3559327 0.61323476 -0.47320631 9
2.6097946 0.67785466 -0.42706612 9
2.936208 0.76099479 -0.37243277 8
3.3449106 0.86443096 -0.30225611 4
3.8892541 1.0029347 -0.21049525 5
4.4619513 1.1481245 -0.080420688 7
5.1697087 1.3504639 0.09326566 6
6.2232237 1.6221894 0.33704361 2
6.8722072 1.787516 0.6212461 41
nan nan nan nan
nan nan nan nan
5.024056 1.2974401 1.0086164 4
4.9670534 1.2790189 1.1841425 9
4.954607 1.2730483 1.3707057 4
1.9753053 0.50203085 -0.54610825 12
2.1345096 0.54130352 -0.50838941 8
2.3525429 0.59484839 -0.47167987 10
2.6068017 0.65768665 -0.42581466 6
2.9337487 0.73854065 -0.37145779 9
3.3508642 0.84105641 -0.30225611 6
3.9077864 0.97866756 -0.21112327 3
4.4368773 1.1087048 -0.079827309 5
5.2022691 1.3202448 0.093684517 6
5.21211 1.3198379 0.28177682 5
nan nan nan nan
5.091486 1.2826734 0.6446889 5
5.0595713 1.2718164 0.82628691 6
5.0558429 1.2680653 1.0131959 5
4.9777513 1.2447861 1.1845924 4
4.9727454 1.2407683 1.3732939 6
1.9675082 0.48545262 -0.54300237 12
2.1458054 0.52825302 -0.51018906 9
2.3528252 0.57747412 -0.47091663 9
2.6151671 0.64041144 -0.42644039 9
2.9369049 0.71757007 -0.37121406 9
3.337296 0.81292868 -0.300513 8
3.9300494 0.95513743 -0.21196064 3
4.4503393 1.0791185 -0.079932027 7
5.1880603 1.2781513 0.09326566 7
5.1707697 1.2710202 0.27905536 5
5.1820469 1.2709155 0.46680617 1
5.1195998 1.2518119 0.64712632 6
5.0875177 1.2411449 0.82941562 6
5.0607576 1.231807 1.0124326 5
5.0052581 1.2146001 1.1890913 4
nan nan nan nan
1.9708493 0.47170499 -0.54300237 13
2.1513369 0.51371121 -0.51063895 9
2.3682585 0.56376207 -0.47320631 9
2.602277 0.61803049 -0.4236246 9
2.9457064 0.69796455 -0.37170154 9
3.3467679 0.79052615 -0.30086163 5
3.9249573 0.92492849 -0.2113326 3
4.4480309 1.0457346 -0.079757497 4
5.1774082 1.2372528 0.092916615 9
5.2242017 1.2455441 0.28146279 5
5.1714096 1.2300963 0.46506307 5
5.1359401 1.2178719 0.64810121 6
6.8011522 1.6089786 1.1069304 33
nan nan nan nan
nan nan nan nan
6.6258225 1.5552943 1.8236392 100
1.9797404 0.45924309 -0.54455531 12
2.1415806 0.49560395 -0.50748962 9
2.3644845 0.54545075 -0.47167987 7
2.6026781 0.59896338 -0.42299888 9
2.958246 0.67915928 -0.37267649 9
3.3541474 0.76758653 -0.30103594 5
3.9254777 0.89617103 -0.21101859 5
4.4474239 1.0128798 -0.07961788 8
5.1742306 1.1983702 0.092707187 9
5.230824 1.2085923 0.28135812 3
6.9330287 1.5980668 0.62246627 56
nan nan nan nan
6.821847 1.5636652 1.1084948 89
nan nan nan nan
nan nan nan nan
6.604495 1.5017179 1.8148392 59
1.9810131 0.44498724 -0.54403764 12
2.1411853 0.47978863 -0.50658983 10
2.3586545 0.52678937 -0.46977177 9
2.6067965 0.58077741 -0.42299888 10
2.9512887 0.65590632 -0.37121406 9
3.3787463 0.74905008 -0.30277905 4
3.931638 0.8687461 -0.21101859 7
4.4504814 0.98094541 -0.079548068 3
5.1707625 1.1595951 0.092497751 6
6.2175727 1.3909341 0.33390343 2
6.9226255 1.5448562 0.6205489 56
nan nan nan nan
nan nan nan nan
7.2802553 1.6113281 1.4493852 1
7.2196579 1.5939516 1.7069287 2
nan nan nan nan
1.9859593 0.43155757 -0.54455531 12
2.1444824 0.46482968 -0.50658983 9
2.3660233 0.51155317 -0.47053501 9
2.6184127 0.56468701 -0.42425033 9
2.9441512 0.63278371 -0.36975163 9
3.3761008 0.72377312 -0.30208179 5
3.9198828 0.83820349 -0.21007656 7
4.457221 0.94985121 -0.079548068 3
5.1765823 1.1239452 0.092462853 4
6.2151856 1.3460407 0.33327541 2
6.9059772 1.4906012 0.61810851 62
7.4190145 1.5972713 0.93181306 1
7.4356809 1.5967865 1.2045455 1
7.3988347 1.583475 1.4707558 1
7.4173779 1.5833827 1.7510191 2
7.4672866 1.5899495 2.0457058 3
1.9793983 0.41604176 -0.54196709 12
2.1475971 0.45022079 -0.50658983 9
2.3676155 0.49462131 -0.47015342 9
2.6300266 0.54800504 -0.42550179 9
2.9522769 0.61353803 -0.37023908 9
3.3537571 0.69453108 -0.29964143 5
3.9295504 0.81162697 -0.21028589 5
4.4655418 0.91989559 -0.079582974 3
5.1843028 1.0877808 0.092462853 4
6.2127008 1.300166 0.33264738 2
6.8945088 1.4390842 0.61619109 63
7.5932384 1.5793947 0.95228714 1
7.636198 1.5841599 1.2352067 1
7.5670896 1.565691 1.5020485 1
7.2984672 1.5047987 1.7204257 2
7.2681646 1.4945841 1.988248 2
1.9822544 0.40221375 -0.54196709 12
2.1621478 0.43753695 -0.50928926 11
2.3671618 0.47730291 -0.46939012 9
2.6260421 0.52807164 -0.42425033 9
2.9642739 0.59447223 -0.37121406 9
3.3702466 0.6734429 -0.30068728 5
3.9351211 0.78417373 -0.21028589 7
4.4542027 0.88518971 -0.079268835 3
5.1878505 1.0507672 0.092393041 3
6.2098804 1.2543887 0.33201933 2
6.888762 1.3877686 0.61479658 63
7.479517 1.5013461 0.93668783 1
7.4533763 1.4920398 1.2039198 1
7.3737569 1.4720864 1.461597 2
7.3164401 1.4553297 1.7222253 2
7.2992659 1.4479412 1.993942 2
1.9925975 0.38984889 -0.54403764 13
2.1517608 0.41981938 -0.50613987 10
2.3742907 0.46151575 -0.47015342 9
2.6180286 0.50747132 -0.42237309 9
2.9761479 0.57527149 -0.37218902 9
3.3748662 0.64989609 -0.30068728 8
3.92677 0.75404394 -0.20955318 7
4.4661665 0.85519803 -0.079373546 1
5.1715083 1.0099243 0.091974184 4
