# .PCD v0.7 - Point Cloud Data file format
VERSION 0.7
FIELDS x y z intensity
SIZE 4 4 4 4
TYPE F F F F
COUNT 1 1 1 1
WIDTH 1493
HEIGHT 1
VIEWPOINT 0 0 0 1 0 0 0
POINTS 1493
DATA ascii
-14.621308 20.080242 3.0499024 17
-14.570657 20.032713 3.923377 8
-23.775349 32.735958 7.8643842 26
-14.725371 20.297506 5.789341 11
-14.580416 20.119856 6.6578612 9
-2.7379189 3.7990124 -1.2547548 22
-2.8167751 3.9127471 -1.113058 36
-2.8109374 3.9103923 -0.93610895 20
-3.1315544 4.3612299 -0.85037786 19
-2.9745858 4.1472054 -0.62665224 3
-2.9137175 4.0668364 -0.43769613 20
-6.0068111 8.3964119 -0.54104918 20
nan nan nan nan
-15.358971 21.327105 0.45875397 17
-15.113332 21.009203 1.3563387 11
nan nan nan nan
-14.719161 20.51408 3.1001127 9
-14.39132 20.079357 3.9127393 8
-14.61484 20.413784 4.8801312 8
-14.165178 19.807606 5.6219769 10
-13.709863 19.199257 6.3213968 8
-2.6844852 3.7802317 -1.2423315 21
-2.7860076 3.9275479 -1.1117082 22
-2.868248 4.0479751 -0.96434873 28
-2.8267655 3.9938617 -0.77497649 11
-3.1345985 4.4353533 -0.6668691 10
-2.9185772 4.1342816 -0.44275117 18
-5.9264994 8.40446 -0.53895575 27
nan nan nan nan
-15.41833 21.719774 0.46493211 8
nan nan nan nan
-15.63259 22.078697 2.3668013 8
-18.31138 25.890821 3.8937259 12
-14.550658 20.596329 3.9940853 18
-16.008795 22.693907 5.3983684 9
-15.454348 21.932299 6.1942525 12
-14.579603 20.713915 6.787271 10
-2.6287816 3.7556849 -1.2283553 26
-2.8987889 4.1460576 -1.167946 19
-2.8938618 4.1451693 -0.98266637 29
-2.9581327 4.2419615 -0.8190909 18
-3.2589624 4.6803112 -0.70026129 6
-2.9590404 4.2543311 -0.45338416 15
-6.1388993 8.8360081 -0.56386763 10
nan nan nan nan
-15.172339 21.692516 0.46206993 8
nan nan nan nan
-14.916392 21.374197 2.2803428 7
-15.522161 22.275343 3.3336143 10
-14.914343 21.426991 4.1348763 9
-15.870139 22.834135 5.4052377 9
nan nan nan nan
-13.553941 19.545202 6.3731604 9
-2.5799105 3.7425888 -1.2180026 27
-2.8535733 4.1442237 -1.1616473 21
-2.9037921 4.2218871 -0.996023 17
-3.0126953 4.3867741 -0.84286904 27
-2.9960074 4.3673739 -0.6502949 8
-2.8954811 4.2255788 -0.44815481 21
-5.8916812 8.6110296 -0.54680616 13
-31.805132 46.537285 -0.98389691 63
-15.19187 22.046543 0.46734056 8
-16.780304 24.388136 1.5514473 14
-14.803687 21.539501 2.286618 7
-14.77081 21.515791 3.2044327 9
nan nan nan nan
-15.342095 22.406563 5.2785401 27
-14.343522 20.971729 5.8658242 11
-14.531543 21.278498 6.9042568 10
-2.5754271 3.7924712 -1.2283553 19
-2.8639557 4.2221012 -1.1778438 21
-2.8459828 4.2019205 -0.9864825 17
-2.8447382 4.2048225 -0.80407327 15
-2.943213 4.3552904 -0.64542013 26
-2.9149573 4.3183498 -0.45582449 18
-5.8303041 8.6502934 -0.54670143 20
nan nan nan nan
-14.763114 21.755907 0.4589285 8
-16.414661 24.217014 1.5332344 14
-14.425091 21.305756 2.2510586 7
-14.672069 21.703157 3.2166197 9
-13.497838 19.988785 3.8201301 8
-13.664789 20.258884 4.7499995 7
-12.43387 18.454807 5.1374326 9
-14.699663 21.850683 7.0564427 11
-2.5177383 3.7637925 -1.2133437 30
-2.8560634 4.2743988 -1.1868418 21
-3.0113146 4.5118604 -1.0544106 31
-2.837966 4.2569613 -0.81033063 17
-2.9149373 4.3790345 -0.64590758 18
-2.8803282 4.3319573 -0.45512727 15
-7.8862181 11.874198 -0.74704355 8
-30.783146 46.420197 -0.97223872 63
-14.681377 21.955631 0.46102276 8
-14.884965 22.285334 1.4044878 12
nan nan nan nan
-14.572412 21.875223 3.227344 9
-13.36803 20.090065 3.8220074 8
-13.68273 20.594168 4.8060975 8
nan nan nan nan
-12.552444 18.935942 6.0874238 8
-2.4952502 3.7856822 -1.2148967 27
-2.7497468 4.1765504 -1.154449 42
-2.8147399 4.2817726 -0.996023 17
-2.9827421 4.5425162 -0.86070251 24
-2.9384089 4.4801102 -0.65785074 18
-2.8420401 4.3381305 -0.45373279 21
-7.7834425 11.898883 -0.74515945 26
nan nan nan nan
-21.461636 32.585381 0.6810627 14
-15.433749 23.459921 1.4716872 13
-13.729499 20.893206 2.1872604 7
-14.186307 21.621237 3.175184 9
-13.435357 20.500114 3.8820782 8
-12.326085 18.829046 4.3744874 7
-15.587814 23.838818 6.5757699 13
-12.37136 18.948702 6.0636129 8
-2.4582417 3.7868063 -1.2097203 32
-2.7947371 4.3101015 -1.1859421 14
-2.8613048 4.417829 -1.0231179 19
-2.8777175 4.4482727 -0.83911461 18
-2.8198164 4.3654499 -0.6381079 14
-2.8408496 4.4030685 -0.4584392 24
-7.6827998 11.921365 -0.74327534 8
nan nan nan nan
-29.993271 46.22089 0.9617672 39
-13.435647 20.728657 1.2945824 21
-13.537836 20.918295 2.1799393 7
-14.094844 21.803988 3.1878586 9
nan nan nan nan
-11.76456 18.248016 4.2203135 6
-13.312955 20.673515 5.6768656 11
-13.393773 20.822962 6.6340504 9
-2.4324088 3.8034515 -1.2097203 37
-2.8135915 4.4045691 -1.2066375 31
-2.8282814 4.4343863 -1.0223546 19
-2.7945855 4.3866196 -0.82378399 21
-2.9253819 4.5972381 -0.66906273 14
-2.8356838 4.4631538 -0.46262267 24
-4.6799202 7.3743706 -0.45773032 9
-29.300364 46.223442 -0.95527494 63
-23.607534 36.942474 0.76525313 19
-13.389469 20.976835 1.3042122 11
-13.343723 20.929319 2.1715724 7
nan nan nan nan
-15.854211 24.934109 4.679894 12
-14.805074 23.311062 5.3678389 9
-14.831831 23.389256 6.3940091 13
-14.044046 22.172607 7.0326314 11
-2.4037392 3.8170695 -1.2086849 34
-2.8139002 4.4735913 -1.2201346 24
-2.7586212 4.392508 -1.0082349 34
-2.7974842 4.4595714 -0.83379585 23
-2.9438074 4.6982932 -0.68076223 21
-2.8498938 4.5554729 -0.47011805 14
-4.5563531 7.2916875 -0.45061263 9
nan nan nan nan
-20.993271 33.362572 0.68804371 14
-13.884638 22.091162 1.367434 12
-13.676106 21.784683 2.2503612 7
-16.789541 26.785585 3.8815391 12
-14.356858 22.931217 4.2850537 20
-14.584719 23.322302 5.3468499 9
-11.838168 18.959743 5.1603775 9
-13.837793 22.188152 7.0067492 11
-2.3770308 3.8337588 -1.2086849 37
-2.7754178 4.4815292 -1.2169853 69
-2.7371812 4.4266882 -1.0116693 14
-2.7787378 4.4991603 -0.83755022 26
-2.8213041 4.5734348 -0.65980065 16
-2.8253357 4.5871329 -0.47133827 20
-3.0087905 4.8907185 -0.30093178 2
nan nan nan nan
-13.093909 21.134789 0.43397155 15
-13.227703 21.375731 1.3174008 11
nan nan nan nan
-13.747712 22.276833 3.2141821 9
-13.292557 21.56455 4.0122313 9
-11.878138 19.292542 4.403872 7
-11.52488 18.748081 5.0807447 27
-11.301047 18.405554 5.7871938 7
-2.3542361 3.8568549 -1.2107556 34
-2.7531955 4.51577 -1.2210344 20
-2.8603549 4.6989141 -1.0692936 20
-2.8098614 4.6214108 -0.85663521 24
-2.8686481 4.7236671 -0.67856854 23
-2.8293972 4.6663742 -0.47743914 23
-4.410646 7.2828412 -0.44621637 3
-10.038471 16.595087 -0.33854178 17
-19.107204 31.327219 0.64050329 13
-14.530816 23.852085 1.4637321 13
-13.789024 22.66114 2.3207831 7
-13.66916 22.499508 3.2324629 9
-14.092674 23.224009 4.3025742 10
-11.611891 19.158413 4.3546429 7
-12.076751 19.956802 5.3853283 10
-11.242228 18.599731 5.8234291 7
-2.3372006 3.8897572 -1.215932 24
-2.7075608 4.5114889 -1.2147357 18
-2.8062923 4.6834021 -1.0612797 22
-2.7968061 4.6731181 -0.86257976 22
-2.8101392 4.7009807 -0.6724751 21
-2.8580163 4.7886643 -0.48789781 18
-4.3085604 7.2276773 -0.44098282 3
-7.1100607 11.941449 -0.24258845 4
-18.65954 31.079237 0.63275445 13
-13.06972 21.79471 1.3318455 11
-13.648911 22.787621 2.3239207 7
-13.649293 22.824389 3.2653673 9
-13.924118 23.311651 4.3006968 10
-11.381294 19.077156 4.3180079 6
-11.650921 19.56012 5.2562065 9
-14.545496 24.448778 7.6227388 13
-2.3060563 3.8993261 -1.2138613 32
-2.6888855 4.5520926 -1.2205845 20
-2.814415 4.7722149 -1.076926 18
-2.825268 4.7963557 -0.88166475 20
-2.7963753 4.7529936 -0.67710614 21
-2.8608434 4.8703461 -0.49417305 24
-4.2620392 7.2644715 -0.44140148 3
-26.923201 45.944592 -0.92951518 63
nan nan nan nan
-14.936452 25.306522 1.540038 14
-13.137389 22.285055 2.2632601 7
-13.739342 23.343386 3.3258147 9
-12.90711 21.955698 4.0338197 9
-11.053991 18.826015 4.2435923 6
-12.137929 20.705156 5.5409951 10
-12.877076 21.992395 6.8286819 10
-2.2758622 3.9103215 -1.2123084 24
-2.6051333 4.4814615 -1.1967397 17
-3.0106497 5.1873789 -1.165843 10
-2.8620548 4.9373007 -0.90387845 24
-2.8466778 4.9167047 -0.69758022 9
-2.8884695 4.994916 -0.50480604 21
-4.2032309 7.2802114 -0.44056413 6
-6.960619 12.07074 -0.24321674 4
-19.168751 32.961658 0.66556495 13
-14.728318 25.356646 1.5367932 14
-12.541575 21.617947 2.1865633 7
-13.082535 22.586735 3.2049201 9
-12.370693 21.38356 3.9127393 8
-11.24544 19.461988 4.3691444 7
-11.887615 20.598261 5.4906058 10
-12.472477 21.646545 6.6940956 10
-2.2629089 3.9512608 -1.220073 26
-2.530242 4.423419 -1.176494 12
-2.8486636 4.9861455 -1.1162328 14
-2.8362134 4.9703932 -0.90638137 24
-2.8810649 5.057198 -0.71464187 13
-3.0535483 5.3664927 -0.54019129 13
-3.0424051 5.3534279 -0.32270354 2
-6.7252011 11.852933 -0.23787631 9
-20.556383 35.907993 0.72221553 16
-13.381592 23.40344 1.4128617 12
-12.337997 21.61327 2.1773245 7
-11.255041 19.740181 2.790077 7
-12.649107 22.21225 4.0485244 9
-10.634815 18.705442 4.1825337 13
nan nan nan nan
-11.177372 19.707739 6.0708599 8
-2.2245772 3.9463773 -1.2138613 37
-2.5364041 4.5050678 -1.1935904 21
-3.0196474 5.3721557 -1.197899 27
-2.8836405 5.1364846 -0.93297523 18
-3.0028865 5.3554578 -0.75388384 16
-3.0413148 5.4328799 -0.54472339 22
-4.0469003 7.2381048 -0.43459785 12
-6.5595431 11.746539 -0.23483957 18
-13.301273 23.615591 0.47309986 9
-12.095659 21.501419 1.2929076 10
-12.33406 21.952091 2.2029486 7
-13.098135 23.350142 3.2873039 9
-11.568767 20.649055 3.748796 8
-10.595445 18.935019 4.2176423 6
-18.79351 33.640789 8.8963642 32
-11.871618 21.276611 6.5284519 9
-2.1913509 3.9516754 -1.2107556 37
-2.483175 4.4834566 -1.1832427 23
-2.9564188 5.3467169 -1.1875952 20
-2.9766314 5.3899336 -0.97521257 6
-2.965425 5.3762918 -0.75388384 16
-3.1811082 5.7768559 -0.57697099 3
-4.0001197 7.27318 -0.43501651 21
-6.3782139 11.611522 -0.2312444 21
-12.79978 23.100922 0.46098787 17
-12.040031 21.756596 1.3031654 11
-11.908713 21.545923 2.1537926 6
-10.89201 19.738979 2.7681406 7
-11.383328 20.654924 3.7353425 8
-11.371833 20.659647 4.5839958 7
-12.790083 23.274683 6.1312661 12
-11.654008 21.233652 6.4901471 9
-2.1720352 3.9821413 -1.2154143 27
-2.4285076 4.4579005 -1.171995 25
-2.9293377 5.386198 -1.1917931 20
-3.1086469 5.723033 -1.0315289 6
-3.942569 7.2673564 -1.0151716 21
-3.9785373 7.3458872 -0.73088807 9
-3.9577975 7.3167391 -0.43595853 18
-6.22856 11.529093 -0.22873124 30
-12.76452 23.421486 0.4655953 17
-12.013898 22.071674 1.3169822 11
-11.272687 20.735807 2.0648937 12
-10.704701 19.723816 2.755466 7
-10.562959 19.486977 3.5107026 14
-10.819805 19.985786 4.4176102 7
-10.887187 20.143826 5.2863503 9
-11.589909 21.470894 6.5377698 9
-2.1405306 3.9903972 -1.2133437 24
-2.3954883 4.4713097 -1.1710953 34
-2.8527744 5.333807 -1.175765 20
-3.5256052 6.6000996 -1.1851476 19
-3.9870455 7.4733505 -1.0400331 26
-3.8559744 7.2398353 -0.71764034 14
-3.9066207 7.3441911 -0.43595853 9
-6.1028862 11.487529 -0.2270558 8
-12.368299 23.076458 0.45700872 17
-11.161998 20.851984 1.239525 10
-11.178374 20.908882 2.0743067 6
-10.72938 20.102787 2.7978766 7
-10.418295 19.544559 3.5078869 7
-11.36366 21.344965 4.7003889 7
-10.653918 20.045542 5.2409101 9
-11.90348 22.424936 6.8027997 10
-2.1252384 4.0291657 -1.2205906 29
-2.3678451 4.494822 -1.1728948 31
-2.7834845 5.2927771 -1.1624085 25
-3.4500487 6.5685897 -1.1751359 19
-3.8176627 7.2777486 -1.0090783 23
-3.8145807 7.2842298 -0.71938354 8
-3.7404757 7.1518297 -0.42297927 24
-5.9558797 11.402238 -0.22454266 12
-12.457701 23.638113 0.46639812 8
nan nan nan nan
-12.048209 22.91927 2.265352 15
-10.550032 20.103378 2.7876396 7
-10.643814 20.307917 3.63147 7
-11.19889 21.394209 4.6939015 15
-10.769134 20.60821 5.3682323 10
-10.349587 19.830639 5.9937315 7
-2.087275 4.0250401 -1.2148967 17
-2.319382 4.478364 -1.1643467 21
-2.7338452 5.2876635 -1.1570657 22
-3.3705766 6.5275712 -1.1635597 14
-3.7749498 7.3201013 -1.0112718 28
-3.6997969 7.1866822 -0.70718169 11
-3.6685374 7.1351385 -0.42046711 24
-5.8642578 11.420416 -0.22408889 4
-11.971298 23.104858 0.45421633 25
-10.946872 21.154802 1.2483174 10
-11.082931 21.445236 2.1119578 6
-10.3075 19.978952 2.7603409 15
-10.371501 20.128862 3.586417 7
-11.81553 22.96093 5.0194216 8
-10.594724 20.623957 5.3529358 9
-10.65975 20.777296 6.2572093 8
-2.0126247 3.9482934 -1.1874619 3
-2.2774513 4.4736075 -1.1589479 21
-2.6906376 5.2943692 -1.1543945 22
-3.3293936 6.5597515 -1.1651241 17
-3.7426052 7.3834581 -1.0163903 10
-3.6945162 7.3012228 -0.71589726 5
-3.6141341 7.1516614 -0.41994375 21
-3.986901 7.8995743 -0.1544538 9
-12.0729 23.704617 0.46433872 17
-10.66763 20.972574 1.2331399 29
nan nan nan nan
-10.156985 20.029184 2.757416 15
-10.243208 20.225456 3.5907969 15
-10.489705 20.739103 4.5175939 7
-11.645024 23.063236 5.9648023 11
-10.044733 19.919735 5.977685 7
-1.9711666 3.9346125 -1.1791797 4
-2.2679629 4.5329671 -1.1701955 23
-2.6115036 5.2287188 -1.1360768 19
-3.2473664 6.5103598 -1.1522964 17
-3.6263535 7.2796974 -0.99859744 18
-3.5316718 7.1020565 -0.69393402 13
-3.5854356 7.2196517 -0.42245588 21
-3.9663062 7.9970827 -0.15581508 12
-12.097766 24.169209 0.47177345 8
-10.495056 20.99473 1.2301044 9
-10.666745 21.366148 2.0892975 6
-10.199317 20.465597 2.8076262 7
-10.114089 20.321228 3.5951772 15
-10.280009 20.68173 4.4893546 14
-10.246833 20.651167 5.3223424 9
-9.7201462 19.615486 5.8658752 7
-1.9368241 3.9344122 -1.1750386 4
-2.2311029 4.538197 -1.167496 25
-2.5541778 5.2045236 -1.126918 19
-3.1748865 6.4778848 -1.1425974 14
-3.5902793 7.3351479 -1.0027411 2
-3.4898794 7.1426487 -0.69550282 19
-3.4788942 7.1296268 -0.41575688 14
-4.0172534 8.243886 -0.16007347 6
-11.298589 22.971878 0.44685143 8
-10.309484 20.988609 1.2254988 9
-11.449192 23.33976 2.2744162 7
-10.085874 20.596918 2.8159132 7
-12.645689 25.858727 4.5591264 11
-10.74793 22.00728 4.7606845 7
-10.061431 20.638115 5.3007469 9
-9.9060163 20.346367 6.0636129 8
-1.8958519 3.9200118 -1.1667564 4
-2.201061 4.5571723 -1.1683959 25
-2.5365388 5.2611346 -1.1353136 21
-3.1038761 6.446497 -1.1332114 11
-3.45296 7.1811323 -0.97836721 23
-3.4338944 7.1542649 -0.69428265 8
-3.4109061 7.1159186 -0.41355878 17
-5.3203373 11.114348 -0.21508345 24
-11.121408 23.015989 0.44618824 16
-11.023775 22.844458 1.3293334 11
-10.414958 21.611713 2.0988846 6
-9.8936443 20.566652 2.802264 7
-11.239068 23.394833 4.1107855 9
-10.393622 21.664036 4.6706228 7
-11.767197 24.571024 6.2896318 12
nan nan nan nan
-1.8633204 3.9206119 -1.1631329 4
-2.1649768 4.5614858 -1.1656964 31
-2.4712489 5.2161808 -1.1219569 16
-3.0582347 6.4639039 -1.1325856 14
-3.4107838 7.2188282 -0.98031712 23
-3.3727665 7.1480522 -0.69149363 8
-3.3709006 7.1570396 -0.4146055 23
-5.1994519 11.0544 -0.2132335 19
-11.992914 25.257023 0.48803908 9
-10.840638 22.861216 1.3259839 11
-10.706761 22.609461 2.1886549 7
-9.7415457 20.608397 2.7988517 15
-10.60481 22.46508 3.9346399 8
-10.209922 21.657921 4.6542134 7
-9.8293486 20.878962 5.3277411 9
-10.7436 22.862366 6.7686357 10
-1.819563 3.8985131 -1.1527801 4
-2.1281393 4.5658908 -1.162997 27
-2.4066899 5.1705852 -1.1086004 21
-3.0091696 6.4738235 -1.1307085 14
-3.3335683 7.1848412 -0.97251743 23
-3.2909522 7.1027288 -0.68486983 22
-3.2986221 7.129065 -0.41167465 17
-5.0550742 10.945196 -0.21044111 7
-11.725196 25.133287 0.48409486 9
-10.802869 23.187933 1.340638 11
-10.234447 22.007986 2.1234624 6
-10.608554 22.843731 3.0925567 9
-11.309322 24.386133 4.2575212 10
-10.340531 22.337986 4.7847266 8
-9.7389498 21.067358 5.3583345 9
-9.6006985 20.796871 6.1376348 8
-1.7817148 3.8862224 -1.1455331 4
-2.1010695 4.5891299 -1.1652466 38
-2.3689041 5.1836886 -1.1078371 19
-2.9425774 6.4479489 -1.1225739 14
-3.2598894 7.1531749 -0.96520531 28
-3.2346859 7.1110225 -0.68347532 22
-3.2140784 7.0755463 -0.40727845 20
-3.3068111 7.2898235 -0.13972397 9
-11.578582 25.27817 0.48531651 9
-10.820162 23.655104 1.363247 11
-10.331095 22.617199 2.1754072 7
-10.373876 22.752872 3.0703764 8
-9.7669125 21.451378 3.7331524 8
-10.071229 22.150499 4.729774 7
-10.876963 23.967009 6.0763783 12
-9.2423582 20.393581 5.9994254 7
-1.7474048 3.8827114 -1.1408744 4
-2.064187 4.5930209 -1.1625471 25
-2.3591714 5.2592139 -1.1204305 16
-2.880532 6.4304771 -1.1160036 17
-3.1944702 7.1413298 -0.96057427 21
-3.1605978 7.0788517 -0.67824602 19
-3.1483371 7.0613294 -0.40518501 8
-3.1964633 7.1793742 -0.13717592 2
-10.983617 24.428234 0.46751508 8
-10.736575 23.912264 1.3737143 12
-11.421752 25.473961 2.4424527 8
-10.847272 24.238037 3.2604928 9
nan nan nan nan
-9.8787384 22.136005 4.7118373 15
-10.122605 22.725069 5.7434506 11
-9.0275259 20.295218 5.9518027 7
-1.7140118 3.8806787 -1.1367333 4
-2.0242074 4.5894899 -1.1580482 23
-2.3437576 5.32407 -1.1307341 23
-2.7735658 6.3093762 -1.0915998 18
-3.1612957 7.2016268 -0.96569276 23
-3.0835412 7.0345106 -0.67197078 27
-3.0677412 7.0117745 -0.40110281 20
-3.185492 7.2913041 -0.13888624 11
nan nan nan nan
-10.575 23.999435 1.374447 12
-11.251643 25.57132 2.4441955 8
-10.613948 24.167767 3.2409937 9
-9.5680122 21.817207 3.7731998 16
-9.6979809 22.145082 4.699244 15
nan nan nan nan
-8.8918009 20.371912 5.9559441 7
-1.6799642 3.8765967 -1.1320745 3
-2.0091441 4.6428561 -1.167946 19
-2.2903309 5.300252 -1.1223387 21
-2.7375987 6.3444333 -1.0944157 24
-3.0559783 7.0958972 -0.94863105 28
-3.0563986 7.1071134 -0.67685145 24
-3.0278268 7.0508437 -0.40214953 20
-3.0974901 7.2269788 -0.13724573 11
-11.067014 25.549877 0.48601463 9
-10.421715 24.094688 1.3758078 12
-10.231064 23.699301 2.2583795 7
-9.168292 21.268084 2.8436995 8
-10.219066 23.739792 4.0935774 19
-9.4323101 21.954306 4.6446729 22
-9.6415901 22.473854 5.645822 10
-8.6829414 20.268595 5.9083214 15
-1.6399289 3.855943 -1.1227571 4
-1.9744474 4.6492491 -1.1661463 4
-2.2647645 5.3432255 -1.1280628 30
-2.7132578 6.4106884 -1.1025503 23
-3.0503943 7.2212911 -0.96252412 21
-3.0237422 7.1686649 -0.68068635 13
-2.9645743 7.0386786 -0.40026543 20
-2.9942632 7.1230741 -0.1348722 11
nan nan nan nan
-10.967793 25.851036 1.4716872 13
-9.5619936 22.570433 2.1445541 6
-9.1185455 21.565605 2.8748982 8
-10.051544 23.806913 4.0929518 9
-9.5166807 22.584084 4.7637377 7
-9.5388851 22.669939 5.6782146 22
-8.5786524 20.417767 5.9342036 7
-1.5989141 3.8354826 -1.1134396 4
-1.8991897 4.5625095 -1.1409518 4
-2.2274065 5.3589063 -1.1280628 26
-2.6514196 6.391623 -1.09598 20
-2.997627 7.2369089 -0.96179295 28
-2.9340243 7.0938611 -0.67162216 22
-2.9354687 7.1114049 -0.40319625 11
-2.9665639 7.1974187 -0.13588443 14
nan nan nan nan
-10.141403 24.387142 1.3841815 12
-9.5492296 22.997089 2.1785448 7
-8.9175863 21.507711 2.8588111 8
-10.326561 24.955145 4.2775445 10
-9.5064774 23.007421 4.8389163 8
-9.2629452 22.451357 5.6071301 21
-9.2370167 22.432888 6.5004992 9
-1.5552887 3.8054223 -1.1015339 4
-1.8569828 4.5503974 -1.1346532 4
-2.189002 5.3747082 -1.1280628 23
-2.5650611 6.3075061 -1.0784594 18
-2.9179044 7.1859298 -0.95228714 21
-2.8754449 7.0920148 -0.66953039 16
-2.933696 7.2502165 -0.40989524 8
-2.8862805 7.1437907 -0.13448824 17
-18.295551 44.809525 0.84483606 24
-9.97995 24.479544 1.3854376 12
-9.4365234 23.181301 2.1897008 7
-9.0608225 22.302942 2.9558194 8
-9.5238943 23.478024 4.0128574 9
-10.12983 25.00934 5.2449579 9
-9.11695 22.542574 5.6138787 10
-9.1365805 22.63656 6.5408754 9
-1.5250921 3.8072207 -1.0989457 2
-1.8121432 4.5306821 -1.126555 4
-2.1552794 5.3967772 -1.1295893 30
-2.4942641 6.2550941 -1.0665703 21
-2.8625278 7.1932144 -0.95058095 39
-2.8464632 7.1637607 -0.67441112 16
-2.8231447 7.1159291 -0.40120748 8
-2.8569489 7.215826 -0.13546558 17
nan nan nan nan
-9.1829062 22.970535 1.2964665 10
-17.820957 44.668587 4.2075305 28
-8.8485622 22.212879 2.9358327 8
-9.3010778 23.384455 3.9859507 9
-8.9445667 22.533918 4.7126012 7
-9.2085009 23.234312 5.7699952 33
nan nan nan nan
-1.4899619 3.7941372 -1.0922165 4
-1.7755706 4.5283976 -1.1229557 4
-2.1289992 5.4409432 -1.1356952 26
-2.4649146 6.3091526 -1.0728277 21
-2.8531799 7.3142462 -0.96398658 26
-2.7942133 7.1778884 -0.67388821 24
-2.8204286 7.2564678 -0.40801117 11
-2.8055956 7.2295127 -0.13536087 17
nan nan nan nan
-9.0004654 22.978292 1.2933263 10
-8.9607124 22.912121 2.1523981 6
-9.0267115 23.128462 3.04844 8
-9.2114725 23.638393 4.0181761 9
-8.7012777 22.363743 4.6645169 7
nan nan nan nan
nan nan nan nan
-1.4537294 3.7792037 -1.0849695 4
-1.7306405 4.5061178 -1.1144077 6
-2.083231 5.4355092 -1.1314974 33
-2.4278648 6.3446574 -1.0759563 27
-2.8417187 7.4378324 -0.97763592 21
-2.7348065 7.1730189 -0.67162216 16
-2.783911 7.313313 -0.4101046 11
-2.7735269 7.2975235 -0.13626839 17
-17.16305 44.664627 0.8352024 23
-8.8240986 22.999538 1.2910235 10
-8.6922169 22.691313 2.1259029 6
-8.80832 23.042578 3.0289409 8
-8.8511114 23.190916 3.9315116 8
-9.3363047 24.500677 5.0965085 8
nan nan nan nan
-9.2816191 24.446886 7.0067492 11
-1.4225432 3.7766049 -1.0813459 4
-1.6874783 4.487082 -1.1067592 4
-2.0252318 5.396615 -1.1204305 30
-2.3731184 6.3337049 -1.0712634 24
-2.7570379 7.3701034 -0.96618026 23
-2.717988 7.2773237 -0.67964047 11
-2.7495263 7.3774862 -0.41261673 11
-2.7294867 7.3354506 -0.13661744 28
-16.842361 44.760899 0.83478349 23
-8.6492691 23.02319 1.2889301 21
-8.5342884 22.753307 2.1260772 6
-8.6590662 23.135115 3.0330844 8
-8.9711113 24.007109 4.0591621 9
-9.211009 24.688499 5.122077 8
nan nan nan nan
nan nan nan nan
-1.3874546 3.762881 -1.0746168 4
-1.6413007 4.4585209 -1.0968615 5
-1.9891284 5.412118 -1.1208121 28
-2.3217857 6.3274579 -1.0675089 24
-2.7157519 7.4171343 -0.96983629 26
-2.6855824 7.3466473 -0.68434685 19
-2.7211573 7.4560699 -0.41596621 14
-2.7124259 7.4482746 -0.13836268 17
-16.468147 44.686874 0.83129305 23
-9.2647629 25.180874 1.4061626 12
-9.2733889 25.258717 2.3540766 8
-9.0130968 24.589525 3.2156448 9
-8.3893261 22.924891 3.8664348 8
-9.0613337 24.814899 5.1350517 8
nan nan nan nan
-8.8551311 24.329279 6.937386 10
-1.3591853 3.7649696 -1.0725461 4
-1.6003425 4.4402571 -1.089663 3
-1.9566114 5.4406528 -1.123865 23
-2.2688773 6.3193431 -1.0634416 27
-2.7053947 7.5475664 -0.98446059 21
-2.6429536 7.3896041 -0.6866129 16
-2.6428483 7.4015274 -0.41188401 25
-2.6905365 7.5475588 -0.13986358 21
-16.075047 44.576904 0.82713932 46
-8.3039455 23.065084 1.2847432 10
-9.0325041 25.130007 2.3362968 7
-8.8311586 24.623821 3.2119887 9
-8.1025562 22.629545 3.8069894 8
-8.4415121 23.615198 4.8747883 8
nan nan nan nan
-8.7745066 24.641649 7.0088201 11
-1.3245052 3.7506859 -1.0658169 6
-1.5615293 4.4292665 -1.0842642 3
-1.9309587 5.489368 -1.1311158 16
-2.232559 6.3573947 -1.0671961 30
-2.6690557 7.6131024 -0.99055409 13
-2.6024837 7.439846 -0.68957621 24
-2.6464233 7.578187 -0.42067644 24
-2.6601574 7.6303606 -0.14105035 15
-8.6550303 24.536274 0.45414653 17
-8.1095476 23.028305 1.2795097 10
-9.0537634 25.752577 2.3882415 8
-15.551179 44.332745 5.7685642 29
-8.20292 23.423849 3.9308856 8
-8.2790451 23.680967 4.8763151 8
nan nan nan nan
-8.5349178 24.508923 6.9539504 10
-1.2844164 3.7196684 -1.0544289 5
-1.5216779 4.4142675 -1.0779655 3
-1.8708787 5.4395933 -1.1181407 4
-2.1983852 6.4027185 -1.072202 27
-2.639657 7.7010312 -0.99957246 21
-2.6001232 7.602994 -0.70299816 8
-2.5947437 7.6002588 -0.42088583 18
-2.6268244 7.7074213 -0.14213239 18
-8.4659185 24.545059 0.45320407 33
-8.752284 25.418478 1.4088842 12
-15.239079 44.332886 4.1013751 26
-8.4008427 24.494986 3.1795716 9
-15.156985 44.269913 7.4112401 41
nan nan nan nan
nan nan nan nan
nan nan nan nan
-1.2534764 3.7139006 -1.0502877 4
-1.4833589 4.4026213 -1.0725666 3
-1.811589 5.3892503 -1.1051657 2
-2.144206 6.3898191 -1.0675089 24
-2.6602325 7.9413815 -1.0283337 26
-2.6088715 7.8061471 -0.72008073 8
-2.6427546 7.9213238 -0.43763331 18
-2.6165509 7.8564811 -0.14454083 9
-8.3096876 24.649042 0.45404181 8
-8.5421267 25.38242 1.4035457 25
-14.889867 44.321098 4.0905676 26
nan nan nan nan
-14.788634 44.198555 7.3818307 41
nan nan nan nan
nan nan nan nan
nan nan nan nan
-1.2202563 3.7005458 -1.0440761 4
-1.4385704 4.3702965 -1.0622189 1
-1.748194 5.3234258 -1.0891378 2
-2.0860069 6.3633366 -1.0606258 27
-2.6183083 8.0012655 -1.0336958 21
-2.5927954 7.9373579 -0.73053938 9
-2.5979092 7.9718633 -0.43941274 12
-2.5925689 7.9696364 -0.14628607 18
-14.614567 44.372089 0.81544626 22
-8.3915529 25.52302 1.4080467 12
-14.540322 44.302818 4.0794115 26
-14.462428 44.169525 5.7066545 28
-14.393179 44.035984 7.3377161 40
nan nan nan nan
nan nan nan nan
nan nan nan nan
-1.1908407 3.6979406 -1.0409703 4
-1.3955035 4.3412728 -1.052771 3
-1.7095213 5.3277235 -1.0876113 2
-2.0450578 6.384912 -1.0618773 27
-2.5146539 7.8699684 -1.0144405 7
-2.6045208 8.1659641 -0.74988794 6
-2.5932705 8.1454191 -0.44799584 12
-2.6058729 8.204813 -0.15026523 15
-14.272987 44.348709 0.81321234 22
nan nan nan nan
-8.4345465 26.317883 2.4178746 8
-14.144502 44.214001 5.6998296 28
-14.043825 43.978626 7.3120604 40
-13.949176 43.787689 8.9329147 38
nan nan nan nan
nan nan nan nan
-1.1557882 3.6746323 -1.0321704 5
-1.3565812 4.3209229 -1.0455725 3
-1.6540928 5.2814503 -1.0757812 4
-2.0086815 6.4254308 -1.0662575 27
-2.4669399 7.9058533 -1.0168779 13
-2.5433071 8.1706305 -0.74866778 6
-2.580194 8.3044662 -0.45574155 9
-2.6020887 8.3904371 -0.15333684 12
-13.921073 44.313725 0.81076896 21
nan nan nan nan
-7.9558668 25.418264 2.3301959 7
nan nan nan nan
-13.690043 43.926605 7.287344 40
-13.634468 43.829128 8.9222288 38
nan nan nan nan
nan nan nan nan
-1.1278392 3.6752243 -1.0300999 5
-1.322958 4.3191085 -1.0428731 3
-1.5971049 5.2271533 -1.0624245 2
-1.9608965 6.4298487 -1.0646931 33
-2.366601 7.774755 -0.99786633 15
-2.5683975 8.4589033 -0.77342004 10
-2.576607 8.5019503 -0.46558073 15
-2.6494021 8.7586689 -0.15972443 13
-13.584413 44.321888 0.80916339 21
-13.518972 44.190948 2.4218988 46
-13.479804 44.145523 4.0382743 25
nan nan nan nan
-13.376127 43.998436 7.2835894 40
-13.336133 43.949551 8.9275713 38
nan nan nan nan
nan nan nan nan
-1.097723 3.6682024 -1.0259588 5
-1.2894266 4.3170357 -1.0401738 3
-1.5510445 5.2061906 -1.0559371 4
-1.9277834 6.4831443 -1.0712634 24
-2.2958822 7.7358994 -0.99079782 18
-2.5132434 8.4899998 -0.77464026 6
-2.6054761 8.8185329 -0.48190951 12
-2.6854782 9.1068535 -0.16572805 13
-13.205939 44.18573 0.80497479 21
nan nan nan nan
-13.14058 44.135437 4.028861 24
-13.073054 44.020977 5.6384077 27
nan nan nan nan
-12.994473 43.924858 8.9039116 38
nan nan nan nan
nan nan nan nan
-1.0634328 3.6461034 -1.0176765 6
-1.2429167 4.2698002 -1.0266767 3
-1.503165 5.1772985 -1.0479231 2
-1.8874234 6.5135202 -1.0740792 18
-2.2197635 7.6754603 -0.98104829 18
-2.5908527 8.9820957 -0.81786948 7
-2.695241 9.3623991 -0.51058966 13
-2.7074211 9.4232817 -0.1711383 6
-12.863588 44.161652 0.80288053 21
nan nan nan nan
-12.771066 44.015617 4.0096869 24
nan nan nan nan
nan nan nan nan
-12.629318 43.812656 8.8630781 38
nan nan nan nan
nan nan nan nan
-1.0342567 3.6404307 -1.0140531 5
-1.2051039 4.2502508 -1.0199282 5
-1.4579022 5.1555505 -1.0414355 4
-1.8236625 6.4619007 -1.0634416 21
-2.1542852 7.6487346 -0.97568607 18
-2.664439 9.4790382 -0.86144739 8
-2.7090635 9.6636858 -0.52597642 20
nan nan nan nan
-12.524403 44.142654 0.80092585 21
-12.47844 44.068508 2.4003365 46
-12.408744 43.910053 3.9920814 24
nan nan nan nan
-12.371544 43.983673 7.236659 39
-12.308816 43.848724 8.8527746 37
nan nan nan nan
nan nan nan nan
-1.0026369 3.6252191 -1.0078415 5
-1.1676247 4.2303829 -1.0131797 5
-1.4040068 5.0972147 -1.0276973 4
-1.7691641 6.4360695 -1.0571842 21
-2.0782676 7.5812659 -0.96520531 23
-2.6181753 9.5704346 -0.86807114 8
-6.7366657 24.675844 -1.3405333 26
-8.3482141 30.663046 -0.55470729 32
-12.197029 44.130505 0.79918063 21
-12.168627 44.117771 2.3984525 45
-12.058561 43.838093 3.9777882 23
-12.054058 43.911613 5.5911222 27
-12.024897 43.895397 7.2085009 38
-11.97135 43.819954 8.8298769 37
nan nan nan nan
nan nan nan nan
-0.96990281 3.6021128 -0.99955922 5
-1.1347589 4.2231765 -1.0095805 5
-1.3567004 5.0632763 -1.0189201 2
-1.7134731 6.4081888 -1.050614 3
-2.0334723 7.6262789 -0.96910506 15
-2.9114506 10.942034 -0.99061215 10
-6.5314288 24.598732 -1.3338344 12
-8.0315762 30.333961 -0.54772633 31
-11.83462 44.013748 0.79555053 20
nan nan nan nan
-11.731026 43.811378 3.9680266 23
-11.715964 43.877705 5.5762539 26
-11.681537 43.840843 7.1859741 38
-11.63287 43.781029 8.8054543 37
nan nan nan nan
nan nan nan nan
-0.93970162 3.59214 -0.99490041 5
-1.0966322 4.2010198 -1.002382 5
-1.3163702 5.0536256 -1.0151039 2
-1.6546649 6.3705754 -1.0424794 3
-1.971715 7.6076226 -0.96496153 21
-2.770139 10.711333 -0.96795171 10
-4.9009585 19.005323 -1.0286109 8
-7.749846 30.118172 -0.54283965 30
-11.427951 43.716095 0.78870916 20
nan nan nan nan
-11.406184 43.851776 3.9641917 23
-11.373949 43.82201 5.5589485 26
nan nan nan nan
-11.240049 43.524715 8.7379074 36
nan nan nan nan
nan nan nan nan
-0.91031808 3.5817621 -0.99024171 7
-1.0620095 4.1877942 -0.99743301 4
-1.2695857 5.0210423 -1.0067083 2
-1.5937163 6.3168497 -1.0318419 3
-1.9408475 7.7097535 -0.97617352 21
-2.6952922 10.730412 -0.96795171 10
-4.6978097 18.758144 -1.0134336 34
-7.445344 29.795174 -0.53606814 29
-11.096142 43.723099 0.78738278 20
-11.114669 43.892475 2.3729126 45
-11.429235 45.234226 4.081852 26
-11.037767 43.813732 5.5477366 26
-10.988847 43.716152 7.1393566 37
-10.898661 43.453587 8.7081413 36
nan nan nan nan
nan nan nan nan
-0.88205105 3.5749006 -0.98661828 6
-1.0234306 4.1572614 -0.98843497 4
-1.2227373 4.9780898 -0.99640459 4
-1.5285859 6.2373767 -1.0171371 3
-1.8902777 7.7366128 -0.97787964 23
-2.5938942 10.640566 -0.9581902 10
-4.1475682 17.052778 -0.91975224 6
-4.1619048 17.163931 -0.30827934 14
-10.771463 43.688885 0.78542811 20
nan nan nan nan
nan nan nan nan
-10.709083 43.764439 5.5321374 26
-10.624027 43.515522 7.0946164 37
-10.58064 43.469486 8.696312 36
nan nan nan nan
nan nan nan nan
-0.85454696 3.5676708 -0.98299474 6
-0.99329758 4.1565499 -0.98663539 4
-1.1806719 4.9559479 -0.99029869 4
-1.4708405 6.1883202 -1.0074381 3
-1.8375686 7.7493014 -0.97787964 23
-2.4727945 10.460643 -0.94041049 9
-3.9908228 16.921917 -0.91116911 13
-3.9859037 16.940754 -0.30377659 20
-10.444335 43.671616 0.78378761 20
nan nan nan nan
nan nan nan nan
-10.320805 43.490471 5.4882641 25
-10.288137 43.454071 7.0727158 36
-10.245714 43.376175 8.6634922 35
nan nan nan nan
nan nan nan nan
-0.82306606 3.5453229 -0.97523022 5
-0.95502162 4.1235156 -0.97718745 4
-1.1301475 4.8952036 -0.97656047 4
-1.4125308 6.1329875 -0.99680054 3
-1.7852054 7.7696795 -0.97885466 23
-2.3734567 10.363068 -0.93012613 9
-3.8734701 16.95326 -0.91137844 19
-3.8759735 17.005213 -0.30443978 28
-10.11122 43.622681 0.78162348 20
nan nan nan nan
-10.046654 43.551491 3.9103293 22
-9.9955797 43.468609 5.4765654 25
-9.9571352 43.40546 7.053318 36
-9.9194298 43.345215 8.6432657 35
nan nan nan nan
nan nan nan nan
-0.79151535 3.5208254 -0.96694797 5
-0.92365217 4.1186728 -0.97448802 4
-1.095945 4.9029741 -0.97656047 4
-1.3550633 6.0771465 -0.98616302 3
-1.7365224 7.8071432 -0.9820233 21
-2.2868993 10.307014 -0.92367655 9
-3.7640843 17.02084 -0.91357654 26
-3.7718146 17.098251 -0.30562654 14
-9.783637 43.590752 0.77980846 39
-9.7737932 43.653847 2.3444417 44
-9.7080545 43.466957 3.896559 22
-9.6685753 43.432693 5.4634032 25
-9.6341677 43.385212 7.0389261 36
-9.5957756 43.319489 8.624567 35
nan nan nan nan
nan nan nan nan
-0.7652756 3.5187142 -0.96487743 5
-0.88620174 4.0850272 -0.96504015 4
-1.0517505 4.8604312 -0.96663845 4
-1.2990789 6.0186472 -0.97521257 3
-1.7020144 7.91223 -0.99372268 31
-2.1985857 10.246754 -0.9168784 9
-3.6602612 17.102705 -0.91661197 13
-3.694067 17.319736 -0.30911702 14
-9.4646168 43.554726 0.77799338 19
-9.4408846 43.555401 2.3356493 43
-9.3795404 43.41877 3.8862746 21
-9.345953 43.373306 5.447804 25
-9.3157997 43.343567 7.021718 36
-9.2717323 43.285599 8.604723 35
nan nan nan nan
nan nan nan nan
-0.73931652 3.51439 -0.96228927 5
-0.85277081 4.0642638 -0.95874143 4
-1.0137744 4.8484378 -0.9628222 4
-1.2449307 5.9695563 -0.96582651 3
-1.6477137 7.9216881 -0.99347895 23
-2.1186693 10.21271 -0.91252059 9
-3.5593722 17.217813 -0.92142695 13
-3.6075857 17.497242 -0.31183958 14
-9.1365004 43.506229 0.77596891 39
-9.108758 43.487316 2.3285315 43
-9.0687256 43.409443 3.8798251 21
-9.0194559 43.32478 5.4336672 24
-8.9900875 43.297302 7.0038848 35
-8.9506054 43.220821 8.5795355 34
nan nan nan nan
nan nan nan nan
-0.71130472 3.5024264 -0.95763052 5
-0.81973594 4.0471988 -0.95334268 4
-0.96442455 4.7744017 -0.94679433 4
-1.1910075 5.9120517 -0.95518899 3
-1.5724455 7.8337383 -0.98104829 2
-2.0410621 10.195994 -0.90973163 9
-3.4510844 17.286688 -0.92383438 13
-5.6645622 28.477667 -0.50681788 25
-8.8210421 43.473347 0.77429348 39
-8.7855797 43.415199 2.321414 43
-8.7421942 43.356472 3.8695407 21
-8.7059498 43.293697 5.4222112 24
-8.6753531 43.258713 6.9879284 35
-8.6332827 43.205246 8.5642719 34
nan nan nan nan
nan nan nan nan
-0.68038601 3.4711673 -0.94779539 6
-0.79029733 4.0431228 -0.95109314 3
-0.92731673 4.7617483 -0.94297814 4
-1.1451856 5.8969531 -0.95143455 3
-1.502103 7.7565608 -0.97008008 2
-1.9483221 10.098485 -0.89979583 9
-3.2541041 16.914181 -0.90269065 6
-5.4457364 28.385948 -0.50451416 25
-8.4973812 43.431816 0.7724784 39
-8.463933 43.381374 2.3163896 43
-8.43015 43.328911 3.8618708 21
-8.3868704 43.267673 5.4114871 24
-8.3517704 43.207676 6.9700952 35
-8.3222504 43.176266 8.5470991 68
-8.2899723 43.17094 10.148892 49
nan nan nan nan
-0.65470433 3.4682393 -0.94572484 6
-0.75736737 4.023644 -0.94524437 4
-0.88898301 4.7410913 -0.93763542 4
-1.0930953 5.8465528 -0.94204849 3
-1.4304529 7.6731877 -0.95838058 2
-1.8486723 9.9551287 -0.88585097 8
-3.1221235 16.861856 -0.89871311 6
-5.2568583 28.474405 -0.5054217 25
-8.1791534 43.411476 0.77108222 38
-8.1468544 43.364815 2.312412 43
-8.1039743 43.261379 3.8507149 21
-8.0664139 43.227596 5.3992996 24
-8.0333195 43.175587 6.9557028 34
-8.0005875 43.125214 8.5257282 34
-7.962883 43.08979 10.1165 48
nan nan nan nan
-0.62702465 3.4537177 -0.94054842 3
-0.72474635 4.0039053 -0.93939567 6
-0.85029119 4.7162681 -0.93152958 4
-1.0400233 5.7859931 -0.93109804 3
-1.3551426 7.5618405 -0.94326878 2
-1.7668699 9.8991451 -0.87975007 8
-2.9843764 16.771162 -0.89274681 12
-4.9943676 28.152061 -0.49906901 50
-7.8534241 43.343559 0.76888323 19
-7.8204789 43.29092 2.3055038 42
-7.7900805 43.252197 3.8449626 21
-7.7483087 43.192974 5.3880877 24
-7.7136168 43.129505 6.9394336 34
-7.681056 43.077576 8.5055017 33
-7.6414413 43.029202 10.089505 48
nan nan nan nan
-0.59924799 3.4370763 -0.93485445 5
-0.6931054 3.9877477 -0.93444675 4
-0.8133266 4.6988754 -0.92695016 4
-0.99053514 5.7405543 -0.92265058 3
-1.283473 7.4615607 -0.92961943 2
-1.6990678 9.9190931 -0.88044727 8
-2.8356266 16.606522 -0.88290769 11
-4.8413291 28.442516 -0.50360662 25
-7.5365834 43.316555 0.76745212 19
-7.5078206 43.285419 2.3023636 42
-7.4645309 43.170059 3.8329351 20
-7.4287229 43.142338 5.3751698 24
-7.4036388 43.131687 6.9312992 34
-7.3678594 43.058556 8.4913826 33
-7.3310347 43.023869 10.076009 48
nan nan nan nan
-0.57555819 3.4430811 -0.93537205 6
-0.66108501 3.9675007 -0.92859805 4
-0.77214801 4.6540828 -0.91702807 3
-0.94592232 5.7200451 -0.91827041 3
-1.2171448 7.3841586 -0.91889495 2
-1.6188074 9.8638659 -0.87452072 8
-2.6996319 16.503708 -0.87641799 17
-4.6201339 28.337465 -0.5011633 25
-7.2191882 43.279354 0.76588142 19
-7.1831732 43.202808 2.2952459 42
-7.1561241 43.17984 3.8292744 20
-7.1173325 43.132427 5.3676138 23
-7.0818257 43.057575 6.9112754 34
-7.0530992 43.023701 8.4745913 33
-7.0135412 42.970142 10.051714 47
nan nan nan nan
-0.54601157 3.4126792 -0.92605454 6
-0.63030177 3.9527743 -0.92409903 4
-0.7310214 4.6050682 -0.90634274 3
-0.89794296 5.6757803 -0.91013581 3
-1.1513388 7.3022766 -0.90768296 2
-1.5517589 9.8867369 -0.8755666 12
-2.5368166 16.218271 -0.86029857 16
-2.9299541 18.796112 -0.33204949 16
-6.9014187 43.231941 0.76417106 18
-6.8776193 43.228233 2.2939899 42
-6.8423285 43.152004 3.8224764 20
-6.8008718 43.084984 5.3556709 23
-6.770617 43.039619 6.9006381 34
-6.7398148 42.990421 8.4585629 66
-6.698338 42.921795 10.029219 47
nan nan nan nan
-0.51867074 3.3934917 -0.9198429 6
-0.59887636 3.9320338 -0.91825026 4
-0.69914621 4.6120009 -0.90672439 3
-0.84649199 5.6037822 -0.8976211 3
-1.0902888 7.2433944 -0.89939582 2
-1.4891543 9.9285955 -0.8783555 13
-2.3804862 15.947181 -0.84501636 5
-2.8083606 18.881384 -0.33320135 16
-6.5873976 43.199989 0.76277488 18
-6.5570798 43.152767 2.2875001 42
-6.5227304 43.078556 3.8118436 20
-6.4874916 43.048973 5.3454337 23
-6.4582448 43.007698 6.888123 33
-6.4247036 42.937401 8.4391003 32
-6.3988585 42.918201 10.01797 47
nan nan nan nan
-0.49413306 3.391295 -0.91829002 5
-0.5658136 3.8975482 -0.90925223 4
-0.66408581 4.591393 -0.90176338 3
-0.80438673 5.5820413 -0.89324087 3
-1.0244787 7.1447196 -0.88623393 2
-1.4276929 9.9939766 -0.88323629 13
-2.1548052 15.140446 -0.8014729 4
-2.6983535 19.054962 -0.33592394 8
-6.2787719 43.14489 0.76102966 37
-6.254004 43.133152 2.2841506 42
-6.2104249 43.044167 3.8048711 20
-6.1827364 43.011574 5.3354402 23
-6.1524692 42.960712 6.8737311 33
-6.1123443 42.893745 8.4219275 32
-6.0834651 42.851856 9.9923267 47
nan nan nan nan
-0.46864644 3.3773584 -0.91363126 6
-0.53713411 3.8858662 -0.90565294 4
-0.62987596 4.5803576 -0.89871037 3
-0.7578907 5.5327225 -0.8844806 2
-0.96670085 7.0846539 -0.87794685 2
-1.3605667 10.023442 -0.88497937 8
-2.0212214 14.949277 -0.79058707 4
-2.6235681 19.48114 -0.34311432 8
-5.9703031 43.136162 0.76012212 37
-5.9341974 43.041218 2.2770331 41
-5.9078207 43.016354 3.7987702 20
-5.8683343 42.951416 5.3227658 23
-5.8412089 42.92041 6.8605909 33
-5.8091364 42.85265 8.4059 65
-5.7760806 42.833412 9.9783792 46
nan nan nan nan
-0.4440496 3.3728862 -0.91156071 7
-0.50720751 3.8682671 -0.90070409 3
-0.59229618 4.5418148 -0.89031488 5
-0.71542764 5.5084949 -0.8797875 5
-0.9080466 7.0203576 -0.86917222 2
-1.2659043 9.841013 -0.86807114 4
-1.9325482 15.085849 -0.7970767 9
-3.7472062 29.373436 -0.5168705 26
-5.6565151 43.081627 0.75844663 37
-5.6289067 43.045956 2.2751491 41
-5.6014476 43.011105 3.7947609 20
-5.5609393 42.934246 5.3156977 23
-5.5287895 42.862186 6.8449469 33
-5.5030746 42.839588 8.3955965 32
-5.463572 42.768311 9.9540854 46
nan nan nan nan
-0.41571599 3.3375633 -0.90120792 7
-0.47827074 3.8562422 -0.89710486 2
-0.55456692 4.4971271 -0.88077438 5
-0.66949081 5.4525757 -0.87008858 2
-0.84696877 6.9280052 -0.85698533 2
-1.1731261 9.6518278 -0.85064 4
-1.7631097 14.569569 -0.76912934 4
-2.9765728 24.705545 -0.4343555 18
-5.3501887 43.076408 0.75767875 18
-5.315505 42.981129 2.269706 41
-5.2895923 42.956226 3.7865684 19
-5.2519202 42.897148 5.3064356 23
-5.2232265 42.848755 6.8368125 33
-5.1941853 42.79705 8.3799505 32
-5.1590233 42.757042 9.9428368 46
nan nan nan nan
-0.38970056 3.3173602 -0.89499629 7
-0.44997936 3.8478739 -0.89440542 2
-0.51885289 4.4638362 -0.87352359 3
-0.62459964 5.3982477 -0.86070251 2
-0.79404217 6.8943067 -0.85211051 2
-1.0830569 9.4618368 -0.83320886 3
-1.6918747 14.849419 -0.78325999 9
-2.4421408 21.534666 -0.37829837 12
-5.0383954 43.019367 0.75603831 18
-5.0125146 42.993385 2.2684498 41
-4.9789867 42.901073 3.7785501 19
-4.945034 42.869659 5.2986355 23
-4.9158463 42.813526 6.8255496 32
-4.8854699 42.746445 8.3631582 32
-4.8533797 42.730053 9.9284401 46
nan nan nan nan
-0.36547315 3.3103991 -0.89240813 8
-0.41906324 3.814117 -0.88585734 4
-0.4853332 4.4458814 -0.86932582 5
-0.58241737 5.3612356 -0.85413224 2
-0.73693061 6.816792 -0.84187353 2
-1.0105337 9.393713 -0.82658505 3
-1.5569733 14.568933 -0.76787323 9
-2.2896369 21.531305 -0.3779493 12
-4.7289724 42.971996 0.75460714 18
-4.7035656 42.947918 2.2642632 41
-4.6739831 42.885265 3.7741921 19
-4.638341 42.83604 5.290349 22
-4.607923 42.764313 6.8124084 32
-4.5799975 42.715099 8.3505659 63
-4.5530887 42.674904 9.9081945 45
nan nan nan nan
-0.34135887 3.303262 -0.88981992 7
-0.38903552 3.7839952 -0.87820899 5
-0.45326191 4.4315042 -0.86589122 7
-0.54211164 5.3277369 -0.8481878 5
-0.67974293 6.7269688 -0.83017403 2
-0.93257397 9.2776299 -0.81577778 3
-1.4484231 14.485789 -0.76295364 9
-2.1467717 21.622381 -0.37927568 12
-4.4294047 42.935558 0.75342041 18
-4.4025745 42.895485 2.2598667 41
-4.3653817 42.827656 3.7663481 19
-4.337265 42.773792 5.278893 22
-4.3108015 42.735729 6.8030229 32
-4.2762194 42.69133 8.33988 63
-4.2479229 42.6339 9.8915491 45
nan nan nan nan
-0.31738389 3.2901254 -0.88567883 7
-0.36029381 3.755518 -0.87101054 5
-0.41896293 4.3993816 -0.85902214 3
-0.50062025 5.2861605 -0.8409918 2
-0.62835443 6.6721497 -0.82286185 2
-0.85517234 9.1490192 -0.8039245 3
-1.323421 14.239005 -0.74945098 13
-2.011688 21.767912 -0.3815794 12
-4.1257234 42.925621 0.75272226 18
-4.0953784 42.845654 2.2556798 41
-4.0696139 42.812744 3.7625134 19
-4.0327611 42.741764 5.271337 22
-4.0051484 42.68808 6.7908211 32
-3.979511 42.654942 8.3272867 31
-3.9438896 42.594597 9.8758011 45
nan nan nan nan
-0.2926861 3.2730193 -0.88050246 10
-0.33337632 3.7501771 -0.8692109 5
-0.38582456 4.3748198 -0.85367942 3
-0.45887345 5.2344275 -0.83223146 2
-0.57589972 6.6091356 -0.81457478 2
-0.7796126 9.0197887 -0.79207134 3
-1.2217594 14.22203 -0.74809021 13
-1.8838264 22.064354 -0.38653588 13
nan nan nan nan
-3.7901702 42.805553 2.252121 41
-3.7648604 42.774616 3.7567613 19
-3.7308369 42.729324 5.2664623 22
-3.7024205 42.661861 6.7823734 32
-3.6770709 42.628872 8.3169832 31
-3.643271 42.584206 9.8672533 45
nan nan nan nan
-0.26871702 3.2615056 -0.87687898 5
-0.30654925 3.7446446 -0.86741132 4
-0.35352826 4.3558817 -0.8494817 5
-0.42009881 5.2099376 -0.8278513 2
-0.52213979 6.518014 -0.80287528 2
-0.70653027 8.8978977 -0.78091538 3
-1.1238546 14.248131 -0.74903226 17
-2.3245461 29.668545 -0.51945347 27
nan nan nan nan
-3.4870198 42.779221 2.2493997 40
-3.461642 42.744247 3.7518802 19
-3.4281292 42.700905 5.2598815 22
-3.3994684 42.623657 6.7723618 32
-3.3739486 42.585007 8.3036261 31
-3.5674233 45.429485 10.520512 54
nan nan nan nan
-0.2455053 3.2575231 -0.87532604 6
-0.27719969 3.7039409 -0.85751349 6
-0.32107773 4.3308334 -0.84413904 5
-0.37936336 5.1536422 -0.81846523 2
-0.4717001 6.4541869 -0.79458821 2
-0.63001442 8.7038946 -0.7634843 3
-1.0262241 14.281527 -0.75039297 26
-2.1112602 29.598278 -0.5179525 54
nan nan nan nan
-3.1835525 42.738781 2.2460501 40
-3.1583176 42.701805 3.7461281 19
-3.1229753 42.628773 5.2481818 22
-3.0986636 42.603004 6.7654786 32
-3.2793245 45.41552 8.8508663 100
-3.4341812 48.026852 11.116182 61
nan nan nan nan
-0.2215735 3.2418113 -0.87066728 15
-0.25080884 3.6980085 -0.85571384 5
-0.28964961 4.3153396 -0.84070444 7
-0.3427186 5.1463099 -0.81690085 5
-0.4219186 6.3860154 -0.78581363 2
-0.55987716 8.5649347 -0.75093383 3
-0.93682742 14.44779 -0.75876677 27
-1.9027629 29.58436 -0.51746386 53
nan nan nan nan
-2.8810682 42.700184 2.2429099 40
-2.8578634 42.689018 3.7431648 18
-2.8228214 42.611897 5.2435508 22
nan nan nan nan
-3.1291361 47.997845 9.3496418 44
nan nan nan nan
nan nan nan nan
-0.19810806 3.2297814 -0.86704385 21
-0.22451259 3.6918886 -0.85391426 2
-0.2568084 4.2721825 -0.83192724 5
-0.30290729 5.0835047 -0.80657619 2
-0.37381747 6.3293557 -0.77850145 2
-0.4956539 8.4930515 -0.74430996 3
-0.84424287 14.597543 -0.76630318 27
-1.6896571 29.483128 -0.51547426 26
-1.5828602 25.953817 0.45386729 25
-2.5787759 42.651474 2.239351 40
-2.5543838 42.618435 3.7353208 18
-2.5245614 42.618675 5.2420888 22
nan nan nan nan
-2.8566933 49.096485 9.5595312 46
nan nan nan nan
nan nan nan nan
-0.17471664 3.2156539 -0.8629027 28
-0.197267 3.6661232 -0.8476156 4
-0.22531079 4.2425036 -0.82582134 5
-0.26595819 5.0578785 -0.80219603 5
-0.32755712 6.2921634 -0.77362669 2
-0.42860764 8.317152 -0.72862202 3
-0.74941689 14.742706 -0.7736302 4
-1.4926406 29.669954 -0.51854593 27
nan nan nan nan
-2.2788374 42.628548 2.2372577 40
-2.2548082 42.597427 3.7320089 18
nan nan nan nan
-2.4852619 48.063869 7.6227393 45
nan nan nan nan
nan nan nan nan
nan nan nan nan
-0.15180619 3.2071466 -0.86031455 27
-0.17276126 3.6907704 -0.85301447 5
-0.19570157 4.22825 -0.82276845 5
-0.22980839 5.0220785 -0.79625154 5
-0.2813876 6.2447195 -0.76753318 2
-0.36840504 8.272171 -0.72443849 2
-0.63289076 14.380325 -0.75437051 4
nan nan nan nan
-1.2315521 26.114994 0.45634553 34
-1.9878767 42.627113 2.2364204 40
nan nan nan nan
-1.9986587 44.013771 5.409781 24
nan nan nan nan
-2.4473712 55.388264 10.776893 57
nan nan nan nan
nan nan nan nan
-0.12981588 3.2042453 -0.85927927 30
-0.14148347 3.538033 -0.81747216 9
-0.16533022 4.2079344 -0.81857067 7
-0.19367081 4.9959264 -0.79187137 4
-0.23637126 6.1810298 -0.75948983 2
-0.30601117 8.1511011 -0.71363121 2
-0.50972545 13.769659 -0.72213155 4
nan nan nan nan
-1.0523474 26.200882 0.45770684 51
nan nan nan nan
-1.7205559 43.986217 3.851238 21
nan nan nan nan
-1.6636349 43.904823 6.9588313 35
-2.1565115 57.710815 11.225676 61
nan nan nan nan
nan nan nan nan
-0.10737966 3.2031426 -0.85876161 32
-0.11819555 3.5817838 -0.82737005 15
-0.13474505 4.1717033 -0.81131989 4
-0.15740772 4.9537196 -0.78498822 4
-0.19203563 6.1448307 -0.75485879 2
-0.24581265 8.0454988 -0.70421833 2
-0.40435067 13.465444 -0.70601213 4
nan nan nan nan
-0.87144786 26.269548 0.45878887 34
-1.4400877 44.107933 2.3128307 43
nan nan nan nan
nan nan nan nan
-1.356675 43.901546 6.9566412 35
nan nan nan nan
nan nan nan nan
nan nan nan nan
-0.084861167 3.1980207 -0.85720873 35
-0.092629708 3.5610926 -0.82242107 30
-0.10482489 4.1411405 -0.80521399 21
-0.1218437 4.9152031 -0.77873087 4
-0.14716054 6.0646572 -0.74486554 2
-0.18896602 7.9593463 -0.6965487 2
-0.29984412 13.012683 -0.68214691 4
nan nan nan nan
nan nan nan nan
-1.1964743 46.624649 2.4442987 47
nan nan nan nan
nan nan nan nan
nan nan nan nan
nan nan nan nan
nan nan nan nan
nan nan nan nan
-0.062342368 3.1888776 -0.85462052 38
-0.067282721 3.5363233 -0.81657237 34
-0.076051474 4.1103516 -0.79910809 21
-0.087600552 4.872467 -0.77184772 7
-0.10416599 6.0278254 -0.74023443 2
-0.13238949 7.9007077 -0.69131935 2
-0.20568675 12.67094 -0.66414332 3
nan nan nan nan
nan nan nan nan
nan nan nan nan
nan nan nan nan
-0.77408761 43.907391 5.3919878 24
nan nan nan nan
nan nan nan nan
nan nan nan nan
nan nan nan nan
-0.040661015 3.19116 -0.85513818 38
-0.043330852 3.5464425 -0.81882185 31
-0.046835773 4.06563 -0.79033089 22
-0.053106658 4.8295045 -0.76496464 4
-0.062551312 5.972815 -0.73340976 2
-0.077343084 7.7739191 -0.68016338 2
-0.11422899 12.348524 -0.64718646 3
-0.34042028 39.008575 -0.6809231 52
nan nan nan nan
nan nan nan nan
-0.49742529 43.845688 3.8362472 20
nan nan nan nan
nan nan nan nan
nan nan nan nan
nan nan nan nan
nan nan nan nan
-0.018281387 3.1739798 -0.85047942 32
-0.018632183 3.5583508 -0.82152128 31
-0.01922553 4.0795975 -0.79300219 32
-0.02023197 4.8297539 -0.76496464 20
-0.020713083 5.9334049 -0.728535 2
-0.022797057 7.68262 -0.67214507 2
-0.029211909 11.95356 -0.62646145 3
-0.068171524 39.061989 -0.68183059 52
-0.21848023 39.117432 0.68280792 14
nan nan nan nan
nan nan nan nan
nan nan nan nan
-0.14512016 43.758305 6.9306731 34
nan nan nan nan
nan nan nan nan
nan nan nan nan
0.0033317676 3.1817582 -0.85254997 27
0.0055433107 3.5291641 -0.81477278 16
0.0091846306 4.0482202 -0.78689629 29
0.013238343 4.7408857 -0.75088555 15
0.019437915 5.8619456 -0.71976036 4
0.030534392 7.6068821 -0.6655212 2
0.052409712 11.550031 -0.60531777 3
0.19753495 39.025558 -0.68120235 52
0.058139697 41.641621 0.72685784 16
nan nan nan nan
0.10696082 43.776649 3.8299718 20
0.13742249 43.745262 5.3712697 24
nan nan nan nan
nan nan nan nan
nan nan nan nan
nan nan nan nan
0.025141289 3.1314304 -0.83909136 32
0.030231385 3.5348854 -0.81612247 16
0.037337348 4.0362782 -0.78460658 30
0.045968819 4.7031474 -0.744941 19
0.059850521 5.8120427 -0.71366698 2
0.082591765 7.5108547 -0.65715432 2
0.128493 11.153952 -0.58459264 3
0.46964273 38.995232 -0.68071365 52
0.32799301 39.152668 0.68343627 14
nan nan nan nan
0.4124642 43.762886 3.8289261 20
nan nan nan nan
nan nan nan nan
nan nan nan nan
nan nan nan nan
nan nan nan nan
0.046855722 3.1215208 -0.83650321 47
0.054483354 3.5073092 -0.80982387 24
0.064877674 3.9966595 -0.77697426 29
0.077444918 4.6217327 -0.73211342 23
0.10021897 5.7995739 -0.71220452 2
0.13287294 7.3905711 -0.64669561 2
0.2018462 10.90916 -0.5718227 3
0.74070948 38.931023 -0.67966652 52
0.59734815 38.889488 0.67889863 14
nan nan nan nan
nan nan nan nan
nan nan nan nan
0.76935309 43.641148 6.9131527 34
nan nan nan nan
nan nan nan nan
nan nan nan nan
