# .PCD v0.7 - Point Cloud Data file format
VERSION 0.7
FIELDS x y z intensity
SIZE 4 4 4 4
TYPE F F F F
COUNT 1 1 1 1
WIDTH 1426
HEIGHT 1
VIEWPOINT 0 0 0 1 0 0 0
POINTS 1426
DATA ascii
2.3551626 7.9867182 -0.14534363 3
3.4809945 11.966063 0.21752679 16
3.5254855 12.095389 0.66027045 9
3.963887 13.573019 1.2370886 20
8.772747 29.961628 3.8332787 24
8.7849007 29.944992 4.9427037 28
8.7980614 29.931826 6.064292 25
11.366496 38.570343 9.2832804 37
8.7994385 29.801899 8.3262091 18
0.74728328 2.5067103 -0.70088202 31
0.82206523 2.7522969 -0.66315573 22
0.91741443 3.0637329 -0.62165576 33
1.033113 3.4435503 -0.56942153 20
1.1834353 3.9371107 -0.50478286 22
1.4107192 4.6813846 -0.42776039 21
1.7537503 5.808702 -0.31799328 5
2.4154954 7.985395 -0.14562289 12
3.5570073 11.916562 0.21707304 8
3.6292984 12.135542 0.66382933 9
3.6439435 12.161313 1.1107128 2
8.9954109 29.945278 3.8391283 12
9.0028515 29.913197 4.94771 14
9.0181456 29.907269 6.0719242 37
nan nan nan nan
9.0117598 29.75453 8.3303499 55
0.76250476 2.4940429 -0.69881141 29
0.84639639 2.7632604 -0.66720486 16
0.94108766 3.0647602 -0.62318224 28
1.0431899 3.3909402 -0.56191266 24
1.2144027 3.9401343 -0.50624532 21
1.4274843 4.6200252 -0.42305395 23
1.7688612 5.7142763 -0.31349242 7
2.3402772 7.546237 -0.13790892 5
3.6055801 11.778625 0.21501365 36
3.5985618 11.733745 0.64320898 5
3.742795 12.181288 1.1148963 6
9.220027 29.932972 3.8457093 12
9.2225323 29.885481 4.9536543 14
9.2330971 29.864212 6.0761218 37
9.2743721 29.923674 7.2326264 93
9.2307234 29.727793 8.340703 55
0.77238774 2.4646938 -0.69208211 33
0.85107255 2.710803 -0.65595734 21
0.95951378 3.0487521 -0.62127411 37
1.0603036 3.3628511 -0.55847108 28
1.2436742 3.9372389 -0.50697654 16
1.4506838 4.5814548 -0.4204393 26
1.7881811 5.6370587 -0.30993357 2
2.4443862 7.6917048 -0.14087583 18
3.6865251 11.74935 0.21494384 34
3.7091391 11.799792 0.64823323 8
3.6901 11.717773 1.0748047 16
9.4263687 29.860308 3.8447344 36
9.4523764 29.888172 4.9649177 28
9.4526157 29.834587 6.0833726 25
12.541037 39.486519 9.5649195 41
9.4567814 29.721533 8.3572674 56
0.79134738 2.4647596 -0.69363505 30
0.8592363 2.6714027 -0.6478591 14
0.96751952 3.0008717 -0.6128785 26
1.0776818 3.3365698 -0.55534244 28
1.2521845 3.8699119 -0.49942058 22
1.4924682 4.6015387 -0.42322829 19
1.7978665 5.5332613 -0.30490932 15
2.4262283 7.4538779 -0.13682686 11
3.8639324 12.020309 0.22038898 25
3.8220432 11.868664 0.65346682 8
3.7669275 11.676556 1.0734102 16
9.6462097 29.829659 3.8493655 73
9.6735897 29.860918 4.971488 14
9.6788511 29.823891 6.0948215 51
12.85858 39.527733 9.5964127 41
9.6736097 29.684183 8.36555 56
0.80672401 2.4536698 -0.69208211 27
0.87359661 2.6523829 -0.64470977 41
0.98659962 2.988451 -0.61173368 37
1.0972277 3.3177118 -0.55346519 37
1.2698067 3.8328106 -0.49576455 18
1.5101125 4.5475183 -0.41921914 23
1.8351887 5.5167861 -0.30469999 5
2.4636631 7.3931251 -0.13602406 23
3.954628 12.013938 0.22077294 19
3.8560169 11.693744 0.64530241 8
3.8570969 11.67646 1.0758505 16
9.8704615 29.810581 3.8557026 61
9.8892994 29.815151 4.9752421 28
9.9054117 29.811481 6.1062698 38
13.153927 39.496166 9.6108093 42
9.8958931 29.661736 8.3784904 56
0.82075447 2.4388227 -0.68949395 31
0.88586837 2.6277528 -0.64021075 30
1.0030396 2.9684708 -0.60906237 26
1.120363 3.3099711 -0.55346519 31
1.2933465 3.8144522 -0.49454582 21
1.5347713 4.5161138 -0.41730168 19
1.8614291 5.467916 -0.30271122 2
2.4758458 7.2602925 -0.13389486 17
4.0377665 11.984141 0.22073804 25
3.926064 11.632476 0.64341831 8
3.9232047 11.603949 1.071667 18
10.09234 29.782312 3.8610649 49
10.107987 29.777189 4.9805613 14
10.12339 29.771345 6.1123753 38
10.166632 29.830128 7.2758174 19
10.12771 29.665051 8.3991957 19
0.82790661 2.4057786 -0.68172938 28
0.91326082 2.6492972 -0.6469593 27
1.0110409 2.9263177 -0.60181159 26
1.1460975 3.3116021 -0.55502951 27
1.3134288 3.7886796 -0.49235216 22
1.5530516 4.4698038 -0.41398975 18
1.8789101 5.398531 -0.29957107 2
2.5074341 7.1922894 -0.13295244 20
4.120543 11.960162 0.22080785 29
4.0429435 11.714985 0.64948928 8
4.0326943 11.665478 1.0798596 16
10.313025 29.765444 3.8678894 61
10.331168 29.767416 4.9905729 14
10.338697 29.738836 6.120008 38
10.354682 29.717913 7.2654696 18
10.344028 29.637384 8.4111013 19
0.84596348 2.4035854 -0.68276465 33
0.93238074 2.644695 -0.64740914 24
1.0425649 2.9506569 -0.60829914 33
1.1573257 3.2700007 -0.54939789 26
1.3358673 3.7681923 -0.49088979 18
1.5695441 4.4175496 -0.41015494 9
1.8931149 5.3194242 -0.29590753 2
2.5099111 7.040874 -0.13047419 19
nan nan nan nan
4.1332726 11.710959 0.65085006 23
4.116693 11.644555 1.0805569 18
10.536472 29.737631 3.8737392 37
10.559212 29.752272 5.0002718 28
10.561845 29.710329 6.1291671 25
10.571056 29.670599 7.2717681 37
10.604576 29.715462 8.4540653 78
0.86664867 2.4085271 -0.68587047 31
0.94421518 2.6197879 -0.64291012 24
1.0579587 2.9305658 -0.60562783 25
1.1754205 3.2488391 -0.54720783 16
1.356729 3.743844 -0.48893982 13
1.5873384 4.3730531 -0.40701729 18
1.9101683 5.2538581 -0.29297671 2
2.5221937 6.9259205 -0.12865914 16
4.2586751 11.822446 0.21934184 29
4.2237415 11.706241 0.65221077 17
4.1768942 11.557444 1.0751532 16
10.794066 29.818275 3.8937259 61
10.771585 29.707567 5.0049648 14
10.791802 29.69861 6.1421423 39
10.81943 29.726143 7.3032618 57
10.825125 29.693409 8.4685593 58
0.88768679 2.4152653 -0.68949395 37
0.9653905 2.6224444 -0.64515966 29
1.0663342 2.8919826 -0.59914029 31
1.189414 3.2205884 -0.54376626 24
1.3622459 3.6826332 -0.48211515 23
1.60876 4.3397288 -0.40492558 18
1.9222513 5.177073 -0.28941786 2
2.517004 6.7680192 -0.12604128 13
4.3625274 11.863382 0.22063331 23
4.2999067 11.674222 0.65200138 17
4.292717 11.62968 1.084566 21
11.011929 29.785072 3.8990881 50
10.990012 29.678015 5.0124736 14
10.999457 29.655832 6.1482477 39
14.631453 39.384861 9.6998901 43
8.1098166 21.783394 6.2282219 17
0.89486629 2.3858104 -0.68276465 29
0.98344743 2.6178083 -0.64560956 33
1.0908381 2.8975182 -0.60181159 23
1.2168854 3.2272038 -0.54626918 20
1.3886241 3.67489 -0.4823589 17
1.6290922 4.3044543 -0.40265954 24
1.9470128 5.1336489 -0.28774312 2
2.56987 6.7652392 -0.12632053 19
4.4642601 11.889579 0.22168046 40
4.3736415 11.629729 0.651164 14
4.3492942 11.540529 1.0789881 28
11.227019 29.742865 3.9034755 75
11.202932 29.63209 5.0174794 29
4.1768599 11.02463 2.2916162 6
4.2049451 11.081244 2.7363048 8
8.0852385 21.262178 6.0951886 24
0.90984172 2.373934 -0.68121177 42
0.9965679 2.5961494 -0.64201033 38
1.1101346 2.8859735 -0.60104835 17
1.2229037 3.1741743 -0.53876036 20
1.4070208 3.6444888 -0.47967777 23
1.6634451 4.3019776 -0.40353107 22
1.9598854 5.0581279 -0.28428894 11
2.5834889 6.6571927 -0.12464508 15
nan nan nan nan
4.4875555 11.678302 0.65566492 8
4.4432206 11.538861 1.0817771 18
11.459567 29.713623 3.9103003 75
11.44743 29.635927 5.0318713 29
11.462245 29.612719 6.1722898 13
4.1200094 10.627515 2.6314776 20
8.0475922 20.715776 5.9549088 22
0.92187607 2.3547702 -0.67758828 40
1.0058722 2.5653663 -0.63616163 41
1.123577 2.8596833 -0.59723216 22
1.2332879 3.1340935 -0.5334416 24
1.4375249 3.647505 -0.48138395 24
1.6993096 4.3029366 -0.40475124 18
1.9826618 5.0127482 -0.28250951 7
2.5695119 6.4865446 -0.12178289 21
4.0414882 10.312666 0.19333775 5
4.582684 11.675637 0.65733969 5
4.6330066 11.7857 1.1079237 14
13.730105 34.855927 4.5998373 15
11.676606 29.597355 5.0393806 14
4.3705263 11.061254 2.3118417 36
4.1758652 10.547028 2.6188803 40
8.0147152 20.211926 5.8260169 28
0.93542576 2.3411012 -0.67551774 27
1.0230334 2.5564723 -0.63571173 30
1.1325537 2.8244364 -0.59150791 31
1.2705972 3.1639018 -0.54001182 19
1.4407322 3.582129 -0.47407177 22
1.7121792 4.2484651 -0.40074208 17
1.9914454 4.9339614 -0.278846 2
2.5817597 6.3868747 -0.12024708 21
3.9151058 9.7884645 0.18401818 1
4.6522007 11.613695 0.65566492 5
4.6357956 11.555211 1.0892724 21
13.991622 34.805264 4.6059303 15
4.4663424 11.093594 1.8941088 18
nan nan nan nan
4.139164 10.244783 2.550945 42
4.1774483 10.323976 2.9841838 24
0.96049863 2.3559802 -0.68172938 47
1.0371729 2.5402472 -0.63346225 27
1.1477841 2.8055584 -0.5892182 21
1.2919055 3.1531262 -0.53969896 15
1.455155 3.5462725 -0.47065943 26
1.706948 4.1516423 -0.39272377 27
2.078316 5.047368 -0.28606835 14
2.629338 6.3760881 -0.1203867 18
4.2969022 10.529251 0.19850367 5
4.7588515 11.643796 0.65922379 3
4.7329521 11.563134 1.0931073 19
8.9012184 21.703419 2.8802602 32
4.5496855 11.07676 1.8966117 10
4.2332616 10.291053 2.1630108 24
4.1949859 10.177804 2.5414972 44
4.2265668 10.239205 2.9681368 40
0.9687624 2.3295965 -0.6760354 73
1.0428934 2.5041614 -0.6262638 29
1.1499535 2.7558048 -0.580441 30
1.2986535 3.1075778 -0.5334416 17
1.4806435 3.5378582 -0.47090316 27
1.7173971 4.0955281 -0.3885403 20
2.1003535 5.0014315 -0.28428894 23
2.6536281 6.3096519 -0.11947917 13
4.0921226 9.8306913 0.18586813 3
4.9091959 11.7762 0.66864425 3
4.8765101 11.680572 1.1074008 14
8.9881611 21.486921 2.8597863 72
4.4711943 10.67305 1.8327864 19
4.3217082 10.30108 2.1714065 28
4.2100558 10.01533 2.5082045 12
4.5970187 10.919872 3.1746745 15
0.98047715 2.3121052 -0.67292953 42
1.0633972 2.5039942 -0.62806338 28
1.1737754 2.758549 -0.58273071 35
1.3172179 3.0911677 -0.53219014 17
1.5060838 3.5292618 -0.47114691 16
1.7404644 4.0706148 -0.38732013 22
2.1297159 4.9737945 -0.28355622 23
2.6676662 6.2211337 -0.1181528 12
4.3262992 10.192119 0.19326794 14
5.1749077 12.17359 0.69324213 12
4.9275017 11.574749 1.1006026 19
9.1332855 21.412687 2.8583238 24
4.5238752 10.590708 1.8240261 16
4.463788 10.434913 2.2061336 30
4.5823431 10.691411 2.6854658 28
4.0841417 9.5152569 2.7745402 33
0.99812919 2.3087499 -0.6739648 50
1.0653688 2.4607422 -0.61906534 29
1.1906612 2.7448838 -0.58158582 30
1.3293217 3.0601544 -0.52843571 17
1.5314779 3.5204818 -0.47139066 15
1.7967023 4.1222906 -0.39342102 17
2.1284342 4.8764329 -0.278846 28
2.6805985 6.1327305 -0.11682641 7
4.367959 10.093765 0.19197647 12
5.2065539 12.014384 0.68622911 3
5.1112971 11.777669 1.1232632 13
9.3197546 21.433964 2.8697793 8
4.611897 10.591467 1.8296577 21
4.3144503 9.8942089 2.0981357 20
4.5195608 10.344867 2.6062829 24
4.0769091 9.3183756 2.7253647 18
1.0087692 2.2893512 -0.67034137 38
1.0809474 2.4496794 -0.61816555 22
1.2090026 2.7347085 -0.58120424 28
1.3474559 3.0435736 -0.52718419 17
1.5407332 3.4752235 -0.46675962 22
1.8255286 4.1117864 -0.39359534 19
2.1559303 4.8468571 -0.27800864 40
2.7046306 6.0718546 -0.1160236 10
4.3301864 9.817853 0.18729922 12
5.2071881 11.789563 0.67544788 24
5.2320805 11.82916 1.1316301 13
4.6863279 10.575296 1.4202654 42
4.6713052 10.526512 1.8240261 24
4.4073381 9.9176702 2.1095843 7
4.5153937 10.146505 2.5639923 16
4.5186834 10.134844 2.9733133 18
1.029475 2.2928269 -0.67344719 33
1.103617 2.4545147 -0.62131482 28
1.2203337 2.710305 -0.57776964 30
1.3389099 2.9695034 -0.51592094 25
1.56414 3.4625731 -0.46651587 15
1.8558321 4.102572 -0.39394394 23
2.1773365 4.8065987 -0.27654323 23
2.713901 5.9799857 -0.11462741 17
4.2059937 9.3631353 0.17916641 10
5.3586016 11.912313 0.6845544 9
5.2867031 11.730586 1.1257036 11
4.69451 10.402022 1.4012538 26
4.8063035 10.634878 1.8484299 16
4.7129202 10.408895 2.2210169 40
4.6859007 10.334816 2.6197803 84
4.5915527 10.112649 2.9759014 24
1.0362219 2.2664402 -0.66775316 50
1.1178652 2.4416301 -0.61996514 37
1.2416809 2.7070727 -0.57891452 30
1.3884661 3.0229118 -0.52687138 26
1.5843532 3.4446332 -0.46554092 20
1.872753 4.0641837 -0.39150357 21
2.1907539 4.7477574 -0.27403107 27
2.7201502 5.8869495 -0.11319631 12
4.2213311 9.2244425 0.17707212 5
5.4358101 11.861902 0.68382168 9
5.379724 11.723302 1.1284926 4
4.7189226 10.264386 1.387117 37
4.6821747 10.170419 1.7733413 18
4.6998296 10.194714 2.182092 31
nan nan nan nan
7.7662916 16.792393 4.9574203 13
1.0479418 2.2503941 -0.66516501 45
1.1373544 2.439065 -0.62131482 43
1.2472557 2.6698778 -0.57280862 30
1.3994933 2.9916725 -0.52311689 27
1.615101 3.4478686 -0.46749085 19
1.8833057 4.0131335 -0.38784304 20
2.2162015 4.7160792 -0.27308905 27
2.750114 5.8442941 -0.11274255 15
4.2932301 9.2110596 0.17738625 7
5.5108867 11.807375 0.68287963 9
4.9476871 10.586224 1.0223368 22
4.8594861 10.378612 1.4071035 42
4.7035823 10.031961 1.754882 7
4.6682563 9.9430685 2.1351528 11
4.7136264 10.021501 2.5567937 58
7.763155 16.482599 4.881845 4
1.0636269 2.2430234 -0.66516501 41
1.1635493 2.4504292 -0.6262638 46
1.27514 2.6806078 -0.57700646 43
1.4101497 2.9604294 -0.51936251 25
1.6485313 3.4562187 -0.47017199 13
1.9080025 3.9948277 -0.38732013 18
2.2370052 4.6752677 -0.27162364 20
2.7096305 5.6554317 -0.10946149 19
4.2751136 9.0074368 0.17403539 8
5.6514764 11.891282 0.68999732 21
5.0959549 10.707945 1.0375019 11
4.8993607 10.276341 1.3978415 9
4.7173352 9.8812246 1.7342327 10
3.4047761 7.122263 1.5344861 3
4.818749 10.066526 2.5765896 26
4.4431376 9.2652483 2.7533171 36
1.0758996 2.2285848 -0.6630944 40
1.1577269 2.3948758 -0.61411637 31
1.2907894 2.6665654 -0.57586157 35
1.4302682 2.950762 -0.51936251 31
1.6440061 3.3856976 -0.46212861 20
1.9245193 3.9581163 -0.38505405 20
2.2407978 4.6024704 -0.26827416 24
2.7376485 5.6130133 -0.10900773 7
3.983232 8.2470551 0.15986405 1
5.1079311 10.561558 0.61484283 2
5.0524459 10.428253 1.0137956 7
4.9076767 10.115949 1.380536 13
4.9174118 10.122516 1.7824146 15
3.6425571 7.4849224 1.6180604 13
4.8709826 9.9958525 2.5671415 32
7.6931581 15.766334 4.7006717 20
1.0944521 2.2281451 -0.66516501 46
1.1826035 2.4044261 -0.61861545 33
1.3050356 2.6486835 -0.57395351 27
1.4429661 2.9247622 -0.51654667 27
1.6652552 3.3708689 -0.4616411 20
1.9425828 3.9270666 -0.38331094 20
2.2852898 4.6117687 -0.26973954 20
2.6922421 5.4258657 -0.10572667 11
4.5532937 9.2616825 0.18014374 14
5.0906825 10.341075 0.60406166 17
5.1479769 10.443658 1.0186763 15
5.2673435 10.667032 1.4607261 10
4.7743282 9.6558762 1.7060745 15
3.6376712 7.3473516 1.5936368 14
4.7692585 9.6202564 2.4789608 24
4.4853945 9.0318127 2.702071 20
1.1039344 2.2083542 -0.66154152 60
1.1923826 2.3821704 -0.61501622 30
1.3115999 2.6169214 -0.56899244 32
1.4717027 2.9325271 -0.51967537 33
1.6789398 3.3396521 -0.45896 22
1.9547224 3.8831551 -0.38034767 30
2.2923563 4.5479517 -0.26691341 27
2.7751217 5.496191 -0.10747192 19
4.4221401 8.8423672 0.17256939 14
5.1645312 10.313328 0.60448033 2
5.1975298 10.361163 1.0141442 11
5.0012407 9.9568548 1.3681054 9
4.8248501 9.5931568 1.7007557 16
4.9352865 9.795682 2.1320999 5
4.7546759 9.4249182 2.43712 22
5.7348514 11.353078 3.4081292 14
1.1163129 2.1956232 -0.65998858 65
1.2094529 2.3757362 -0.61546612 36
1.3307281 2.6094508 -0.56937408 27
1.4714766 2.8817182 -0.51247936 25
1.7004061 3.3243144 -0.45847249 16
1.9627111 3.8321738 -0.37668711 24
2.3213167 4.5265055 -0.26659939 20
2.8216484 5.492692 -0.10778606 14
4.4746943 8.7934561 0.17222033 11
5.1774683 10.161348 0.59767663 20
5.2054644 10.203084 1.0021167 3
4.9613276 9.7078114 1.3386129 1
4.8836107 9.5434093 1.6979399 12
nan nan nan nan
3.6145978 7.0423222 1.8275025 17
4.9574127 9.6460924 2.9060204 22
1.1186782 2.1618426 -0.65222406 36
1.232698 2.3791327 -0.61861545 33
1.3434885 2.5896406 -0.56708437 33
1.5020798 2.8903954 -0.51592094 22
1.719906 3.3053195 -0.45749757 24
1.9866532 3.8130782 -0.37616417 24
2.3342426 4.4725952 -0.26440126 15
2.8238063 5.4037395 -0.10642478 16
4.410943 8.5204916 0.1674733 11
5.2500486 10.12404 0.59767663 8
5.1644945 9.9463129 0.98050213 1
5.0491252 9.7116871 1.3439753 16
5.0503154 9.6974411 1.7317297 6
3.7952847 7.2782617 1.5955449 10
3.6483448 6.9875474 1.8198541 25
4.932303 9.4306259 2.8516684 46
1.1364417 2.1591089 -0.65377688 31
1.2365584 2.3463326 -0.61231679 34
1.360152 2.5764883 -0.56632113 34
1.5102215 2.8571353 -0.51185364 18
1.7305098 3.2683663 -0.4540852 34
1.9980235 3.7688394 -0.37320086 18
2.3616624 4.4491348 -0.26398259 13
2.8239117 5.3110042 -0.10499368 21
4.4354525 8.4197092 0.16611201 13
5.0634179 9.5995693 0.56878728 17
5.2505498 9.9417286 0.98363966 15
3.5905557 6.7871041 0.94278133 11
5.079987 9.590374 1.7189021 1
3.7497277 7.0670886 1.5550934 28
3.6735644 6.9147973 1.8077067 27
5.0515485 9.4965916 2.8822091 14
1.149128 2.145812 -0.65222406 37
1.2468696 2.3254025 -0.60916752 41
1.3613906 2.5357943 -0.559452 29
1.5250146 2.8358169 -0.50997645 23
1.7485795 3.2474663 -0.45286649 19
2.0441415 3.7916276 -0.37686142 14
2.3972352 4.4391503 -0.26440126 9
2.8247759 5.224318 -0.10366729 20
4.4657946 8.335659 0.16506486 13
5.5475254 10.337428 0.61484283 5
5.7072597 10.621731 1.0549332 6
3.6792295 6.8387918 0.95350581 11
5.7341785 10.640618 1.9144453 3
3.7327862 6.9180632 1.5279986 22
5.4001536 9.9957085 2.6229296 6
5.1984458 9.6063156 2.9267259 4
1.1637075 2.1379404 -0.65222406 30
1.2608042 2.3134391 -0.60826772 31
1.3865861 2.540014 -0.56250495 29
1.5348079 2.808037 -0.50684774 28
1.7754087 3.2441957 -0.4540852 17
2.0258627 3.6972511 -0.36884311 16
2.4081769 4.3877125 -0.26230782 15
2.8679783 5.2189879 -0.10394654 20
4.0733094 7.4771876 0.1486247 6
5.4943895 10.073241 0.60134023 11
3.7644582 6.8930516 0.68713588 5
3.7164044 6.7937822 0.95082474 6
3.9029264 7.1258912 1.2868301 3
nan nan nan nan
3.6466255 6.6414256 1.7492195 51
4.9090137 8.9257774 2.7295058 9
1.1748631 2.1230028 -0.65015346 29
1.2778687 2.3062851 -0.60871756 34
1.3857477 2.4978986 -0.55525422 30
1.5394982 2.7716217 -0.50215465 25
1.7999445 3.2351916 -0.45457271 24
2.0487161 3.6777956 -0.36832017 24
2.4282584 4.353776 -0.26126111 10
2.919946 5.2267723 -0.10450501 20
3.8810027 7.0101676 0.13986358 3
5.577353 10.061811 0.60291028 8
5.4198856 9.7616549 0.97684151 15
5.2237983 9.3968897 1.3200889 18
4.4566665 8.0070515 1.4513992 7
3.6490414 6.5452785 1.456636 9
3.6663074 6.5681605 1.7366222 34
5.1864243 9.2800179 2.8485625 19
1.194968 2.1250601 -0.65325934 34
1.2782407 2.270364 -0.60151911 33
1.3944721 2.4727733 -0.55181968 27
1.563665 2.769408 -0.50371903 23
1.8170382 3.2142253 -0.453354 27
2.0753238 3.6651371 -0.36849448 18
2.4467745 4.3158679 -0.26000506 8
2.9455845 5.1893849 -0.10415597 20
4.0828447 7.2547598 0.14530873 11
5.5660834 9.8782053 0.59422249 8
5.4950166 9.7401543 0.97841036 15
3.7784712 6.6865916 0.94302505 21
5.2205987 9.2273779 1.6791677 9
3.6064212 6.3665485 1.4222903 5
3.7159224 6.5491829 1.7384218 25
5.2682652 9.2738171 2.8578801 34
1.2107332 2.1183429 -0.65377688 46
1.2882524 2.2512367 -0.59881973 30
1.4370859 2.5072629 -0.56174171 20
1.5918113 2.7738431 -0.50653487 26
1.8216339 3.1704788 -0.44896671 27
2.1048338 3.6574676 -0.36919171 16
2.4399498 4.2346516 -0.25613219 21
2.9607544 5.1323204 -0.10342296 22
4.0817595 7.1358209 0.14349368 17
5.6894984 9.934432 0.59997946 8
5.5410728 9.6635313 0.97457546 49
nan nan nan nan
nan nan nan nan
3.641964 6.3259025 1.4188558 1
3.753763 6.5095778 1.7348226 29
5.3164549 9.2083721 2.8490801 17
1.2284025 2.114851 -0.65532982 45
1.3186315 2.2674575 -0.60556829 28
1.4278747 2.451365 -0.55143803 33
1.6200938 2.7780199 -0.50935066 15
1.8447245 3.1593983 -0.44921044 34
2.1025338 3.5966139 -0.36448529 24
2.4644101 4.2088962 -0.25560883 14
2.9934814 5.1063485 -0.10331824 20
4.1184125 7.0846758 0.14303991 27
4.1874256 7.1947231 0.43627259 5
5.5141106 9.4627962 0.9581902 7
2.5576253 4.3821201 0.62299615 15
3.8888562 6.6549859 1.2208147 42
nan nan nan nan
3.8866277 6.6352134 1.7753139 23
5.4539309 9.2960014 2.8879032 6
1.2362635 2.0945778 -0.6517064 33
1.3473175 2.2800066 -0.611417 23
1.4575222 2.4635553 -0.55639905 18
1.6077557 2.7142417 -0.49965176 21
1.8697735 3.1515653 -0.44994166 33
2.1194499 3.5681446 -0.36309084 24
2.4848328 4.1782918 -0.25477144 2
3.0014277 5.0389395 -0.10237581 20
4.1258721 6.9876013 0.14164373 32
4.16922 7.0525784 0.42936423 17
2.5570543 4.3185782 0.43909061 9
2.5681627 4.3321638 0.61836511 13
5.471601 9.2188883 1.6979399 10
4.078043 6.8600292 1.5512772 10
3.845149 6.4605541 1.7357225 59
3.8567121 6.4722695 2.0187886 23
1.2445327 2.0761726 -0.64860052 48
1.3527778 2.2540736 -0.60691798 10
1.4797428 2.4617333 -0.55830717 39
1.6307397 2.7097213 -0.50090319 27
1.8727432 3.1081588 -0.44555435 19
2.1288671 3.5276737 -0.36047614 33
2.4943182 4.1283627 -0.2527827 8
3.0346198 5.0166831 -0.10234091 20
4.1426644 6.9054694 0.14056168 26
2.608963 4.3437624 0.26555267 1
2.4385362 4.0552011 0.41398975 11
2.5614717 4.252913 0.60959053 16
5.9326243 9.8385124 1.819646 51
3.864888 6.4018493 1.453583 31
3.9375532 6.5119271 1.7568679 27
5.5235562 9.1240683 2.8578801 2
1.2539728 2.0591836 -0.64601237 38
1.3644234 2.2379191 -0.60511833 28
1.4917769 2.442965 -0.55639905 23
1.6475567 2.6948998 -0.50027746 27
1.8871409 3.083158 -0.44384819 34
2.1513603 3.5093279 -0.36012751 29
2.4990497 4.0716977 -0.25037524 21
3.060149 4.9800401 -0.10202677 22
4.1907725 6.87638 0.14056168 26
2.6350636 4.3186231 0.26513401 14
2.3857732 3.9054592 0.40039349 25
2.5506954 4.1688886 0.60008472 13
4.4699183 7.2971063 1.3553483 21
4.0603647 6.620729 1.5096809 13
3.9472208 6.4261613 1.7411213 46
4.2351203 6.8867807 2.1663156 15
1.2673018 2.0487361 -0.64549476 30
1.3820659 2.2316527 -0.60601819 38
1.4912034 2.4041286 -0.54991156 27
1.6621619 2.6766193 -0.499026 27
1.9159563 3.0817089 -0.44555435 27
2.1747563 3.4925308 -0.35995319 22
2.4946613 4.0016088 -0.24713041 18
3.083195 4.9398947 -0.10164282 20
4.2260427 6.8265538 0.14014283 16
2.461026 3.9707806 0.24482764 16
2.342597 3.77528 0.38871458 20
2.5242031 4.0616207 0.58716655 11
4.2682085 6.8598351 1.2796341 40
4.1687698 6.692204 1.532578 66
3.9847636 6.3868766 1.7379719 38
5.4559536 8.7347479 2.7595289 9
1.2846558 2.0447464 -0.64704764 31
1.3893105 2.2087538 -0.60241896 14
1.489115 2.3637595 -0.54304242 16
1.6818615 2.666621 -0.49933887 28
1.9289451 3.0548301 -0.44360444 20
2.199084 3.4772644 -0.35995319 29
2.5257404 3.9891591 -0.24744442 14
3.1026161 4.8946056 -0.10115415 24
2.7025335 4.298202 0.088623315 10
2.4301691 3.8605375 0.23907068 15
2.3880179 3.7891743 0.39185223 26
2.6001754 4.1194406 0.59813482 26
4.3202128 6.8365517 1.2808856 29
3.9015467 6.1668649 1.4184742 30
4.0814075 6.4412069 1.7604671 34
5.7465382 9.0585947 2.8744445 14
1.2905867 2.0226996 -0.64290655 33
1.4025995 2.1957154 -0.60151911 34
1.5182759 2.3731515 -0.54762185 19
1.7057631 2.6631322 -0.50090319 21
1.9427226 3.029593 -0.44189829 16
2.195313 3.4182398 -0.3554211 17
2.5448871 3.9579895 -0.24660707 8
3.1334641 4.8677816 -0.10104944 15
2.5064726 3.9252961 0.081293307 13
2.3688481 3.7054892 0.23048759 13
2.3413789 3.6582983 0.37999901 13
2.5860224 4.034337 0.58838522 13
5.9457669 9.2650414 1.7436188 4
4.0315204 6.2749205 1.4497669 18
4.1526389 6.453526 1.7717147 17
5.9990044 9.3122044 2.9681368 22
1.3067783 2.0168822 -0.64394182 33
1.4221363 2.1924098 -0.60331875 34
1.5444328 2.3773115 -0.55105644 28
1.7092355 2.6279759 -0.49652308 25
1.9443297 2.986012 -0.43751097 16
2.2071517 3.3844726 -0.3535037 15
2.5364254 3.884938 -0.24315289 16
2.6542459 4.0607529 -0.084679075 7
2.5479565 3.9295154 0.08174707 11
2.4022703 3.7005889 0.23122028 18
2.3332031 3.5900767 0.37459537 22
2.5209951 3.8731062 0.5674237 20
6.5419888 10.039221 1.8978633 24
4.2672443 6.5409484 1.5180764 5
4.0281105 6.164988 1.7001802 23
5.7645884 8.8125734 2.8216453 38
1.3240113 2.0125525 -0.64549476 35
1.4245439 2.162899 -0.59791994 30
1.5404536 2.3353326 -0.54380566 23
1.7427816 2.6390555 -0.50090319 15
1.9716972 2.9823008 -0.43897343 16
2.2329242 3.3723049 -0.35385233 19
2.5314815 3.8188601 -0.2401174 14
2.5996001 3.917161 -0.082061216 26
2.5445385 3.864866 0.08076974 15
2.4588232 3.7304204 0.23415108 13
2.3691831 3.5903299 0.37633851 35
2.5578237 3.870317 0.56961739 16
6.3306971 9.5682669 1.817143 9
4.1404228 6.2507548 1.4573992 11
4.1949396 6.3234653 1.751919 29
6.8135328 10.259076 3.299943 16
1.3337373 1.9968342 -0.64342415 36
1.4179443 2.1205022 -0.5889219 24
1.5687364 2.3424652 -0.54800349 31
1.7545629 2.6169796 -0.499026 16
2.0101705 2.9948347 -0.44287321 13
2.2441878 3.3384442 -0.35193488 17
2.5302041 3.7596681 -0.23750059 14
2.5397303 3.7695613 -0.07933864 14
2.3769877 3.5560713 0.074661396 26
2.3748398 3.5488348 0.22378856 22
2.3697956 3.5372853 0.37250364 21
2.501827 3.728735 0.55133694 23
6.3037124 9.3844595 1.790549 4
4.1916265 6.2331028 1.4600705 21
4.2879701 6.3667598 1.7721645 48
6.2359095 9.2485981 2.9888425 8
1.3422244 1.9794796 -0.64083594 40
1.4513205 2.1379611 -0.59657025 27
1.5784279 2.3217156 -0.54571378 28
1.7616742 2.5883374 -0.49589729 21
2.0321457 2.9823694 -0.44311696 12
2.2775471 3.337507 -0.3535037 14
2.5676565 3.758404 -0.23854731 14
2.5750165 3.7649434 -0.07961788 9
2.4264598 3.5757923 0.075429298 12
2.3961918 3.5272114 0.22347455 22
2.375385 3.4926481 0.36954033 25
2.4819801 3.6439109 0.54134369 18
6.5760727 9.6437836 1.8487427 3
4.3258095 6.3366451 1.4913632 16
4.2124271 6.1613231 1.7231252 42
6.3526959 9.2813616 3.0136893 28
1.3472475 1.9573308 -0.63669485 47
1.457366 2.114939 -0.59297103 36
1.5801016 2.2896333 -0.54075271 37
1.7763326 2.5710998 -0.4949587 31
2.0404959 2.9501507 -0.44043583 15
2.2837727 3.2969589 -0.350889 8
2.5642388 3.6977155 -0.23582584 20
2.6479921 3.8142242 -0.081048973 1
2.4944685 3.621345 0.076755688 13
2.3754029 3.4446297 0.21928766 27
2.3657508 3.4267924 0.36431101 18
2.5559049 3.6967049 0.55182445 17
3.1985152 4.6209636 0.89011216 1
4.2525306 6.1368537 1.4512933 15
4.4708834 6.4423552 1.8104062 14
6.2134199 8.9432764 2.9179258 42
1.3553482 1.9399587 -0.6341067 28
1.4743283 2.1079075 -0.59387082 36
1.5982994 2.2817633 -0.54151595 37
1.7817634 2.5408454 -0.49151716 32
2.048497 2.9179611 -0.43775472 17
2.2809589 3.2454746 -0.34705415 9
2.5796454 3.6650248 -0.2348838 20
3.2642944 4.6325831 -0.098920241 8
2.5116687 3.5923705 0.076511353 7
2.3776329 3.3968737 0.21729892 28
2.3724661 3.3857174 0.3616963 17
2.5314751 3.6072764 0.54109991 15
2.9717858 4.2299943 0.8187781 9
4.2399249 6.0283318 1.4325941 24
4.5415578 6.4500151 1.8212039 51
7.5493312 10.705822 3.5101039 9
1.3722111 1.9351771 -0.63565958 38
1.4822401 2.0880289 -0.59117138 29
1.6228932 2.2836328 -0.5445689 31
1.8024526 2.5334871 -0.49245578 22
2.05269 2.8809557 -0.43434238 17
2.3035595 3.2294724 -0.34705415 8
2.5813196 3.6148729 -0.23279037 22
2.5742004 3.5995836 -0.077244349 8
2.4712732 3.4838538 0.074556686 26
2.3868227 3.3610699 0.21604285 22
2.3868072 3.3560832 0.36030185 23
2.5456085 3.5754085 0.53890634 16
3.0280266 4.2482738 0.82628691 15
4.4986258 6.3021889 1.5051014 13
4.5015001 6.2992382 1.7874613 19
6.3136563 8.8253336 2.9075732 32
1.3842226 1.9242244 -0.63514197 36
1.4975564 2.0794735 -0.59162134 30
1.6422416 2.2770243 -0.54571378 28
1.8166267 2.5160375 -0.49151716 26
2.07109 2.8653083 -0.43409866 19
2.3073568 3.1874895 -0.34426519 16
2.6088367 3.5999978 -0.2329997 22
2.86285 3.9461668 -0.085097939 13
2.4733369 3.4356809 0.073893487 27
2.399719 3.3297417 0.2151008 15
2.3746238 3.291286 0.3550725 20
2.6030602 3.6026018 0.54573095 16
3.013617 4.1662102 0.81439793 12
4.5598431 6.2968631 1.5112073 21
7.6572223 10.55863 3.0111949 24
nan nan nan nan
1.3976234 1.914513 -0.63514197 41
1.5154879 2.0736873 -0.59297103 31
1.6546186 2.2607517 -0.5445689 30
1.8353139 2.5048878 -0.49182999 32
2.0804749 2.8363743 -0.431905 12
2.3271945 3.1680915 -0.34391654 17
2.6634874 3.621923 -0.23561651 18
2.8417222 3.8600583 -0.083666839 12
2.509058 3.4344769 0.07424254 8
2.4075792 3.2919497 0.21374007 30
2.4175522 3.3019567 0.3580358 28
2.5753264 3.5123019 0.53476268 23
2.8754773 3.9173536 0.76965761 16
4.6664701 6.350307 1.5318148 39
4.5532064 6.1871171 1.7735143 19
3.5498567 4.8184299 1.6036428 1
1.3868067 1.8721102 -0.62427157 26
1.5229633 2.0536649 -0.59027159 29
1.6656804 2.2428401 -0.54304242 27
1.8504006 2.4888425 -0.49120426 23
2.0788929 2.7931161 -0.42751768 15
2.3349655 3.1325994 -0.34182483 17
2.6552618 3.5584207 -0.23268569 41
2.9284368 3.9202294 -0.085412078 18
2.5317819 3.4152718 0.074207634 13
2.3793201 3.2060969 0.20923917 15
2.4048982 3.2370203 0.35280645 22
2.6199286 3.5213125 0.53890634 18
2.8649962 3.8464887 0.75964588 18
4.799881 6.4371891 1.5608176 11
4.9705687 6.6563997 1.9179327 2
3.5625885 4.7656784 1.5943254 14
1.3673414 1.819144 -0.60977769 54
1.5478077 2.0569978 -0.59432071 30
1.6812978 2.2311568 -0.54304242 46
1.8463174 2.4474781 -0.48557264 32
2.10552 2.7880394 -0.42898014 17
2.3375504 3.0907953 -0.33903584 16
2.6547236 3.5063562 -0.23048759 16
2.5897417 3.4168093 -0.074835919 9
2.390882 3.1785767 0.069425672 14
2.4124579 3.203768 0.21018122 16
2.401053 3.1851501 0.34897158 26
2.6169376 3.4664979 0.53330034 11
2.9132166 3.8547621 0.7652775 13
nan nan nan nan
4.6873999 6.1866245 1.7919602 6
nan nan nan nan
1.3882085 1.8203069 -0.61340117 37
1.5503052 2.0306525 -0.5898217 24
1.6968321 2.2193654 -0.54304242 41
1.8369443 2.4000194 -0.47868952 26
2.1140652 2.7590916 -0.42678648 22
2.3336008 3.0412068 -0.33537531 14
2.6657548 3.4703147 -0.2293362 22
2.5598967 3.328898 -0.073300108 16
2.420295 3.1713443 0.069635101 24
2.3923283 3.1312985 0.2065177 15
2.436547 3.1857173 0.350889 16
2.545716 3.3236451 0.51404494 25
2.9400568 3.8343298 0.7652775 21
4.7685494 6.212254 1.5222743 18
4.7506638 6.1800165 1.7996085 2
7.264627 9.4401331 3.1917567 1
1.4138868 1.8273779 -0.61909521 25
1.5560908 2.0089951 -0.58667237 29
1.6918287 2.1810935 -0.53655493 21
1.8815203 2.4230218 -0.4858855 25
2.1223109 2.7301602 -0.42459282 19
2.354774 3.024842 -0.33537531 14
2.6960537 3.4594977 -0.22985955 7
2.5670819 3.2904501 -0.072846346 4
2.4913445 3.2176168 0.071031295 27
2.4863207 3.2076578 0.21269335 13
2.4147553 3.1119635 0.34461379 21
2.5237911 3.2477939 0.50502658 27
2.9703941 3.818387 0.7662161 30
4.8262815 6.1973977 1.5268538 7
7.3750963 9.4566984 2.7686977 2
7.2530799 9.2902088 3.1581101 1
1.4322553 1.8253106 -0.62168342 43
1.5769522 2.0075517 -0.5893718 27
1.7187741 2.1849575 -0.54037106 28
1.8943033 2.4055026 -0.48494691 22
2.127327 2.6985025 -0.42191169 24
2.3703704 3.0024884 -0.33467805 30
2.7108724 3.4300959 -0.22912684 20
2.5286252 3.1960557 -0.071136013 15
2.4810791 3.1596923 0.070123769 20
2.4142902 3.0713239 0.20473827 13
2.4013827 3.051614 0.33973309 19
2.5925281 3.289788 0.51428866 16
2.986527 3.7856743 0.76371318 18
5.0240989 6.3616161 1.5757008 25
7.3679724 9.3160973 2.7421534 2
7.2382021 9.1421738 3.1244636 1
1.4413542 1.8107328 -0.62013048 47
1.5885003 1.9934454 -0.58847201 39
1.7364352 2.1759739 -0.54113436 39
1.8925568 2.3690686 -0.48025388 21
2.1361957 2.6711826 -0.41996178 24
2.391274 2.985867 -0.33467805 17
2.7072663 3.3768058 -0.22682405 20
2.8475189 3.5479336 -0.079408452 13
2.5155349 3.1579363 0.070472814 11
2.4493706 3.0715711 0.20588967 15
2.3915534 2.9958477 0.33537531 12
2.5757666 3.221992 0.50648904 21
2.9968374 3.7446823 0.75964588 13
nan nan nan nan
7.3450274 9.1549921 2.7097607 2
7.2958021 9.0838881 3.1218753 5
1.4527456 1.7991235 -0.61961281 37
1.6072776 1.9883698 -0.59027159 27
1.7491136 2.1607463 -0.54037106 45
1.9165119 2.3650069 -0.48213109 26
2.1635463 2.6669955 -0.42166796 17
2.3806541 2.9304397 -0.33032027 22
2.7232137 3.348526 -0.22619602 28
2.6992528 3.3155153 -0.07462649 6
2.5010741 3.095191 0.069460578 20
2.6692188 3.2997417 0.22242783 9
2.4826257 3.0657876 0.34513673 9
2.598196 3.2039323 0.50648904 23
2.9706163 3.6592565 0.74650538 15
5.1161494 6.2954159 1.5768455 16
3.5918293 4.4134479 1.3137143 8
3.6276619 4.452713 1.538938 6
1.4713919 1.7964095 -0.62220097 40
1.6062936 1.9590164 -0.58487278 39
1.7728759 2.1591046 -0.54304242 45
1.9216857 2.3378363 -0.47931525 28
2.1581459 2.6227028 -0.41703692 16
2.4023213 2.9152858 -0.33049458 13
2.7300022 3.3094037 -0.22483528 16
2.8140118 3.4076071 -0.077139638 21
2.4389567 2.9755816 0.067156859 20
2.4388077 2.9722242 0.20149344 27
2.4951158 3.0376036 0.34391654 18
2.5990636 3.1596522 0.5023455 23
2.8793106 3.4966121 0.7174086 12
5.2711143 6.3943734 1.6108096 10
7.4696512 9.0485449 2.7088609 24
7.4145427 8.9721975 3.1187694 35
1.482663 1.7846078 -0.62168342 43
1.6149465 1.9417616 -0.58307314 41
1.7803674 2.1376235 -0.54075271 42
1.9291062 2.3137422 -0.4771252 20
2.1687725 2.5984273 -0.41557449 11
2.40167 2.8744032 -0.32770559 19
2.7363758 3.2703521 -0.22347455 15
2.7850859 3.3250284 -0.075708538 13
2.6782784 3.2214251 0.073125578 15
2.4518311 2.9459164 0.20086543 15
2.5787523 3.0951171 0.35245782 12
2.6414068 3.165818 0.50624532 26
3.1024623 3.7144532 0.76652896 19
7.5710845 9.0549164 2.2942874 27
7.5460839 9.015419 2.7142596 14
7.4062595 8.8358297 3.0892644 24
1.4963297 1.7756912 -0.62220097 25
1.6196667 1.9200138 -0.57992387 30
1.7784097 2.1059558 -0.5357917 31
1.9601129 2.318661 -0.4808796 22
2.1894255 2.5862534 -0.416062 13
2.4242547 2.8606064 -0.32805422 14
2.7508228 3.2425113 -0.22284654 22
2.6502776 3.1195772 -0.071450152 28
2.486196 2.9493158 0.067331389 18
2.4512186 2.9047353 0.19919068 11
2.5051332 2.9644268 0.33955875 10
2.6590469 3.1432197 0.50551409 20
3.0332036 3.5816998 0.74337667 13
7.6493487 9.0198107 2.2988667 23
7.6857729 9.0531387 2.7417037 22
7.4036789 8.7116089 3.0633824 13
1.5096366 1.7669336 -0.62271863 15
1.6390314 1.9163494 -0.58217335 39
1.7905146 2.0905068 -0.53502846 27
1.9595373 2.2854252 -0.4768123 48
2.2056847 2.5697851 -0.41581824 8
2.4181924 2.8133929 -0.32456797 16
2.7499444 3.1959763 -0.22096242 19
2.5396399 2.9484372 -0.067924768 16
2.4651403 2.8832514 0.066214427 23
2.4610467 2.8754141 0.19835329 13
2.5382168 2.962436 0.34130189 7
2.7184138 3.168268 0.51258254 13
3.1688263 3.6893063 0.7702834 10
7.7156916 8.973485 2.3003933 21
3.6353419 4.2220049 1.2862703 14
7.3898969 8.5733786 3.0328417 33
1.5105494 1.7432115 -0.61805987 11
1.6562009 1.9092764 -0.58352309 30
1.8037779 2.0764732 -0.53464681 25
1.9689636 2.2642365 -0.47524795 47
2.2170546 2.5468376 -0.41459954 11
2.4246809 2.7814248 -0.32282487 16
2.7879467 3.1947594 -0.2222185 15
2.6338339 3.0149713 -0.069879435 13
2.5009296 2.8841002 0.066633284 25
2.4679682 2.84308 0.19730657 23
2.4595149 2.8303471 0.32805422 11
2.7157054 3.1207619 0.5079515 12
3.2022908 3.6760309 0.77216065 15
nan nan nan nan
3.7070308 4.2449594 1.3011171 1
nan nan nan nan
1.5175813 1.726819 -0.61598933 12
1.6553308 1.8815728 -0.57857412 27
1.8091459 2.0535183 -0.53197551 32
1.9925637 2.2593236 -0.4771252 20
2.2216437 2.5164154 -0.41216215 11
2.4422393 2.7633619 -0.32265055 15
2.8128295 3.1782095 -0.22242783 19
2.5858619 2.9186788 -0.068064384 28
2.4866683 2.8275285 0.065725766 28
2.4402449 2.7718139 0.19353838 10
2.525321 2.8654232 0.33415511 29
2.6699076 3.0262866 0.49552077 27
3.1650956 3.5825281 0.7571429 15
3.1072164 3.5133066 0.91168547 1
nan nan nan nan
2.8779016 3.2471635 1.1626152 9
1.5267293 1.7135651 -0.61495411 21
1.6758817 1.8789886 -0.58127356 23
1.8400834 2.0601914 -0.53693652 36
1.9960454 2.2324557 -0.47430936 22
2.2215092 2.482007 -0.40899354 15
2.4689684 2.755579 -0.32369643 9
2.8197255 3.142637 -0.22127645 17
2.5522194 2.841502 -0.06666819 34
2.5071881 2.8120294 0.065760665 24
2.4976239 2.7983515 0.19657388 5
2.5261824 2.8273673 0.33171475 16
2.6626537 2.9769711 0.49040228 28
3.1301022 3.4946842 0.74306375 15
9.0747013 10.121019 2.642323 2
8.6822433 9.6731167 3.0008473 2
nan nan nan nan
1.5526026 1.7189022 -0.62064809 15
1.6834058 1.8617553 -0.57947397 32
1.8356155 2.0272443 -0.53159386 36
1.9926219 2.1983271 -0.46992919 28
2.2307763 2.4576192 -0.40753111 13
2.4961834 2.7471235 -0.32474229 19
2.851006 3.1332157 -0.22200914 15
2.5773811 2.8295281 -0.066807814 24
2.5571103 2.82902 0.06656348 9
2.5487735 2.8168306 0.199086 7
2.4856579 2.7432225 0.32387072 31
2.7727289 3.0568221 0.50673276 8
5.016891 5.5251045 1.182019 5
8.762105 9.6361856 2.5316539 2
2.9436297 3.2338741 1.0095805 28
7.440145 8.1622868 2.9593372 20
1.5596426 1.7020508 -0.61857754 26
1.6966852 1.8496614 -0.57947397 27
1.8434346 2.0068278 -0.5296858 34
2.0123131 2.188374 -0.47086781 15
2.2496514 2.4430523 -0.40777487 11
2.5009246 2.7130754 -0.32282487 13
2.8408408 3.0775123 -0.21949703 15
2.578563 2.7904513 -0.066319145 38
2.5935068 2.8283355 0.066982336 7
2.6107342 2.8441319 0.20233083 13
2.4917409 2.7106972 0.32212761 18
2.6977518 2.9317286 0.4891836 27
3.0701828 3.332957 0.7177214 3
3.1281979 3.3911836 0.89680237 11
3.2125978 3.4790223 1.0932622 4
3.2383151 3.5019641 1.2780485 27
1.5625752 1.6809422 -0.61495411 33
1.7151877 1.8431791 -0.58127356 22
1.8510548 1.9864047 -0.52777767 41
1.9955813 2.1392522 -0.46335894 19
2.259877 2.4200342 -0.40655616 17
2.50892 2.6839058 -0.32143039 21
2.8431475 3.0371914 -0.21803163 21
2.7825742 2.9693663 -0.071031295 12
2.6041453 2.7994552 0.066738002 12
2.650075 2.8458402 0.20379624 13
2.5527194 2.738414 0.32753128 16
2.6726055 2.8630114 0.48089647 21
4.9255104 5.2708859 1.1425974 12
3.3060334 3.5341406 0.94068843 13
7.4393291 7.9442816 2.5127034 18
3.1556458 3.3651271 1.2361197 3
1.5663205 1.6615589 -0.61184824 25
1.706614 1.808483 -0.5740751 29
1.8712747 1.9808937 -0.5296858 39
2.0087402 2.1241827 -0.46304604 10
2.2835426 2.4114039 -0.40777487 13
2.5207422 2.6590948 -0.32055882 21
2.8293846 2.981549 -0.21541482 24
2.8514481 3.0006044 -0.072252966 16
2.5559168 2.7103758 0.065027662 14
2.5172019 2.666523 0.19217765 18
2.5279758 2.674196 0.32195333 22
2.6279018 2.776988 0.46944076 15
4.9680643 5.24441 1.1441618 3
nan nan nan nan
3.3668711 3.5454626 1.1288044 29
3.8652859 4.0660496 1.503221 24
1.5842676 1.657842 -0.61443645 24
1.7027187 1.7799274 -0.56867629 28
1.8755507 1.9578584 -0.52701449 23
2.0207853 2.1072569 -0.46242031 11
2.283406 2.3786211 -0.40485001 24
2.5374019 2.6404397 -0.3203845 30
2.9207611 3.0351195 -0.2207531 33
2.9245272 3.03585 -0.073579341 13
2.5554278 2.6722329 0.064539 29
2.5191832 2.6315718 0.19092159 27
2.5419855 2.6526098 0.32143039 10
2.5936217 2.702714 0.45993495 13
4.9676094 5.171133 1.1357143 3
nan nan nan nan
3.8801713 4.0306854 1.291669 14
3.1320229 3.2489767 1.2092026 13
1.5917704 1.6425786 -0.61288351 40
1.7273161 1.7805845 -0.57272542 34
1.8902029 1.9464542 -0.52739608 12
2.022691 2.0807042 -0.45960453 9
2.2874942 2.3498204 -0.40265635 12
2.5529931 2.6198072 -0.32003587 12
2.8785913 2.9508345 -0.21604285 29
2.805912 2.8723166 -0.070088863 31
2.6083534 2.6906729 0.06541162 13
2.550945 2.6286976 0.19196831 41
2.7951016 2.8762758 0.350889 11
2.7019293 2.7774863 0.47577798 21
3.1642361 3.2493155 0.71834713 16
3.2402794 3.3227561 0.90214497 26
nan nan nan nan
3.1135604 3.1861303 1.1936734 19
1.5934368 1.6220596 -0.60926002 24
1.7325635 1.7618393 -0.57047588 39
1.8803265 1.909431 -0.52090853 25
2.028846 2.0580928 -0.45772728 10
2.2964642 2.3271306 -0.40143764 9
2.5362105 2.5664899 -0.31567809 25
2.9117649 2.943444 -0.21698491 22
2.7986653 2.8261526 -0.069425672 27
2.6172597 2.6624165 0.065167286 29
2.5342114 2.5752368 0.18935151 23
2.6342463 2.6740839 0.32840282 10
2.7240422 2.7613821 0.47626543 28
3.1354876 3.1751406 0.70677096 33
nan nan nan nan
3.2286456 3.2614975 1.0595195 13
3.1846797 3.2137172 1.2123084 34
1.6060847 1.6122652 -0.60977769 26
1.764086 1.7690194 -0.57677454 31
1.9060965 1.9087602 -0.52434313 36
2.0375786 2.0382905 -0.45647582 9
2.3084424 2.3068318 -0.40070644 5
2.5568855 2.551537 -0.31602672 18
2.8459578 2.8370323 -0.21059991 50
2.7744002 2.7628047 -0.068343624 17
2.6061373 2.6143379 0.064434282 13
2.5761127 2.5815144 0.19113094 45
2.7133973 2.7162409 0.33589822 24
2.7418501 2.7408938 0.47602168 15
3.4497135 3.4449015 0.77216065 27
3.4094882 3.4011657 0.93610895 24
3.0787604 3.0669632 1.0032817 22
3.049562 3.0346971 1.1527801 31
1.6200473 1.6037315 -0.61081296 12
1.761151 1.7415876 -0.57182562 25
1.913788 1.8898886 -0.52281672 34
2.0461338 2.0184667 -0.45522434 9
2.3216629 2.287873 -0.40021896 5
2.5675359 2.5266371 -0.31515515 10
2.9198179 2.8703001 -0.21457745 17
2.7051609 2.6564999 -0.066179529 33
2.6229036 2.5946734 0.064399377 18
2.6182232 2.5873325 0.19291034 33
2.6954288 2.6608393 0.33136615 15
2.7284033 2.6896327 0.47041571 28
3.1781068 3.1296666 0.70645815 12
3.2050183 3.152864 0.8739053 27
3.2599671 3.2024438 1.0550205 76
nan nan nan nan
1.6312047 1.5923817 -0.61081296 38
1.767686 1.7238079 -0.57002604 16
1.9339671 1.8833313 -0.52472478 31
2.0601745 2.0041339 -0.45522434 9
2.3119535 2.246707 -0.39583167 4
1.988878 1.9300516 -0.24246727 6
2.8895936 2.8011897 -0.21091393 47
2.779665 2.6918027 -0.06754081 13
2.6524053 2.5874701 0.064678617 24
2.7263374 2.6568077 0.19950469 22
2.6339915 2.5641296 0.32160467 16
2.7528079 2.6760542 0.47139066 25
3.1488621 3.0578609 0.69519484 57
3.2607706 3.1632195 0.88306409 15
3.7805307 3.6623108 1.2151858 10
nan nan nan nan
1.6367147 1.5755956 -0.60874242 27
1.7782726 1.7100743 -0.56957608 32
1.9357405 1.8589041 -0.52167183 25
2.0726914 1.9883339 -0.4549115 9
2.3218491 2.225018 -0.39485672 13
2.017801 1.9316243 -0.24438471 2
3.0144687 2.8816988 -0.21855497 14
2.7246335 2.601898 -0.065760665 12
2.6588743 2.5578001 0.064399377 29
2.6166494 2.5145438 0.19018888 20
2.6762614 2.5691357 0.32456797 9
2.8230112 2.7062247 0.48016527 12
3.5524895 3.4019573 0.77904367 46
3.8105152 3.6452267 1.025026 13
3.6039023 3.4439645 1.1508497 14
3.600209 3.4356296 1.3334358 28
1.6322619 1.5495012 -0.60304838 36
1.790167 1.6976188 -0.56957608 31
1.9397962 1.8375846 -0.51938212 21
2.0919156 1.9796115 -0.45616296 13
2.3488684 2.2196615 -0.3968066 12
2.5875816 2.4426804 -0.3113203 24
3.0049543 2.8337066 -0.21646154 24
2.9756603 2.80216 -0.071345441 19
2.7153888 2.5768068 0.065341808 10
2.6945841 2.554384 0.1945851 3
2.6637483 2.5216241 0.32090744 33
2.7865582 2.6351168 0.47090316 22
3.3730922 3.1864305 0.73492926 31
3.3103294 3.1227736 0.88459057 11
3.1357274 2.954963 0.99473369 4
3.1030521 2.9211051 1.1419097 28
1.6427721 1.538354 -0.60304838 28
1.8073742 1.6907187 -0.57137573 41
1.9367964 1.8092555 -0.51518428 21
1.9887025 1.8557945 -0.43082058 18
2.3740864 2.2130983 -0.39851278 13
2.5924826 2.4141495 -0.30992582 28
2.9442191 2.7378557 -0.21070457 28
3.0371518 2.8213108 -0.072357684 28
2.9231241 2.7354124 0.069879435 10
2.6773334 2.5027773 0.19207297 22
2.7128859 2.5333517 0.32474229 22
2.8324714 2.6413214 0.47553423 21
3.1668813 2.9500651 0.68549597 13
3.7008793 3.4438868 0.98266637 19
3.5796793 3.3276074 1.1283545 30
3.0794795 2.8586257 1.125863 12
1.6548902 1.5281591 -0.60356599 25
1.8005118 1.6608834 -0.56552702 34
1.9519542 1.7986909 -0.51594758 41
2.0957572 1.9291748 -0.45115703 7
2.3880181 2.1951256 -0.39826906 15
2.6298201 2.4148564 -0.31236616 21
2.940711 2.6974988 -0.2091345 47
2.9093175 2.6649663 -0.068867192 12
2.7124543 2.5038583 0.064434282 10
2.7222059 2.5102189 0.19406174 26
2.9225061 2.6911511 0.3475771 10
2.7904828 2.5668809 0.46554092 10
3.1927054 2.9337888 0.68674743 7
3.4138253 3.1325841 0.90061849 11
nan nan nan nan
7.1523228 6.5493107 2.5985434 14
1.6572113 1.5084754 -0.60046023 27
1.8065835 1.6427126 -0.56372738 24
1.9563661 1.7764155 -0.51365787 27
2.1156952 1.9190691 -0.45240852 10
2.3992519 2.1739824 -0.39753783 13
2.6810071 2.426728 -0.31637534 9
2.9500325 2.666496 -0.2084018 34
3.0233016 2.7298484 -0.071101107 19
2.8091369 2.5552225 0.066284239 4
2.6873181 2.4418449 0.19029355 22
2.7440026 2.4907298 0.32421938 18
2.7415674 2.4850309 0.45432895 18
3.0735528 2.7830217 0.656712 15
3.6239779 3.2779658 0.94984722 16
3.834574 3.4648058 1.1931405 8
3.1554406 2.8471599 1.1388038 30
1.6633891 1.492998 -0.59890729 36
1.8209097 1.6326622 -0.56462723 38
1.9537883 1.7499592 -0.50984168 27
2.1272366 1.9033062 -0.45209566 9
2.4069681 2.1505673 -0.39631912 12
2.7157197 2.4238734 -0.31846708 3
3.0068748 2.6809125 -0.21112327 15
2.9944944 2.666122 -0.069984153 25
2.9351177 2.6335309 0.068832293 6
2.6904914 2.4114988 0.18935151 30
2.6752181 2.3944435 0.3141093 10
2.7806165 2.4861588 0.45798501 14
3.1204174 2.7870378 0.66265643 22
3.3244398 2.9650931 0.86589122 11
3.2417481 2.8882937 1.002382 31
3.2728751 2.9129546 1.1740032 4
1.6706196 1.4790808 -0.59787202 36
1.8276006 1.6163576 -0.56327748 41
1.9571285 1.7284789 -0.50755197 34
2.1330659 1.8818747 -0.4505313 10
2.4230402 2.1354463 -0.39656287 13
2.7221057 2.3956413 -0.31724688 3
3.0645173 2.6941414 -0.21384473 21
3.0005515 2.6351225 -0.069704913 19
2.791682 2.4698715 0.065062575 12
2.7731094 2.4508531 0.19395708 13
2.7885385 2.4618895 0.32543954 15
2.9616997 2.6110904 0.48479629 20
3.3903303 2.9858255 0.71553135 18
3.3607612 2.9566588 0.87008911 23
3.8708644 3.4006391 1.1895412 4
nan nan nan nan
1.6750841 1.4622989 -0.59580147 41
1.8329662 1.5984349 -0.56147784 37
1.9647052 1.7109064 -0.50640708 11
2.119324 1.8436015 -0.44489968 12
2.4363897 2.1171772 -0.39631912 12
2.7222111 2.3622153 -0.31532949 4
3.0907977 2.6792228 -0.2143681 29
3.1413231 2.7201409 -0.072532199 13
3.0168085 2.6317296 0.069879435 5
2.8082213 2.4471793 0.19521314 6
2.7440443 2.3887267 0.31829277 29
2.8075671 2.4405811 0.45676634 15
3.3633642 2.9206381 0.7055195 18
3.2864048 2.8507922 0.84566551 37
2.0326884 1.7607688 0.62086499 1
1.9341776 1.6736645 0.68535286 9
1.6896445 1.4543498 -0.59735435 24
1.8411255 1.5830586 -0.56057805 37
1.9721342 1.6933109 -0.50526226 14
2.1171501 1.8158994 -0.44177097 12
2.4556346 2.1039901 -0.39705035 12
2.7155221 2.3241978 -0.31271479 13
3.0745053 2.6277351 -0.21196064 28
3.2727749 2.7942295 -0.075115159 14
2.9835613 2.5662699 0.068692669 9
2.8646228 2.4613578 0.1979346 3
2.778795 2.3850846 0.3203845 13
3.1124167 2.6676638 0.5033204 12
3.1720989 2.7159381 0.66140497 15
nan nan nan nan
1.9720265 1.6848655 0.59881973 10
1.9619801 1.6739141 0.69104689 7
1.6791351 1.425019 -0.5901075 33
1.8387536 1.558826 -0.55652899 39
1.9866102 1.6823863 -0.50602549 10
2.1475582 1.8167571 -0.44552541 11
2.4399347 2.0611746 -0.39217559 11
2.7438631 2.3154626 -0.3141093 13
3.1167548 2.627342 -0.2136354 22
3.2187719 2.7094979 -0.073439725 18
3.075681 2.6092894 0.07040301 5
2.8538852 2.4185576 0.19605052 5
2.7801697 2.3527563 0.31864139 40
2.9061365 2.4567475 0.4672471 10
2.0118034 1.6989024 0.41705433 3
1.9886283 1.6769563 0.50564384 7
1.9882123 1.6748236 0.60016948 5
1.9925445 1.6766902 0.69777614 9
1.7169431 1.4371148 -0.59994256 30
1.8508173 1.5475228 -0.55697882 34
1.9757017 1.6496018 -0.50030124 11
2.1526041 1.7953938 -0.44396105 21
2.244967 1.8704374 -0.35878339 21
2.7645564 2.3000734 -0.31463224 19
3.1811018 2.6438162 -0.21677555 17
2.9340432 2.4358897 -0.06656348 19
3.0631433 2.5620954 0.069704913 19
2.8231862 2.3588774 0.19280569 20
nan nan nan nan
2.0311561 1.6928959 0.32465994 8
2.0175428 1.6797602 0.41580287 6
2.0196202 1.6797004 0.51060492 7
2.0013547 1.6621482 0.60061932 9
1.9848732 1.6467035 0.69104689 5
1.7194835 1.4189461 -0.59735435 25
1.8721009 1.5432416 -0.56012815 27
1.9704965 1.6220437 -0.49610341 10
2.1437259 1.7627561 -0.43958092 23
2.4389768 2.0033975 -0.38754454 8
2.7666814 2.2693462 -0.31306344 22
3.1778519 2.6038234 -0.21531016 15
2.954071 2.417881 -0.066633284 16
2.9791312 2.4566808 0.067401193 9
2.811837 2.3162525 0.19092159 8
2.0646424 1.6989369 0.233926 10
2.0444591 1.6799347 0.3249037 6
2.036855 1.6719007 0.41736722 7
2.0464792 1.6780078 0.51442105 9
2.0204496 1.6543076 0.60286885 5
1.9753859 1.6156834 0.68379998 4
1.711365 1.3922775 -0.59114271 40
1.8798047 1.5276762 -0.55922836 22
1.9954932 1.6193805 -0.49953794 10
2.1559799 1.7477472 -0.43958092 23
2.2508092 1.8226686 -0.35561478 10
2.7139075 2.1953263 -0.30539373 16
3.2145979 2.596633 -0.21656621 22
2.9413116 2.3733387 -0.0659701 8
2.9325926 2.384104 0.0659701 5
2.0713413 1.6821338 0.13984169 7
2.0625274 1.6731848 0.2323572 6
2.0731041 1.6793667 0.32758483 8
2.0622966 1.6688244 0.42018303 7
2.0352411 1.6451681 0.50869679 4
2.0180171 1.629499 0.59881973 6
1.9836096 1.5994279 0.68276465 4
1.7195362 1.3790872 -0.59062505 25
1.8736947 1.5011128 -0.55427945 28
2.006469 1.6057611 -0.49953794 10
2.1601112 1.7268649 -0.43801656 29
2.2091794 1.7635654 -0.3470839 12
2.8179581 2.2471328 -0.31532949 15
2.1636505 1.723514 -0.14497061 5
2.1174157 1.6842678 -0.047226213 8
2.0875297 1.6736236 0.046702638 7
2.0811841 1.666747 0.13973701 5
2.0959432 1.6761651 0.23479758 8
2.078284 1.6602595 0.32660985 6
2.0628011 1.6461222 0.41799295 4
2.0482123 1.6321429 0.50907844 12
2.0354426 1.6202255 0.60061932 6
4.2293224 3.3629522 1.4478338 13
1.7182769 1.3589622 -0.58700162 26
1.8746943 1.4810759 -0.55158001 37
2.0130057 1.5880673 -0.49839315 10
2.1783192 1.7166342 -0.43926802 40
2.2105176 1.7395064 -0.34537774 43
2.1976283 1.727501 -0.24455902 7
2.1473548 1.6861643 -0.14308652 7
2.135416 1.674381 -0.047365833 7
2.1085761 1.6664486 0.04691207 6
