# .PCD v0.7 - Point Cloud Data file format
VERSION 0.7
FIELDS x y z intensity
SIZE 4 4 4 4
TYPE F F F F
COUNT 1 1 1 1
WIDTH 1467
HEIGHT 1
VIEWPOINT 0 0 0 1 0 0 0
POINTS 1467
DATA ascii
5.8538327 3.6041186 0.8440671 23
5.7160034 3.5151336 1.0628159 9
6.9909434 4.2941318 1.5947818 5
4.6480885 2.8505876 1.2588261 15
6.8249702 4.1807141 2.1445746 12
1.8199356 1.1082786 -0.57095486 12
1.9613016 1.1929584 -0.52998471 10
2.1747575 1.3207148 -0.49457693 9
2.3864887 1.4475881 -0.44208387 7
2.6757286 1.6211185 -0.38413221 8
3.0498128 1.8448522 -0.31184325 7
3.6155207 2.1844676 -0.22138111 7
4.1826425 2.5241296 -0.085272454 3
5.6151638 3.4167602 0.11473212 14
7.1905651 4.3702159 0.44098282 8
5.9746037 3.6269081 0.61148465 21
5.603837 3.3964777 0.80458146 28
5.6491532 3.4199007 1.045921 24
6.9804306 4.2208405 1.5856228 5
6.9000506 4.1656623 1.8607953 10
6.8523393 4.1319642 2.144057 9
1.8226569 1.0925671 -0.56940192 12
1.9796134 1.185244 -0.53268409 8
2.1805551 1.3034843 -0.49381369 12
2.3999293 1.432916 -0.44270959 7
2.6903915 1.6044309 -0.38461968 9
3.0797374 1.8337085 -0.31358635 6
3.5603013 2.1173172 -0.21708956 8
2.6734557 1.5880144 -0.054276984 5
5.4964933 3.2921913 0.11183503 13
5.9440022 3.5560048 0.36300224 23
5.8458509 3.4931307 0.59579664 17
5.6495733 3.3704972 0.80775005 12
5.642344 3.36218 1.0402893 22
6.9675493 4.1469064 1.5760823 6
6.9339895 4.1203756 1.8621451 6
6.9391632 4.118535 2.1621742 9
1.8252485 1.0768709 -0.56784898 12
1.9911977 1.1733736 -0.53358394 11
2.1862173 1.2862395 -0.49305046 12
2.4115767 1.4171284 -0.44302243 9
2.6844063 1.5755625 -0.3821823 8
3.0649612 1.7960447 -0.31079736 6
3.6336036 2.1267099 -0.22064841 5
4.2451 2.4816294 -0.085830934 3
5.5796356 3.2892814 0.11305669 6
7.111475 4.1873088 0.43250436 11
5.8271594 3.4269831 0.59143883 33
5.6661186 3.3269532 0.80677515 23
5.8343716 3.4216392 1.0712634 16
7.0556207 4.1328926 1.5894389 4
7.0096855 4.0994158 1.8747423 34
nan nan nan nan
1.8243687 1.059252 -0.56526077 12
2.0010264 1.1604213 -0.53403383 10
2.1900465 1.2679944 -0.4919056 12
2.4043112 1.3903692 -0.43989375 9
2.7056541 1.5627404 -0.38364473 5
3.0774245 1.7746049 -0.31079736 7
3.6449001 2.0992992 -0.22043908 7
4.2172532 2.4260094 -0.084923409 18
5.5574913 3.2241578 0.11214916 13
7.0748672 4.0995083 0.42852688 5
5.8354225 3.3772366 0.58987004 33
5.9349942 3.4293349 0.84162974 30
5.7417755 3.3136814 1.0499883 24
nan nan nan nan
7.0837374 4.0766234 1.8868896 100
6.9976635 4.022213 2.1626918 49
1.8300415 1.0455323 -0.56474322 12
1.9972304 1.1396636 -0.5308845 11
2.2056689 1.2565614 -0.4934321 11
2.4105251 1.3715961 -0.43926802 9
2.7337568 1.5536215 -0.38608211 8
3.0862727 1.7511108 -0.31044877 7
3.6403527 2.0629697 -0.21928766 10
4.2445288 2.4024184 -0.085132837 5
5.5329752 3.1585138 0.11120673 11
7.139751 4.0707908 0.43072498 11
5.817306 3.3127527 0.58568656 24
5.756886 3.2730258 0.81311232 12
5.78023 3.2822945 1.0528041 13
7.1433764 4.0514107 1.5963081 76
7.0848927 4.0117068 1.879691 100
nan nan nan nan
1.8423486 1.0355697 -0.5662961 12
1.9983416 1.1218755 -0.52908486 11
2.2143872 1.2411333 -0.4934321 11
2.4217651 1.3557003 -0.43958092 9
2.7202783 1.5209373 -0.38266978 9
3.11234 1.7372904 -0.31184325 6
3.6494329 2.0345874 -0.21897365 7
4.2594509 2.3717546 -0.085097939 16
5.5601215 3.1227467 0.11131145 13
7.0826416 3.9729679 0.42559603 8
5.8698401 3.2886145 0.58864987 15
5.8731503 3.2850842 0.82627422 20
5.827147 3.2553484 1.0571842 19
7.1526284 3.9909194 1.5921104 50
nan nan nan nan
nan nan nan nan
1.8410804 1.0180085 -0.56370795 11
2.0112426 1.1107234 -0.53043461 11
2.2092443 1.2180594 -0.49037915 9
2.4329016 1.3397117 -0.43989375 9
2.7134371 1.4923415 -0.38023239 9
3.1139133 1.7097681 -0.31079736 7
3.6495378 2.001379 -0.2181363 7
4.2987037 2.35445 -0.085551701 5
5.5327764 3.0567799 0.11033412 13
7.071733 3.9022 0.42329326 8
7.0792122 3.9014933 0.70718169 2
5.9011588 3.2468727 0.82700545 10
5.8376131 3.2079287 1.0549942 22
7.1544991 3.926718 1.586386 76
nan nan nan nan
10.222298 5.5942278 3.1223929 1
1.8430508 1.0023623 -0.56215501 12
2.0206599 1.0975864 -0.5308845 10
2.2038875 1.1951193 -0.4873262 9
2.4352474 1.3189312 -0.43864229 9
2.7395036 1.4818619 -0.38242605 9
3.1184685 1.684743 -0.31010011 6
3.673969 1.9815384 -0.21876432 7
4.2587008 2.2940333 -0.084434748 10
5.5346546 3.0075765 0.10995016 11
7.1567307 3.8841739 0.42674741 14
7.064239 3.8291891 0.70299816 1
5.9201899 3.2037091 0.826518 3
5.9519682 3.2168782 1.0715762 14
7.1350913 3.8514991 1.5760823 68
10.089613 5.4395204 2.6463244 2
10.250898 5.5172338 3.1192875 1
1.8431897 0.98582649 -0.5600844 12
2.0265543 1.0825346 -0.53043461 11
2.2188993 1.1837876 -0.48885265 9
2.4441683 1.3023256 -0.43864229 9
2.7497816 1.4627018 -0.38242605 9
3.1266341 1.6610628 -0.30975151 3
3.6803138 1.952742 -0.21834564 7
4.2516398 2.2520776 -0.083980985 24
5.5197282 2.9509776 0.10925207 11
7.1671476 3.8269031 0.42580539 28
7.0644279 3.7657163 0.70038354 2
7.0422702 3.7491717 0.97958583 2
6.9748731 3.7086051 1.251163 10
7.1288581 3.7841034 1.5688316 57
10.209989 5.4127574 2.6679196 2
10.230166 5.4165945 3.1016874 1
1.8584054 0.97775483 -0.56267262 12
2.0166252 1.0596507 -0.52593559 12
2.2288487 1.1691788 -0.4892343 9
2.4462023 1.2815623 -0.43739083 9
2.7508805 1.4393479 -0.38120735 9
3.1452184 1.6428843 -0.31044877 7
3.6761491 1.9177632 -0.21729892 7
4.2615495 2.2203155 -0.083876267 19
5.5012546 2.8919001 0.10848416 14
7.1477122 3.7526352 0.42308393 23
7.0528402 3.6981168 0.69672298 2
7.0155096 3.6723011 0.97227371 3
6.9725828 3.6451812 1.2461572 12
7.1144252 3.7145886 1.5600544 70
10.171493 5.3017135 2.648124 2
10.559039 5.4966874 3.1896861 1
1.8600388 0.96209437 -0.56111974 12
2.0205112 1.0437573 -0.5250358 10
2.2334666 1.1517915 -0.48847106 11
2.4550889 1.2644546 -0.43739083 10
2.7626271 1.421016 -0.38145107 9
3.1388881 1.6117839 -0.30870563 7
3.6858943 1.8902274 -0.21708956 7
4.2947459 2.1996238 -0.084225312 12
5.5461812 2.8662772 0.10897283 11
7.1293669 3.6797423 0.42046711 25
7.044838 3.6314437 0.69341105 2
7.0056739 3.605068 0.96739888 3
6.9697499 3.5819676 1.2411512 10
7.1104903 3.6495931 1.5535669 76
10.367816 5.3123298 2.6895149 2
10.676265 5.4633198 3.2134974 2
1.8701541 0.95083642 -0.56215501 12
2.0294862 1.0305084 -0.52548569 8
2.2344484 1.1326203 -0.48694456 10
2.4673812 1.2490684 -0.43801656 10
2.7653937 1.3981135 -0.38047612 9
3.1571786 1.5934218 -0.30940288 7
3.716836 1.8734387 -0.2181363 7
4.3296452 2.1794777 -0.084609263 15
5.312892 2.6988831 0.10401635 6
7.1085725 3.6063855 0.41774565 16
7.0540247 3.5740652 0.69184226 3
7.0058722 3.5435278 0.96398658 3
6.9487443 3.5100653 1.2330166 10
7.105998 3.5848315 1.5470794 72
10.27237 5.1732087 2.6553226 2
nan nan nan nan
1.8646492 0.93171346 -0.55853152 12
2.0313995 1.0137053 -0.52413601 10
2.2387867 1.1152426 -0.48618135 12
2.4707355 1.2291727 -0.43707794 10
2.7750871 1.3787733 -0.38047612 9
3.1575158 1.5660317 -0.308357 6
3.719085 1.8421273 -0.21750826 7
4.3322072 2.1429935 -0.084364928 21
5.537353 2.7644436 0.10803039 9
7.1085525 3.544194 0.41628024 11
7.0449162 3.5078621 0.68853039 3
7.00911 3.4839251 0.96106172 3
6.9182305 3.434237 1.2233176 5
7.1062274 3.522923 1.5417367 70
10.682001 5.2863383 2.7516015 2
nan nan nan nan
1.8659066 0.91611809 -0.55697864 12
2.0349281 0.99778193 -0.52323622 10
2.2447541 1.0987236 -0.4857997 13
2.4739318 1.2092925 -0.43613935 9
2.7882121 1.3611089 -0.38096359 9
3.1683719 1.54395 -0.308357 4
3.7282634 1.8143706 -0.21729892 7
4.3596525 2.1188154 -0.084609263 17
5.5636997 2.7292414 0.10817002 11
7.1205673 3.4883299 0.41554755 22
7.0388088 3.4437084 0.68556702 6
7.013639 3.425328 0.95838058 3
6.9367099 3.3832605 1.2223791 12
7.0988774 3.4577551 1.5348676 67
20.557514 9.995491 5.2773519 9
nan nan nan nan
1.8722569 0.90306932 -0.55697864 11
2.0400887 0.98270535 -0.52278626 11
2.2452934 1.0796216 -0.48427325 12
2.4805338 1.1911354 -0.43582645 10
2.797647 1.341609 -0.38096359 11
3.1826675 1.5235134 -0.30870563 7
3.7264235 1.7814069 -0.21646154 7
4.3869705 2.0943584 -0.084853604 13
5.4745302 2.6382475 0.10607573 9
7.1321478 3.4324746 0.41481483 27
7.0393329 3.3832676 0.68330097 8
6.9962168 3.3565309 0.95277458 1
6.9387832 3.3245084 1.2186246 10
7.0874243 3.3911638 1.5272354 67
20.785051 9.9273272 5.3178434 9
nan nan nan nan
1.882007 0.89163154 -0.55801392 10
2.0380914 0.9642728 -0.52053678 10
2.2545509 1.0647584 -0.4846549 11
2.4887891 1.1737889 -0.43582645 10
2.79617 1.31697 -0.37950116 9
3.1860139 1.4978663 -0.3080084 4
3.7387691 1.7553481 -0.21646154 7
4.3960533 2.0611339 -0.084748887 17
5.4837785 2.5956864 0.1059012 14
7.0782924 3.3458967 0.41031393 16
7.0447631 3.3255363 0.68155789 10
6.9763818 3.2872987 0.94692487 2
6.931438 3.261687 1.2133058 12
7.0771666 3.3257368 1.5199846 73
21.047922 9.8730116 5.3673325 10
nan nan nan nan
1.8899373 0.87928575 -0.55853152 10
2.0483081 0.95166296 -0.52143657 10
2.2494619 1.0432109 -0.48198354 10
2.4915457 1.153895 -0.43488789 9
2.8016925 1.2957504 -0.37901369 9
3.210865 1.4822679 -0.30940288 7
3.7491188 1.7283674 -0.21635687 7
4.3976207 2.0245397 -0.084504552 10
5.4963274 2.5548077 0.10579649 13
7.1141615 3.3022826 0.41104665 30
7.0425034 3.2645392 0.6791175 11
6.9631286 3.2218459 0.9420501 2
6.9163809 3.1958201 1.2067356 12
7.0770359 3.2655582 1.5150236 83
21.293337 9.807353 5.412323 10
nan nan nan nan
1.8767006 0.85724092 -0.55283749 10
2.0584481 0.93895733 -0.52233636 10
2.2566895 1.0274823 -0.48198354 11
2.5067329 1.1397442 -0.43613935 9
2.8251297 1.2827262 -0.38096359 9
3.199358 1.4499465 -0.30731115 9
3.7629135 1.7029752 -0.21646154 7
4.3934245 1.9855536 -0.0841555 12
5.4376225 2.4815049 0.10433049 9
7.0661626 3.2202342 0.40696445 24
7.0324812 3.200439 0.67597991 13
6.9673791 3.164942 0.93961275 2
6.8953505 3.1278687 1.1992267 12
7.0799913 3.2071569 1.5108256 85
nan nan nan nan
nan nan nan nan
1.8773516 0.84174615 -0.55128461 10
2.063175 0.92376649 -0.52188647 10
2.2620153 1.0109016 -0.48160195 11
2.494786 1.1133608 -0.43269777 10
2.8322027 1.2621636 -0.38071984 8
3.2094021 1.4275769 -0.30731115 9
3.776535 1.677476 -0.21656621 5
4.3943825 1.9491599 -0.083911166 1
5.35079 2.3968883 0.10234091 22
7.0921164 3.1724586 0.40717378 30
7.0273638 3.1390793 0.67336524 18
6.963922 3.1049063 0.93620038 2
6.8809271 3.0635846 1.1929693 1
nan nan nan nan
nan nan nan nan
6.9146852 3.0641663 2.0265532 43
1.8920233 0.83251035 -0.55387276 12
2.0588686 0.90463775 -0.51918709 10
2.2672203 0.99429554 -0.4812203 11
2.5024984 1.0959156 -0.43269777 10
2.8336709 1.2391776 -0.37974492 6
3.208334 1.4003543 -0.30626526 9
3.7643523 1.6406959 -0.21520546 5
4.3217058 1.880927 -0.082270645 5
5.3362722 2.345794 0.10174754 13
7.064714 3.1011939 0.40434763 16
7.0199113 3.0771444 0.67057627 8
nan nan nan nan
4.291893 1.8750832 0.74181229 6
7.0467019 3.0742378 1.4944161 7
nan nan nan nan
6.9057913 3.0027225 2.0177534 40
1.90311 0.82157832 -0.5554257 12
2.0508175 0.88407058 -0.51558787 10
2.2795162 0.98077196 -0.48236516 10
2.5028281 1.0753002 -0.43144631 10
2.8349547 1.2162353 -0.37876993 8
3.2290223 1.3826257 -0.30731115 9
3.7775521 1.6151593 -0.21531016 7
4.4211698 1.8876121 -0.083911166 1
5.4057693 2.3314486 0.10275977 11
nan nan nan nan
4.372623 1.8804362 0.41643015 3
4.3250804 1.856414 0.57790446 1
6.9012418 2.9578776 1.1892149 10
nan nan nan nan
4.2257538 1.8050538 1.0608692 1
nan nan nan nan
1.9105781 0.80902529 -0.55594331 12
2.0677092 0.87428528 -0.51828724 10
2.2808814 0.96254414 -0.4812203 10
2.5230165 1.0631706 -0.43363637 10
2.8269093 1.189485 -0.3765763 9
3.2310107 1.3575288 -0.30661389 7
3.7758422 1.5833429 -0.21457745 7
4.4342394 1.8567027 -0.083911166 1
4.434772 1.8760581 0.084050797 1
6.9730158 2.9455175 0.39670658 2
7.019968 2.9610207 0.66656709 11
nan nan nan nan
nan nan nan nan
7.0454926 2.957314 1.4852573 51
19.356506 8.1128893 4.8454461 8
nan nan nan nan
1.8983378 0.78825974 -0.55076694 12
2.075562 0.86057591 -0.51873714 10
2.2746823 0.94174045 -0.478549 10
2.5320201 1.0467281 -0.43394926 10
2.8388145 1.1712346 -0.37706378 9
3.2367246 1.3334213 -0.30626526 9
3.788379 1.5583645 -0.21468212 5
4.3989968 1.8059551 -0.08300364 1
5.4410944 2.2582264 0.10282958 6
nan nan nan nan
nan nan nan nan
nan nan nan nan
6.8646679 2.8308144 1.1760744 12
7.0459962 2.8998361 1.4810596 76
19.383833 7.9657063 4.8382478 8
nan nan nan nan
1.9090271 0.77750504 -0.55231988 12
2.0849826 0.84789532 -0.51963699 10
2.2812021 0.92583609 -0.478549 11
2.5264511 1.0238312 -0.43175918 9
2.8540821 1.1548628 -0.37803873 11
3.2348695 1.3063174 -0.30521941 9
3.7880514 1.5273992 -0.21405408 5
4.3518281 1.7520715 -0.081886694 7
nan nan nan nan
4.3188019 1.7545637 0.24430427 1
4.2187204 1.7113316 0.39830172 3
4.2081394 1.7036171 0.55743045 1
6.862287 2.7739375 1.17232 12
7.0382628 2.840786 1.4753352 83
19.377514 7.8054314 4.8229508 8
nan nan nan nan
1.9144083 0.7641595 -0.55231988 12
2.0781789 0.8282693 -0.51648766 11
2.2949069 0.91279012 -0.48007545 10
2.5243576 1.0025228 -0.43019485 10
2.8620749 1.1349093 -0.37803873 9
3.2476165 1.2851667 -0.30556804 7
3.7911932 1.4979789 -0.2136354 5
4.3397717 1.7121072 -0.081432931 7
4.3241792 1.7242993 0.081258401 1
4.330946 1.72437 0.24430427 1
4.2509317 1.6899321 0.40021914 1
4.0981479 1.6258839 0.54134369 1
6.855773 2.7157803 1.1679399 10
7.0195842 2.7764199 1.4673213 87
19.547543 7.7157512 4.8517447 8
nan nan nan nan
1.9142991 0.74866486 -0.55076694 11
2.0748343 0.81019646 -0.51423812 10
2.301223 0.89674753 -0.48007545 10
2.5331354 0.98559248 -0.43050769 9
2.8588254 1.110589 -0.3765763 9
3.2602251 1.2639031 -0.30591667 9
3.797833 1.4700327 -0.21342604 5
4.3534837 1.6824889 -0.081467837 7
4.3063111 1.6824237 0.080699928 1
4.3428793 1.6940902 0.24430427 1
4.2477736 1.654429 0.39882466 1
4.111249 1.5979528 0.54158741 1
6.870882 2.6664224 1.1673142 10
7.0149994 2.7181218 1.4623603 79
19.666363 7.6044064 4.8679414 8
nan nan nan nan
1.928499 0.73873746 -0.5533551 11
2.0895412 0.79917139 -0.51648766 10
2.2945881 0.87575984 -0.47740412 10
2.5454922 0.96999407 -0.43144631 7
2.8720753 1.0927212 -0.37730753 6
3.2764192 1.2439419 -0.30661389 9
3.811738 1.4449009 -0.2136354 5
4.3370695 1.6414397 -0.080944255 7
4.289937 1.6416011 0.080176361 2
4.2463875 1.622388 0.23823328 1
4.1940651 1.5998818 0.39272377 1
4.1297259 1.572035 0.54256237 7
6.8524013 2.6043503 1.1610568 10
7.0154495 2.6621165 1.458544 76
17.958477 6.8002834 4.4333353 7
nan nan nan nan
1.9191393 0.71982861 -0.54921407 12
2.0950692 0.78456515 -0.51648766 10
2.2951288 0.85765749 -0.47625926 7
2.5577543 0.95427102 -0.43238491 9
2.8684731 1.0684849 -0.37584507 5
3.270083 1.2154845 -0.30521941 9
3.8104973 1.4140853 -0.21300736 5
4.3465476 1.6104263 -0.080909356 7
4.2713313 1.6003858 0.07961788 1
4.2014904 1.5717096 0.23509313 3
4.1827354 1.5621978 0.39063203 7
4.1387396 1.5424744 0.54231864 27
6.8444958 2.5468073 1.1566767 10
7.0154581 2.6062407 1.4547279 77
17.917812 6.6422215 4.4117403 6
nan nan nan nan
1.9259311 0.7070787 -0.54973167 12
2.1004953 0.76991969 -0.51648766 11
2.3029044 0.84228796 -0.47664091 9
2.5495098 0.93097085 -0.42988196 9
2.8870521 1.052514 -0.37730753 4
3.2747445 1.1912632 -0.30487078 8
3.8183997 1.3867669 -0.21290269 5
4.3445263 1.5752691 -0.080665022 10
4.2486067 1.5581337 0.078989588 2
4.2123609 1.5423393 0.23509313 3
4.2028956 1.5363789 0.39150357 2
nan nan nan nan
6.8454032 2.492878 1.1538608 12
7.0113411 2.5491502 1.4501485 83
17.820858 6.4651327 4.3766479 6
10.157212 3.6788628 2.8946323 2
1.9309416 0.69327891 -0.54973167 13
2.0894411 0.74895126 -0.51243854 10
2.3088727 0.82578725 -0.47664091 9
2.5598269 0.91403168 -0.43050769 9
2.8982501 1.0331594 -0.37779501 5
3.2792277 1.1670346 -0.30452216 8
3.8263428 1.3587391 -0.21279801 5
4.3538017 1.5434738 -0.080630124 7
4.3255281 1.5513191 0.080211259 6
4.264658 1.5269688 0.23739593 1
4.2362957 1.5143119 0.39359534 1
4.1788292 1.4904807 0.544756 1
6.8444576 2.4372032 1.150732 12
7.0016551 2.4890487 1.4444242 85
17.74802 6.2988558 4.3478541 6
10.194202 3.6099541 2.897738 2
1.9393802 0.68106169 -0.55076694 12
2.0909407 0.73305649 -0.51153874 9
2.312587 0.80940342 -0.47625926 9
2.5548005 0.89267677 -0.4286305 9
2.8791494 1.0037532 -0.37438264 8
3.2797678 1.1414948 -0.3038249 8
3.8449364 1.3359401 -0.21332137 7
4.3512464 1.508454 -0.080385789 3
4.3567424 1.5291249 0.08059521 2
4.2938013 1.5045093 0.23844264 1
4.2411213 1.4827296 0.3930724 1
4.1926246 1.4633119 0.54524344 3
6.8403683 2.3834116 1.1472905 10
6.9817734 2.4272137 1.4367918 85
nan nan nan nan
nan nan nan nan
1.9439707 0.66784596 -0.55076694 12
2.0866654 0.71564597 -0.50928926 8
2.314466 0.7919687 -0.47549605 9
2.5684471 0.87737453 -0.42988196 9
2.891551 0.98605573 -0.37511387 9
3.2914298 1.1198534 -0.30417353 8
3.8447132 1.3058532 -0.21279801 5
4.3708816 1.4820136 -0.080560312 1
4.3729858 1.5006189 0.080699928 1
4.3344321 1.4848529 0.2401174 1
4.2793946 1.4634956 0.39568707 3
4.2215271 1.4404145 0.54768091 7
6.8250542 2.3247678 1.1419717 1
nan nan nan nan
4.2038898 1.4262106 1.0248771 1
9.8770533 3.3451214 2.7942104 2
1.9375979 0.65056789 -0.54766113 12
2.1045446 0.705396 -0.51243854 9
2.314353 0.77392358 -0.47435117 9
2.5670149 0.85692012 -0.4286305 9
2.898365 0.9658435 -0.37511387 9
3.2878234 1.0930761 -0.30312768 8
3.840467 1.2745763 -0.21206531 5
4.373528 1.4489474 -0.080420688 1
4.4326491 1.4865872 0.081607454 1
4.4204493 1.4799216 0.24430427 1
4.3291888 1.4468482 0.3993476 3
4.2729096 1.4247216 0.55304313 1
6.794261 2.261467 1.13415 10
nan nan nan nan
4.2137442 1.3968272 1.0248771 1
nan nan nan nan
1.9475991 0.63883221 -0.54921407 12
2.1242335 0.69553852 -0.51603776 10
2.3215663 0.75835603 -0.47473282 8
2.5691788 0.83775198 -0.42800474 9
2.9031498 0.9449712 -0.37487015 8
3.2953739 1.0700977 -0.30312768 8
3.8492711 1.2477356 -0.21206531 7
4.3835373 1.4183792 -0.080420688 1
4.5265331 1.482999 0.083143272 1
6.9288592 2.2660415 0.38205251 2
4.3562307 1.4221544 0.40091643 3
4.2638769 1.3887088 0.55060571 11
nan nan nan nan
nan nan nan nan
10.337858 3.3470092 2.5086544 2
10.084559 3.2591684 2.8397627 2
1.9483318 0.62404126 -0.54817873 13
2.1067634 0.67357022 -0.51063895 10
2.3324149 0.74392068 -0.47587767 9
2.5712004 0.81859678 -0.42737901 9
2.9077842 0.92407906 -0.3746264 9
3.3103619 1.0494725 -0.3038249 8
3.8636014 1.2226382 -0.21237932 7
4.4467235 1.4046066 -0.081398018 1
5.1843424 1.6585249 0.095010899 1
6.9521217 2.2200439 0.3824712 2
nan nan nan nan
4.2507668 1.351691 0.54768091 2
4.2024236 1.3338963 0.69832355 3
6.9659562 2.2070587 1.4203823 90
10.050664 3.1766777 2.4335208 2
9.1085205 2.8736532 2.5592029 2
1.9507973 0.60984778 -0.54766113 13
2.1114147 0.65884584 -0.51063895 10
2.3375516 0.72761929 -0.47587767 9
2.5730793 0.79945546 -0.42675328 9
2.9046843 0.90081781 -0.37340769 8
3.3023808 1.0216255 -0.30243042 8
3.8644097 1.1932784 -0.21196064 5
4.4373116 1.3676385 -0.081048973 1
4.4017277 1.3743582 0.080490492 1
4.3246255 1.3477975 0.23739593 1
6.9097428 2.1494977 0.63309932 1
6.8442187 2.1238787 0.8798967 5
6.802392 2.1069956 1.1278926 10
6.9605637 2.1519911 1.4161844 98
10.093079 3.1127555 2.4384694 2
nan nan nan nan
1.9642459 0.59903234 -0.55024934 12
2.1196916 0.64522326 -0.51153874 10
2.3331816 0.70843041 -0.47396958 9
2.5823789 0.7826184 -0.42737901 9
2.9185026 0.88281631 -0.37438264 8
3.313247 0.99969828 -0.30277905 8
3.8688202 1.1651205 -0.2117513 5
4.4352608 1.3331754 -0.080839552 3
5.1974297 1.5830648 0.094836384 4
6.8314791 2.0768657 0.37420213 7
6.9226732 2.100631 0.63292503 40
6.8360806 2.0691411 0.8769719 10
6.7753353 2.0468831 1.1210095 10
6.7648959 2.0398648 1.3734432 78
nan nan nan nan
6.5740232 1.9735548 1.8391682 100
1.9461596 0.57869637 -0.54403764 12
2.1204078 0.62930137 -0.51063895 10
2.3324225 0.69045371 -0.47282472 9
2.5934627 0.76625127 -0.42831761 7
2.9207871 0.86129546 -0.37389517 9
3.3237979 0.97824603 -0.30312768 6
3.8883588 1.1414582 -0.21237932 5
4.4463787 1.3027412 -0.080874451 8
5.1891847 1.5410484 0.094487324 4
6.8477263 2.0296898 0.3743068 10
6.9046907 2.0426421 0.62996167 33
nan nan nan nan
nan nan nan nan
6.7073951 1.9715515 1.3589417 98
6.6195631 1.9419699 1.5926536 100
6.5672464 1.9216403 1.8334742 100
1.952008 0.56563324 -0.54455531 12
2.1378536 0.6182726 -0.51378828 11
2.3351822 0.67401582 -0.4724431 9
2.5815349 0.74365789 -0.42550179 9
2.9305441 0.84198129 -0.37438264 8
3.3228853 0.95282263 -0.30243042 8
3.8979585 1.1155139 -0.21248402 5
4.472672 1.2766051 -0.081188597 10
5.1822677 1.500685 0.094173186 7
6.780797 1.959741 0.36991057 4
6.8881516 1.9855589 0.62717271 41
6.8029118 1.9571307 0.86917222 65
6.7459526 1.9369205 1.1116234 75
6.6907973 1.9160292 1.3528358 97
6.6273379 1.8941027 1.5913038 100
6.5541654 1.8694786 1.8262272 100
1.963249 0.55443418 -0.54662579 12
2.1232555 0.59842092 -0.50928926 9
2.351171 0.66088438 -0.47473282 9
2.5866637 0.72561723 -0.42550179 9
2.9323843 0.82094383 -0.37389517 8
3.329294 0.93018228 -0.30243042 6
3.8902595 1.0839851 -0.21164663 5
4.4581385 1.2397043 -0.08076974 10
5.1868443 1.462841 0.094068475 4
6.2098565 1.7478508 0.33809033 2
6.8708167 1.9300057 0.62438375 8
6.7800903 1.8994151 0.86454117 81
6.744091 1.8855225 1.1091205 87
6.6772103 1.8630552 1.3474932 97
6.6250587 1.8447659 1.5877047 100
6.5484424 1.8185071 1.8210509 100
1.967072 0.54071373 -0.54662579 12
2.1198645 0.58152008 -0.50748962 9
2.3480406 0.64279157 -0.47320631 9
2.5801096 0.70487005 -0.4236246 10
2.9342132 0.79940969 -0.37340769 8
3.3395514 0.90796381 -0.30277905 6
3.9052579 1.0595716 -0.21206531 7
4.4415903 1.2017608 -0.080315977 14
5.1812544 1.4232662 0.093789227 3
6.2139039 1.7034318 0.33767161 6
6.8898897 1.8835677 0.62490666 46
6.7698812 1.8469508 0.86161631 81
6.7281795 1.8317893 1.1044275 78
6.6730013 1.8117642 1.3440586 86
6.6133242 1.7918442 1.581856 100
nan nan nan nan
1.9669745 0.52631396 -0.54559058 12
2.1313045 0.56908911 -0.50928926 9
2.3448825 0.62436295 -0.47167987 9
2.5964224 0.68988389 -0.42550179 9
2.9357495 0.77839965 -0.37292022 5
3.3419571 0.88360703 -0.30243042 8
3.9067664 1.0307535 -0.2117513 5
4.4554691 1.1730273 -0.080420688 7
5.1891322 1.3865433 0.093754329 6
6.2198558 1.6584624 0.33735761 2
6.881371 1.8309904 0.62298924 36
6.7691784 1.7960826 0.85991013 77
6.7178879 1.7787091 1.100673 71
nan nan nan nan
nan nan nan nan
4.9380779 1.2982446 1.3681176 4
1.9668617 0.5115965 -0.54455531 13
2.1408844 0.5556646 -0.51063895 9
2.3472831 0.60748655 -0.47129822 10
2.6030877 0.67223579 -0.42581466 7
2.9372673 0.75689602 -0.37243277 8
3.3441849 0.85926259 -0.30208179 5
3.9022598 1.0004779 -0.21112327 3
4.4441772 1.1369376 -0.080071643 7
5.1870732 1.3472638 0.0935449 7
6.2119489 1.6099883 0.33631086 2
6.8611941 1.7744242 0.62002593 7
nan nan nan nan
nan nan nan nan
5.0220599 1.2894454 1.0078532 8
4.9650578 1.2711184 1.1832427 8
4.9507637 1.2646974 1.3691529 6
1.9666396 0.4969053 -0.54352003 12
2.1484911 0.54165661 -0.51153874 9
2.3533711 0.59156322 -0.47167987 9
2.6153815 0.65596867 -0.42706612 6
2.9424801 0.73637158 -0.37243277 9
3.3385029 0.83300239 -0.30103594 6
3.9091487 0.97321254 -0.21112327 3
4.4461832 1.1044396 -0.079966925 5
5.1885967 1.3090641 0.093405277 6
5.2236319 1.3149949 0.28230017 5
5.1574759 1.2954698 0.46523735 4
5.0971231 1.2765256 0.64517635 3
5.0805068 1.2695377 0.82941562 3
5.0537992 1.2600528 1.0124326 5
4.9908314 1.2406559 1.1872917 4
4.9557228 1.2291712 1.3681176 6
1.9794418 0.48546517 -0.54610825 12
2.1389694 0.52340281 -0.50838941 9
2.3498144 0.57325798 -0.47015342 9
2.610301 0.63535684 -0.42550179 9
2.9533362 0.71721518 -0.37316394 9
3.340364 0.80873728 -0.30068728 8
3.9139061 0.94542879 -0.21101859 1
4.4576735 1.0743095 -0.080036737 5
5.1704173 1.2661501 0.092916615 7
5.1919413 1.2685401 0.28010207 3
5.18188 1.2632072 0.46663183 4
5.1251998 1.2456002 0.6476137 6
5.0930848 1.2349715 0.83004135 4
5.0433898 1.220126 1.0086164 6
6.6891932 1.6133428 1.5886045 44
nan nan nan nan
1.9827827 0.47163424 -0.54610825 13
2.1425714 0.50845724 -0.50838941 9
2.3556697 0.55729115 -0.47053501 9
2.6069825 0.61530417 -0.42425033 9
2.9486098 0.69430602 -0.37194526 9
3.3613083 0.78962648 -0.30208179 5
3.9223564 0.91853511 -0.21112327 3
4.4533815 1.0404311 -0.079827309 5
5.190804 1.2327954 0.093126044 10
5.2103882 1.2345651 0.28062543 5
5.1886339 1.2265418 0.46645752 6
5.1125169 1.2047807 0.64493263 3
nan nan nan nan
nan nan nan nan
6.6886344 1.5651125 1.585905 100
6.6317501 1.5469196 1.8246742 100
1.986027 0.4577803 -0.54610825 12
2.1460688 0.49348685 -0.50838941 9
2.3689761 0.54343849 -0.4724431 7
2.6149614 0.59842604 -0.42487606 9
2.9437084 0.67149651 -0.37072656 9
3.3550828 0.76348835 -0.30103594 5
3.9226742 0.89049053 -0.21080926 5
4.4585857 1.0088761 -0.079792403 7
5.1873832 1.1947412 0.092916615 7
5.2361894 1.2030956 0.28156745 1
6.9371958 1.5888305 0.62264061 58
nan nan nan nan
6.8083439 1.551818 1.1059917 33
nan nan nan nan
nan nan nan nan
nan nan nan nan
1.9777845 0.44172463 -0.54300237 12
2.1550846 0.4801389 -0.5097391 10
2.3688791 0.52603662 -0.47167987 9
2.6152182 0.57930243 -0.42425033 9
2.9482105 0.65144515 -0.37072656 9
3.3602021 0.74063331 -0.30103594 4
3.9307458 0.86351186 -0.21091393 5
4.4516759 0.97550768 -0.079548068 3
5.1780314 1.1545805 0.092602469 4
6.2348652 1.3868036 0.33474082 2
6.918673 1.5350999 0.62002593 60
nan nan nan nan
nan nan nan nan
7.2937226 1.6049645 1.4516749 1
7.2482476 1.5909796 1.7132273 2
nan nan nan nan
1.9789321 0.42749846 -0.54248476 10
2.1583841 0.46508187 -0.5097391 10
2.3704855 0.50948632 -0.47129822 9
2.615238 0.56065834 -0.4236246 9
2.9565697 0.63167506 -0.37121406 9
3.3652906 0.71715659 -0.30103594 5
3.9365325 0.83673608 -0.21091393 5
4.4564219 0.94399315 -0.079513162 3
5.1740422 1.1167765 0.092393041 6
6.2051101 1.3359246 0.33264738 2
6.8961043 1.4796587 0.61706263 61
7.4131951 1.5865484 0.93083817 1
7.4878535 1.5984271 1.2126801 1
7.4468508 1.584236 1.4799147 1
7.4841213 1.5880696 1.7663158 2
7.4389844 1.5744221 2.0374236 3
1.9893601 0.41559952 -0.54455531 12
2.150053 0.44799542 -0.50703973 10
2.3797512 0.49412325 -0.4724431 10
2.6152196 0.541587 -0.42299888 9
2.9588563 0.61113548 -0.37097031 8
3.3663123 0.69284165 -0.30068728 5
3.9266267 0.80602074 -0.21007656 5
4.4666629 0.91443741 -0.079582974 3
5.1699672 1.0781782 0.092183605 4
6.2533937 1.3007067 0.33474082 2
6.9001641 1.4314667 0.61653972 63
7.6379294 1.5789584 0.95764935 1
7.6381278 1.5748298 1.2352067 1
7.3593884 1.5133427 1.4604521 1
7.317481 1.4994054 1.7244749 2
7.2264509 1.4768107 1.9763422 2
1.9922131 0.40170011 -0.54455531 12
2.147397 0.43182069 -0.50569004 10
2.3850679 0.47788316 -0.47282472 9
2.6150625 0.52254194 -0.42237309 9
2.9494233 0.58774823 -0.36926416 11
3.3827925 0.67165321 -0.30173317 6
3.9262803 0.77742618 -0.20976254 7
4.4729376 0.88323408 -0.079582974 1
5.1773677 1.0420612 0.092183605 3
6.2074914 1.2460153 0.33181 4
6.8963132 1.3805251 0.61531955 61
7.4774528 1.4914274 0.93620038 1
7.4861927 1.4890957 1.2089256 1
7.3582191 1.4596356 1.4581624 1
7.3315949 1.4490353 1.7253747 2
7.3408327 1.4468679 2.0048125 2
1.9987614 0.38852021 -0.54559058 12
2.1541853 0.41756123 -0.50658983 10
2.3671422 0.45712468 -0.46862692 9
2.6225266 0.50501847 -0.42299888 9
2.955404 0.56751591 -0.36950788 9
3.3795714 0.64652306 -0.30103594 8
3.9100308 0.74587983 -0.20861115 4
4.4593496 0.84824872 -0.07923393 1
5.1766644 1.0043676 0.092043988 4
6.1964302 1.1988547 0.33076328 2
6.88622 1.3285718 0.61357641 60
7.520822 1.4455619 0.94034398 1
7.5449076 1.4460955 1.2167474 1
7.5340681 1.4399289 1.4909816 1
7.504252 1.4287975 1.7636163 2
7.5177741 1.4272937 2.0503645 3
1.9938295 0.3731353 -0.54352003 12
2.1627951 0.40358442 -0.50793952 12
2.3702757 0.44058892 -0.46862692 9
2.6298726 0.48741865 -0.4236246 9
2.961246 0.54723167 -0.36975163 9
3.3761652 0.62146908 -0.30033869 8
3.9308589 0.72144705 -0.20944853 5
4.4494267 0.81421411 -0.078954689 3
5.1914129 0.96967173 0.092183605 4
6.2046485 1.1555662 0.33076328 2
6.8698621 1.2757357 0.61131036 58
7.6946964 1.4233516 0.96081799 1
7.7315969 1.4259912 1.2452185 1
7.7138538 1.4185431 1.5245639 1
7.6942286 1.4093781 1.8059072 2
7.6947923 1.4053178 2.0959167 3
1.9868168 0.35784385 -0.54093182 13
2.1635737 0.38850892 -0.50748962 9
2.3770847 0.42513597 -0.46939012 9
2.6292403 0.46881291 -0.42299888 9
2.9727201 0.52845216 -0.37072656 9
3.3842404 0.59917009 -0.30068728 8
3.9396114 0.6953699 -0.20965785 5
4.4647131 0.78564388 -0.079129212 3
5.1782107 0.93077451 0.09183456 3
6.2005749 1.1111917 0.33013523 2
6.8626952 1.2261407 0.60991585 64
7.8703308 1.4005036 0.98153585 1
7.8986707 1.4012768 1.270561 1
7.9031243 1.3977993 1.5600544 1
7.8994007 1.3914582 1.8517972 2
7.8659115 1.3813136 2.1399159 3
1.9911704 0.34429273 -0.54144943 12
2.1623926 0.37273282 -0.50658983 11
2.3761249 0.40786731 -0.46862692 9
2.6246605 0.44911447 -0.42174736 9
2.9822078 0.50868571 -0.37145779 8
3.3804841 0.57419449 -0.29999006 8
3.9246781 0.66451502 -0.20861115 4
4.470089 0.75445509 -0.079129212 3
5.1786709 0.89358109 0.091729842 1
6.1983399 1.0661837 0.3296119 4
6.86127 1.1765168 0.60904431 66
8.0677662 1.3776002 1.0049347 1
8.0659962 1.3729523 1.2959032 1
8.0830212 1.3714958 1.5936368 1
8.0780153 1.3648417 1.8913885 2
8.0506258 1.3558791 2.1875386 2
1.9954313 0.33069921 -0.54196709 12
2.1572516 0.35635698 -0.50479025 10
2.3905382 0.39317951 -0.47091663 9
2.6355298 0.43205696 -0.42299888 9
2.9621768 0.48401356 -0.36853293 8
3.3883431 0.55122173 -0.30033869 8
3.921335 0.63582259 -0.20819245 3
4.4930139 0.72609866 -0.07944335 1
5.184783 0.85740787 0.091729842 1
6.1839542 1.0193149 0.32846051 2
6.8614516 1.1272986 0.60834706 67
8.2750511 1.3536091 1.0295522 1
8.3054419 1.3541158 1.3328218 1
8.2687416 1.3436885 1.6283641 1
8.4182281 1.3619491 1.9687718 2
8.7159777 1.4054382 2.3656061 2
2.0034151 0.31766897 -0.54352003 12
2.1712356 0.3431139 -0.50748962 11
2.3854668 0.37526041 -0.46939012 9
2.6365302 0.41334102 -0.42268598 7
2.981174 0.46577334 -0.37048283 5
3.3921089 0.52755153 -0.30033869 8
3.937521 0.61026454 -0.20882049 4
4.4801874 0.69196886 -0.079129212 4
5.194593 0.82181537 0.091799662 1
6.1909199 0.97611797 0.32846051 2
6.8534093 1.0768917 0.60695255 67
8.9138584 1.3942834 1.1077924 1
8.9744034 1.3989404 1.4385715 1
8.9976559 1.3977357 1.7699443 1
8.9667683 1.3865277 2.0947442 2
8.9317827 1.37633 2.4215112 2
2.003674 0.30338556 -0.54300237 13
2.1716511 0.32765675 -0.50703973 10
2.3822043 0.35772413 -0.46824533 9
2.6432586 0.39551038 -0.42331171 9
2.9843531 0.44494948 -0.37048283 8
3.3996508 0.50444216 -0.30068728 6
3.9436615 0.58305269 -0.20892516 6
4.4651256 0.65776014 -0.078780167 4
5.2061357 0.7864238 0.091904372 3
6.1975842 0.93287039 0.32846051 2
6.8390861 1.0257689 0.60503519 70
9.0804424 1.3554651 1.1272914 1
9.2770329 1.3798456 1.4855019 1
9.1703253 1.3590627 1.8020002 1
9.2075758 1.3580151 2.1487324 2
9.1399508 1.3431519 2.4753454 2
2.0000072 0.28856227 -0.54144943 13
2.1738858 0.31248677 -0.50703973 10
2.3885303 0.34164044 -0.46900854 9
2.6400883 0.37621129 -0.42237309 9
2.9991786 0.42577946 -0.37194526 8
3.3833616 0.47790921 -0.29894418 6
3.9436803 0.55494994 -0.20871581 6
4.47753 0.62768209 -0.078919783 4
5.1837888 0.74607325 0.091415711 3
6.2019677 0.88929981 0.32835582 2
6.8303018 0.97574389 0.60364062 70
9.4041386 1.3367316 1.1662897 1
9.4820271 1.3427384 1.5167887 1
9.4517527 1.3334038 1.8554269 1
9.4098148 1.320793 2.193723 2
9.4131317 1.3162334 2.5467794 2
2.0077147 0.2753801 -0.54300237 12
2.1760144 0.29730257 -0.50703973 10
2.3850212 0.32416379 -0.46786368 8
2.6289477 0.3559157 -0.42018303 7
2.9843729 0.40244186 -0.36975163 9
3.3945143 0.45533845 -0.29964143 6
3.941519 0.5266127 -0.2084018 4
4.4699092 0.59482723 -0.078710355 4
5.1849084 0.70932329 0.091345899 4
6.2238574 0.84813774 0.3291932 2
6.8290496 0.92696697 0.60294342 74
9.6099653 1.2976089 1.1906636 1
9.6869459 1.3028393 1.5480757 1
9.7021179 1.2997087 1.9027474 1
9.6815128 1.2900692 2.2549095 2
9.4757137 1.2575974 2.5612736 2
2.0134196 0.26185516 -0.54403764 12
2.1645086 0.28035268 -0.5038904 10
2.3930678 0.30825666 -0.46900854 8
2.6450839 0.33931166 -0.42237309 6
2.9851403 0.38134563 -0.36950788 8
3.4015634 0.43213132 -0.29999006 6
3.9332106 0.49757886 -0.20777377 3
4.4898252 0.56560421 -0.078989588 4
5.1857681 0.67259413 0.091276079 3
6.1880293 0.79929334 0.32699507 2
6.8234978 0.87774336 0.60189754 71
nan nan nan nan
9.9897346 1.2726295 1.595006 1
9.9758348 1.2655512 1.9546474 1
nan nan nan nan
9.4612617 1.1885245 2.5550618 2
2.011364 0.24732094 -0.54300237 12
2.1664131 0.26523471 -0.5038904 8
2.385417 0.29035741 -0.46710047 7
2.6571934 0.32202679 -0.42393744 7
2.9837883 0.36002195 -0.3690204 8
3.4124103 0.40932092 -0.30068728 4
3.9207234 0.46821126 -0.20693639 4
4.4678502 0.53117645 -0.078535825 6
5.1943064 0.63686341 0.091345899 3
6.1795807 0.75438207 0.32626238 2
6.8274817 0.82984138 0.60172325 77
nan nan nan nan
nan nan nan nan
10.237839 1.2262282 2.0042579 1
10.054634 1.197166 2.3376915 2
9.4885111 1.1247219 2.5602381 2
2.0111227 0.23305154 -0.54248476 12
2.189507 0.25256127 -0.50883931 9
2.3815343 0.27302614 -0.46595559 9
2.6593769 0.30346823 -0.42393744 7
2.9862289 0.33918241 -0.3690204 8
3.403306 0.38414863 -0.29964143 5
3.951683 0.44395161 -0.2084018 3
4.465488 0.4993076 -0.078431122 4
5.2145185 0.6024183 0.091625139 1
6.2025547 0.71327275 0.32720444 2
6.8113351 0.77966726 0.59980583 70
nan nan nan nan
10.497238 1.1885881 1.6732231 1
10.491964 1.1824225 2.0523417 1
10.055001 1.1260747 2.335892 2
9.4577332 1.0541722 2.5498853 2
2.0011773 0.21775173 -0.53937894 12
2.1795921 0.2360097 -0.50613987 10
2.3853345 0.25660321 -0.46633717 7
2.6614306 0.28489488 -0.42393744 9
2.994446 0.31895712 -0.36975163 9
3.3899915 0.35929421 -0.29824695 6
3.9824944 0.4192805 -0.20986721 5
4.4648867 0.46770376 -0.078361303 4
5.1927528 0.56319642 0.091171376 1
6.1974545 0.66888171 0.32668105 2
6.8047261 0.73081964 0.59875995 70
nan nan nan nan
nan nan nan nan
5.2987914 0.55973154 1.0357113 1
5.2560315 0.55243218 1.2201346 15
nan nan nan nan
2.0103366 0.20455687 -0.54144943 12
2.1753705 0.2201988 -0.50479025 9
2.4085131 0.24252443 -0.47053501 9
2.6593773 0.26637873 -0.42331171 7
2.9985752 0.29824063 -0.36999539 8
3.4082789 0.33718807 -0.29964143 6
3.9693544 0.390598 -0.20902982 4
4.477994 0.43749377 -0.078535825 6
5.1944757 0.52763772 0.091136463 3
6.1740432 0.62387323 0.32521567 2
nan nan nan nan
nan nan nan nan
nan nan nan nan
nan nan nan nan
nan nan nan nan
5.212522 0.50833774 1.403317 91
2.0136056 0.1910516 -0.54196709 12
2.1690583 0.20465519 -0.5029906 9
2.4062381 0.22533783 -0.46977177 8
2.6513376 0.2468905 -0.42174736 9
3.0005357 0.27782303 -0.36999539 8
3.4223988 0.31507671 -0.30068728 6
3.973974 0.36305887 -0.2091345 4
4.4908261 0.40790731 -0.078710355 3
5.1940517 0.49098176 0.091066658 4
5.4643798 0.51364887 0.28763846 54
5.4414053 0.50861526 0.47813639 41
5.3743033 0.49950489 0.66272557 60
5.3562136 0.494055 0.85194218 64
5.30796 0.48680151 1.0360929 70
5.2553859 0.47920531 1.218335 80
5.1850772 0.47005466 1.3950348 69
2.0225568 0.1780175 -0.54403764 12
2.1859317 0.19124381 -0.50658983 11
2.3881569 0.20725755 -0.46595559 8
2.6608291 0.22951798 -0.42299888 9
2.9984014 0.25705343 -0.36950788 8
3.4284348 0.29211211 -0.30103594 6
3.9902842 0.33717951 -0.20986721 5
4.4695859 0.37532383 -0.078291491 4
5.2052412 0.4563165 0.091206275 4
5.4597907 0.4757511 0.28721976 42
5.4546666 0.47242716 0.47900796 41
5.3756008 0.46274385 0.66248184 56
5.3476439 0.45657408 0.85006499 60
5.311151 0.45065749 1.0360929 69
5.2507591 0.44276437 1.2165354 82
5.2112579 0.43668574 1.4012463 81
2.0121686 0.16330956 -0.54093182 12
2.1832979 0.17604798 -0.50569004 10
2.3992975 0.19177918 -0.46786368 9
2.6623297 0.21140096 -0.42299888 9
3.000123 0.23611435 -0.36950788 6
3.4145002 0.26692778 -0.29964143 6
3.9945321 0.30946812 -0.20997187 5
4.4720974 0.344109 -0.078291491 4
5.1882949 0.41926172 0.09085723 4
5.4549394 0.43793449 0.28680107 42
5.4359846 0.4325963 0.47709054 27
5.3806796 0.42536023 0.66272557 57
5.3368416 0.41908318 0.84787488 61
5.3219962 0.41417947 1.0376194 70
5.2478933 0.40564832 1.2151858 85
5.1969142 0.39805591 1.3965876 94
2.0075061 0.14847916 -0.53937894 12
2.1864452 0.16056289 -0.50613987 10
2.3947341 0.17417803 -0.46671882 9
2.6598334 0.1920598 -0.42237309 9
2.9858956 0.21350729 -0.36755794 8
3.4043982 0.24164094 -0.29859558 6
4.0026217 0.28129604 -0.21028589 5
4.4624763 0.31126586 -0.078082062 4
5.1991391 0.38271412 0.090996847 3
5.453949 0.39860004 0.28659174 42
5.405158 0.39124092 0.4741272 22
5.3717051 0.38599244 0.66126311 61
5.3337932 0.38046128 0.84693629 66
5.3013234 0.37442574 1.0330399 75
5.2467732 0.36781234 1.2142859 87
5.1687937 0.35871744 1.3883054 79
2.0142999 0.13449608 -0.54093182 12
2.1797602 0.14439768 -0.50434029 9
2.4076736 0.15780766 -0.46900854 9
2.659169 0.17289339 -0.42206025 7
3.0190089 0.19470213 -0.37145779 6
3.4100168 0.21752714 -0.29894418 6
3.9905345 0.25246099 -0.20955318 5
4.4725242 0.28060308 -0.078221686 6
5.2057357 0.3457652 0.091066658 3
5.4666262 0.36021888 0.28711507 45
5.4276395 0.3547959 0.47587034 49
5.3584828 0.34651875 0.6593132 61
5.3403215 0.34253669 0.84756202 64
5.2959709 0.33690786 1.0315135 76
5.2492709 0.33025786 1.2142859 87
5.1885252 0.32370883 1.3929642 91
2.0094044 0.12008461 -0.53937894 10
2.1709888 0.1286004 -0.50209081 9
2.4106765 0.14110981 -0.46939012 9
2.6563668 0.15409589 -0.42143452 7
3.0044398 0.17270935 -0.36950788 8
3.427366 0.19462068 -0.30033869 5
3.9882114 0.22437318 -0.20934384 5
4.4863539 0.25003979 -0.078431122 4
5.20403 0.30917668 0.090996847 3
5.4530578 0.32110664 0.28627771 61
5.4180508 0.31619874 0.47482449 55
5.3548255 0.30875817 0.65858197 62
5.3386383 0.30502048 0.84693629 66
5.2825131 0.29903913 1.0284605 36
5.2378292 0.29284152 1.2111366 21
nan nan nan nan
2.0236979 0.10676681 -0.54300237 12
2.1874022 0.11425516 -0.50569004 9
2.3919964 0.12326631 -0.46557397 9
2.6652691 0.1359497 -0.42268598 7
3.0035901 0.1516301 -0.36926416 9
3.4366009 0.17108467 -0.30103594 5
3.9657428 0.19534558 -0.20808777 4
4.4600272 0.21735245 -0.077942446 4
5.2300253 0.27409405 0.091415711 4
5.4292369 0.28168395 0.28491697 56
nan nan nan nan
nan nan nan nan
nan nan nan nan
nan nan nan nan
nan nan nan nan
nan nan nan nan
2.0186045 0.092370249 -0.54144943 12
2.1881466 0.098980382 -0.50569004 10
2.3986824 0.1068272 -0.46671882 9
2.677994 0.1178617 -0.4245632 6
3.0144916 0.13109004 -0.37048283 8
3.429749 0.14674783 -0.30033869 5
3.9789827 0.16816072 -0.20871581 6
4.4774199 0.18687743 -0.078221686 4
5.2278156 0.23739347 0.091345899 4
5.4330664 0.24386346 0.28502163 57
nan nan nan nan
8.0696535 0.35232911 0.99177283 1
7.9888964 0.34461257 1.2664937 1
7.9361253 0.33817348 1.5440264 1
7.8698993 0.329844 1.8185045 2
7.7941442 0.32258114 2.0902226 3
2.0172698 0.078200646 -0.54093182 12
2.1926789 0.083850756 -0.50658983 9
2.4013317 0.090151154 -0.46710047 9
2.6629596 0.098577045 -0.42206025 6
3.0113657 0.10989551 -0.36999539 6
3.4147608 0.12223155 -0.29894418 5
3.9920356 0.1408024 -0.20934384 5
4.486609 0.15589449 -0.078361303 4
5.2293458 0.20089312 0.091345899 4
5.4246569 0.20555203 0.2844983 52
nan nan nan nan
8.1036558 0.29714757 0.99567258 1
7.9911075 0.28883114 1.2664937 1
7.9206352 0.2821317 1.540592 1
7.8194261 0.27306119 1.8063571 2
7.7575922 0.26683539 2.07987 3
2.0139048 0.063993789 -0.53989661 12
2.1873674 0.06835936 -0.50524008 10
2.4058273 0.073504411 -0.46786368 6
2.6556847 0.079746515 -0.42080876 6
3.0239646 0.0892208 -0.37145779 8
3.4234977 0.098616898 -0.29964143 4
3.9769499 0.1124757 -0.20850646 4
4.4795923 0.12434417 -0.078221686 4
5.2306204 0.16438052 0.091345899 4
5.423964 0.16761407 0.28439364 50
nan nan nan nan
8.0063219 0.23762546 0.9834857 1
7.9198709 0.23090944 1.2549174 1
7.8596129 0.22503412 1.5283802 3
nan nan nan nan
7.6994014 0.21102989 2.0638232 12
2.0278213 0.050267641 -0.54352003 12
2.1741543 0.052756086 -0.50209081 9
2.4003937 0.056569159 -0.46671882 8
2.6640763 0.061387688 -0.42206025 6
3.024514 0.068108812 -0.37145779 8
3.4480054 0.075235546 -0.30173317 4
3.9796352 0.084751129 -0.20861115 3
4.4943461 0.093358383 -0.078466021 6
5.2316408 0.1278574 0.091345899 3
5.4150186 0.12950224 0.28387025 56
nan nan nan nan
7.9641252 0.18073419 0.97812337 1
7.9015417 0.17517488 1.2517889 1
7.8492155 0.16990325 1.5260904 2
7.8302684 0.16402069 1.8081566 17
7.7431793 0.15814061 2.0752113 12
2.0203967 0.035971992 -0.54144943 12
2.1822634 0.037711024 -0.5038904 10
2.398767 0.03977732 -0.46633717 9
2.6565392 0.04266056 -0.42080876 7
3.0050671 0.046683714 -0.3690204 8
3.4484468 0.051162094 -0.30173317 4
3.9761355 0.056908809 -0.2084018 3
4.4848905 0.061841805 -0.078291491 4
5.2563992 0.091751851 0.091764756 3
5.3998151 0.091427214 0.28303289 56
nan nan nan nan
8.0088596 0.12581186 0.9834857 3
7.9559007 0.1208135 1.2602363 3
7.9051762 0.11590341 1.5367758 3
7.8351212 0.10940927 1.8090566 6
7.7595472 0.10429057 2.0793524 9
2.0149114 -0.0063300519 -0.53989661 12
2.1845231 -0.008006732 -0.50434029 10
2.4088905 -0.010510834 -0.46824533 9
2.6528993 -0.012964615 -0.42018303 6
3.0212662 -0.016346784 -0.37097031 6
3.4208691 -0.020897159 -0.29929283 4
3.9904361 -0.026465964 -0.2091345 3
4.4812031 -0.032067366 -0.078221686 4
5.2451696 -0.01830917 0.091555327 3
5.3985476 -0.021671273 0.2829282 50
nan nan nan nan
7.9978275 -0.041876908 0.9820233 1
nan nan nan nan
9.7414761 -0.061208304 1.8935887 1
9.6966953 -0.067696802 2.238713 2
nan nan nan nan
2.0186815 -0.020435628 -0.54093182 12
2.1824653 -0.023236515 -0.5038904 10
2.4166105 -0.027416755 -0.46977177 9
2.6645958 -0.031625547 -0.42206025 6
3.013139 -0.037340239 -0.36999539 8
3.4286087 -0.044882949 -0.29999006 4
3.9641919 -0.053970128 -0.20777377 3
4.492867 -0.06352064 -0.078431122 3
5.2489128 -0.054968491 0.091625139 3
5.386282 -0.059227649 0.28230017 57
nan nan nan nan
9.7798204 -0.11948899 1.2009006 1
9.7733717 -0.12452832 1.5480757 1
9.6819191 -0.12843336 1.88214 1
nan nan nan nan
9.6968784 -0.14048107 2.5985434 2
2.0204213 -0.034561113 -0.54144943 12
2.1822498 -0.03847231 -0.5038904 9
2.408509 -0.04414317 -0.46824533 9
2.6722102 -0.050375938 -0.42331171 7
3.0008965 -0.0581441 -0.36853293 8
3.4521275 -0.068695195 -0.30208179 4
3.9717057 -0.081808381 -0.20819245 1
4.472321 -0.094462678 -0.078082062 3
5.2563992 -0.091750786 0.091764756 4
5.3737559 -0.096613832 0.28167215 57
nan nan nan nan
9.7946262 -0.18806644 1.2028506 1
9.7722645 -0.19275574 1.5480757 1
9.6219015 -0.19482988 1.8706915 1
nan nan nan nan
nan nan nan nan
2.016268 -0.048572309 -0.54041415 12
2.1955655 -0.054041889 -0.50703973 9
2.4022646 -0.060388207 -0.46710047 9
2.6639066 -0.068361089 -0.42206025 7
3.0123239 -0.079406589 -0.36999539 8
3.4356303 -0.092365362 -0.30068728 4
3.9670641 -0.10873139 -0.20798311 1
4.467555 -0.12557046 -0.078012258 3
5.2676473 -0.1278186 0.091974184 3
5.382957 -0.13343678 0.28219551 64
nan nan nan nan
9.7534304 -0.25369909 1.1979758 1
9.7707262 -0.25926846 1.5480757 1
9.6870327 -0.26381534 1.8836665 1
nan nan nan nan
7.7706642 -0.21976893 2.0829759 3
2.0120292 -0.062176041 -0.53937894 14
2.1990421 -0.069107682 -0.50793952 10
2.3978596 -0.077031478 -0.46633717 9
2.6554668 -0.086699001 -0.42080876 7
3.0196495 -0.1001721 -0.37097031 8
3.4229546 -0.11594345 -0.29964143 4
3.9781847 -0.1368358 -0.20861115 1
4.4785881 -0.15639573 -0.078221686 4
5.262629 -0.16446537 0.091904372 3
5.3779016 -0.17088649 0.28198618 56
nan nan nan nan
9.7911024 -0.32309356 1.2028506 1
9.7686777 -0.32747412 1.5480757 1
9.6143751 -0.32734129 1.8699282 1
nan nan nan nan
7.7457724 -0.27319548 2.0767641 3
2.0211983 -0.076586768 -0.54196709 12
2.1809804 -0.083784811 -0.5038904 10
2.4129577 -0.094383575 -0.46939012 9
2.6547968 -0.10523539 -0.42080876 7
3.0248272 -0.12148961 -0.37170154 9
3.4220617 -0.13983718 -0.29964143 4
3.9771326 -0.1646052 -0.20861115 1
4.4813824 -0.18782555 -0.078291491 3
5.2493629 -0.20074266 0.091694944 3
5.3785734 -0.20850421 0.28209084 63
nan nan nan nan
nan nan nan nan
nan nan nan nan
nan nan nan nan
nan nan nan nan
7.7591176 -0.32791659 2.0809052 3
2.0167544 -0.090522163 -0.54093182 12
2.1842358 -0.099185571 -0.50479025 9
2.4142013 -0.11131719 -0.46977177 9
2.6618907 -0.12413474 -0.42206025 7
3.0060589 -0.14176215 -0.36950788 8
3.4250109 -0.16331677 -0.29999006 4
3.9778814 -0.19246311 -0.20871581 3
4.4919457 -0.2196928 -0.078500926 3
5.2558241 -0.23774636 0.09183456 3
5.3690057 -0.24568316 0.28167215 57
nan nan nan nan
nan nan nan nan
nan nan nan nan
nan nan nan nan
5.212585 -0.25311407 1.2048379 1
7.7451291 -0.38015503 2.0777996 3
2.0238087 -0.1046466 -0.54300237 12
2.1893482 -0.11435572 -0.50613987 11
2.407506 -0.12743612 -0.46862692 9
2.6708467 -0.14277788 -0.4236246 9
3.0050244 -0.1622203 -0.36950788 8
3.4317775 -0.18705986 -0.30068728 4
3.9824617 -0.21986531 -0.20902982 3
4.4783669 -0.24959549 -0.078291491 3
5.2421026 -0.27289212 0.091625139 3
5.359231 -0.28180331 0.28125346 57
nan nan nan nan
nan nan nan nan
nan nan nan nan
nan nan nan nan
nan nan nan nan
7.7616501 -0.43394357 2.0829759 3
2.0134068 -0.11785526 -0.54041415 12
2.19241 -0.12948518 -0.50703973 10
2.4007034 -0.14346905 -0.46748206 9
2.6737566 -0.16119204 -0.42425033 9
3.0117447 -0.18367858 -0.37048283 8
3.4343653 -0.2112581 -0.30103594 2
3.9808729 -0.24696776 -0.20902982 3
4.4765153 -0.28085405 -0.078291491 3
5.2441158 -0.30880249 0.091694944 4
5.3571887 -0.31827563 0.28125346 57
nan nan nan nan
nan nan nan nan
nan nan nan nan
14.617933 -0.90431494 2.8468704 3
5.2085996 -0.32495937 1.2048379 1
7.7391515 -0.48690608 2.0777996 3
2.0105844 -0.13213307 -0.53989661 12
2.1953163 -0.1454279 -0.50793952 10
2.4035616 -0.16048709 -0.46824533 9
2.6646512 -0.17978886 -0.42299888 9
3.0222719 -0.20550789 -0.37194526 8
3.4208803 -0.23441191 -0.29999006 4
3.9770114 -0.27530977 -0.20892516 4
4.4824252 -0.31265557 -0.078431122 4
5.2258697 -0.34435365 0.091415711 3
5.3587599 -0.35686785 0.28146279 59
nan nan nan nan
nan nan nan nan
nan nan nan nan
14.611264 -1.0063446 2.8468704 3
5.2062039 -0.36131406 1.2048379 1
7.7277603 -0.54173297 2.0757289 3
2.0115395 -0.14630638 -0.54041415 12
2.1845298 -0.16003852 -0.50569004 11
2.4062672 -0.17797197 -0.46900854 9
2.6515114 -0.19750665 -0.42112163 9
3.0286419 -0.22772473 -0.37292022 8
3.4310355 -0.25978759 -0.30103594 4
3.9610519 -0.30200478 -0.20819245 4
4.4720974 -0.34410915 -0.078291491 3
5.2352376 -0.38261455 0.091625139 3
5.3561382 -0.39427009 0.28146279 63
nan nan nan nan
nan nan nan nan
nan nan nan nan
14.603688 -1.1108738 2.8468704 3
5.1762824 -0.39647573 1.1985393 1
7.7045283 -0.5941838 2.0705523 3
2.0162182 -0.16115858 -0.54196709 12
2.1775012 -0.1751976 -0.50434029 10
2.4108367 -0.19524185 -0.47015342 8
2.6598742 -0.21727942 -0.42268598 9
3.0151079 -0.247887 -0.37145779 8
3.4331098 -0.2840628 -0.30138457 4
3.9627702 -0.33067366 -0.2084018 4
4.4695859 -0.3753216 -0.078291491 3
5.220479 -0.41819575 0.091415711 3
5.3372536 -0.43130037 0.28062543 59
nan nan nan nan
nan nan nan nan
nan nan nan nan
5.2121468 -0.43309599 1.0166303 1
5.161737 -0.4316287 1.1958399 1
7.7308798 -0.65189779 2.0788348 3
2.018893 -0.17556512 -0.54300237 12
2.182049 -0.19090454 -0.50569004 10
2.4015551 -0.21179838 -0.46862692 9
2.672066 -0.23706537 -0.42487606 9
3.0113268 -0.26875374 -0.37121406 9
3.4349577 -0.30897912 -0.30173317 4
3.9583762 -0.35815081 -0.20829713 6
4.466857 -0.40651581 -0.078291491 3
5.2253218 -0.45623741 0.091555327 3
5.3241644 -0.46767679 0.28010207 64
nan nan nan nan
nan nan nan nan
14.846717 -1.3302581 2.3609092 2
5.23246 -0.47158757 1.0212098 1
5.137167 -0.46661481 1.1908909 3
7.7069016 -0.70409554 2.0736582 3
2.0080013 -0.18875127 -0.54041415 10
2.1884234 -0.20686692 -0.50748962 11
2.3941545 -0.22800073 -0.46748206 8
2.670346 -0.25571397 -0.42487606 9
3.0153048 -0.29034081 -0.37194526 6
3.4247844 -0.33218256 -0.30103594 4
3.9716821 -0.38732734 -0.2091345 6
4.4678907 -0.43808052 -0.078361303 3
5.2299724 -0.49345699 0.091694944 4
5.3247466 -0.50521207 0.28031141 64
nan nan nan nan
nan nan nan nan
14.83707 -1.4338746 2.3609092 2
5.2212243 -0.50734568 1.0196834 1
5.1376638 -0.50284702 1.1917908 4
7.6979537 -0.75750399 2.072623 3
2.0124011 -0.20334773 -0.54196709 12
2.1927423 -0.22273062 -0.50883931 10
2.404223 -0.24590795 -0.46977177 9
2.6645658 -0.27394611 -0.42425033 9
3.029001 -0.3130168 -0.37389517 5
3.4224443 -0.35548639 -0.30103594 4
