# .PCD v0.7 - Point Cloud Data file format
VERSION 0.7
FIELDS x y z intensity
SIZE 4 4 4 4
TYPE F F F F
COUNT 1 1 1 1
WIDTH 1521
HEIGHT 1
VIEWPOINT 0 0 0 1 0 0 0
POINTS 1521
DATA ascii
-10.153001 22.074192 2.1257286 6
-10.478141 22.823051 3.0835385 9
-9.8362188 21.454462 3.7381585 8
-10.200294 22.279354 4.7629747 15
-9.6955395 21.215994 5.3853283 10
-9.5756273 20.982679 6.1800814 8
-1.7599554 3.8834021 -1.1424273 3
-2.0794177 4.5947032 -1.1643467 29
-2.3648515 5.235127 -1.1166143 19
-2.8989835 6.4265141 -1.1166294 8
-3.2221258 7.1528502 -0.96325535 26
-3.1852562 7.0809002 -0.67929184 22
-3.2101738 7.1496291 -0.41073263 11
-3.2782459 7.3114796 -0.13986358 6
nan nan nan nan
-10.544051 23.319914 1.341266 11
-10.212639 22.618479 2.1712239 7
-10.858497 24.093725 3.2448933 9
-9.7721319 21.713552 3.7713227 8
-9.9197636 22.072458 4.7038236 15
-10.20597 22.741161 5.7546983 11
-9.1106348 20.338511 5.9714732 7
-1.7218095 3.870883 -1.1351804 4
-2.0504541 4.6162319 -1.1661463 23
-2.3291624 5.2511029 -1.1166143 21
-2.8383727 6.4081693 -1.110059 11
-3.1640844 7.1570144 -0.96081799 23
-3.1140189 7.0537524 -0.6745854 24
-3.0937572 7.0177999 -0.40194017 20
-3.1578572 7.1767807 -0.13686177 8
-10.905561 24.528847 0.46856222 8
-10.624966 23.931475 1.3722489 12
-11.326632 25.559988 2.4459386 8
-10.687819 24.152557 3.2429435 9
-9.5985565 21.721746 3.7613106 8
-9.8319769 22.292065 4.7358794 15
nan nan nan nan
-8.9984369 20.460176 5.9890728 7
-1.6907843 3.8718898 -1.1320745 3
-2.0127535 4.6157918 -1.1625471 19
-2.2900956 5.2618351 -1.1154695 21
-2.7730944 6.3807249 -1.1019244 23
-3.0836835 7.105546 -0.95106846 31
-3.081778 7.1113482 -0.67807168 24
-3.0359666 7.0190625 -0.40078878 31
-3.1192441 7.2219729 -0.13731554 11
-11.116269 25.480494 0.48524672 9
-10.479969 24.056337 1.3751796 24
-10.241566 23.542749 2.2461777 7
-10.53159 24.255718 3.2468433 9
-10.291392 23.736519 4.0976448 9
-9.4857874 21.909861 4.6408567 30
-9.7197838 22.482613 5.65482 10
-8.7183771 20.204994 5.8964157 22
-1.6507782 3.8534124 -1.1232747 4
-1.9935095 4.6601896 -1.1701955 14
-2.260396 5.2917452 -1.1185224 21
-2.7249479 6.3885512 -1.1000473 23
-3.0798779 7.234663 -0.96544904 26
-3.0063343 7.0721807 -0.67231935 22
-2.9873385 7.0377269 -0.40068412 20
-3.0250661 7.1404624 -0.13536087 17
nan nan nan nan
-10.333254 24.167515 1.3774825 12
-9.6531096 22.620459 2.151701 6
-9.1180296 21.397615 2.8558865 8
-10.077765 23.684237 4.0766826 9
-9.4216175 22.185169 4.6851244 7
-9.5800877 22.591187 5.6651678 10
-8.6597385 20.450657 5.9507675 7
-1.619348 3.8541563 -1.1201688 4
-1.9217254 4.5805483 -1.1468005 6
-2.2406695 5.3512464 -1.1276813 23
-2.679163 6.407887 -1.1000473 23
-3.0017631 7.1900415 -0.95667446 47
-2.9691541 7.1224208 -0.67510837 13
-2.9599178 7.1142445 -0.4038243 23
-2.985116 7.1854138 -0.13581464 11
nan nan nan nan
-10.209461 24.35873 1.3841815 12
-9.465724 22.617458 2.1450772 6
-9.0274162 21.612514 2.8758731 8
-10.371871 24.86787 4.2675328 10
-9.3065109 22.346458 4.7053504 7
-9.450573 22.725895 5.6822643 11
-9.3484974 22.524771 6.5346637 9
-1.5762109 3.8260715 -1.1087809 4
-1.872647 4.552403 -1.1364528 4
-2.1937499 5.34095 -1.1223387 21
-2.6167443 6.3802838 -1.0922256 21
-2.9672887 7.2494011 -0.96179295 23
-2.9088051 7.1171556 -0.67266804 16
-2.9038777 7.1157355 -0.40277758 8
-2.9167769 7.1616306 -0.13497691 14
-18.460415 44.832699 0.84630209 24
-10.057101 24.460903 1.3860656 12
-9.4467716 23.022142 2.1771505 7
-8.8274117 21.544878 2.8588111 8
-10.259206 25.076843 4.2913108 10
-9.9012957 24.250286 5.0915475 8
-9.1747112 22.504396 5.6107297 10
-9.1862183 22.566412 6.5284519 9
-1.5371064 3.8044696 -1.0994633 4
-1.8387024 4.5578146 -1.1346532 4
-2.1806085 5.4162335 -1.134932 26
-2.5294068 6.2920914 -1.0740792 18
-2.8698108 7.1496863 -0.94594997 36
-2.8694193 7.1631823 -0.67510837 11
-2.8526461 7.1321259 -0.40256822 11
-2.8724113 7.1924615 -0.13518634 14
-18.118534 44.890022 0.84497577 24
-9.7233353 24.126678 1.363247 11
-17.981668 44.685753 4.2141542 28
-8.6619892 21.569139 2.8539364 8
-10.051538 25.067184 4.2775445 10
-9.0332737 22.561958 4.7240496 7
-9.3160038 23.315275 5.7965393 11
nan nan nan nan
-1.5033971 3.7971458 -1.0942869 4
-1.7925096 4.5342951 -1.1256552 4
-2.1362584 5.4148884 -1.1314974 28
-2.4839671 6.305922 -1.0734534 21
-2.8968396 7.3653669 -0.97178626 21
-2.8040574 7.1440916 -0.67144781 33
-2.8355825 7.2355461 -0.40727845 17
-2.8184888 7.2030268 -0.13501182 17
nan nan nan nan
-9.4813004 24.008207 1.35278 11
-17.641514 44.739758 4.2075305 28
-8.8368568 22.456635 2.9631314 8
-9.2608404 23.570292 4.0109801 9
-8.7773142 22.374084 4.6717677 7
-9.1252995 23.308973 5.7789927 11
nan nan nan nan
-1.4670709 3.7823336 -1.0870401 4
-1.7439202 4.5030851 -1.1148576 4
-2.1139734 5.4699578 -1.1398931 33
-2.4434414 6.3323236 -1.0750178 24
-2.8317931 7.350215 -0.96715516 28
-2.7655504 7.1932502 -0.67423683 22
-2.7885749 7.2644901 -0.40780181 11
-2.7838743 7.2636085 -0.13577972 25
nan nan nan nan
-8.8998175 23.004612 1.2926983 10
-8.7907219 22.758022 2.1344442 6
-8.8862057 23.053082 3.033572 8
-9.0861301 23.608559 4.0065999 9
-9.5779295 24.925327 5.1903868 8
-9.0070152 23.488558 5.8077865 11
nan nan nan nan
-1.4351413 3.7780361 -1.0828989 4
-1.7000012 4.4823523 -1.1067592 4
-2.0534966 5.4258261 -1.1276813 28
-2.3921916 6.330749 -1.071889 27
-2.7972267 7.414381 -0.97300488 23
-2.7328174 7.258996 -0.67859459 16
-2.7574708 7.3361273 -0.41073263 11
-2.7534757 7.3371596 -0.13679196 20
-16.953096 44.676308 0.83408546 23
-8.7559805 23.11101 1.2952104 10
-8.5858078 22.697708 2.1231139 6
-9.6581211 25.586473 3.3579881 10
-16.766577 44.488808 7.5301304 43
-9.2854557 24.677378 5.1251297 8
nan nan nan nan
nan nan nan nan
-1.3979565 3.7589924 -1.0746168 4
-1.6591705 4.4685349 -1.1004606 4
-2.0026076 5.4050517 -1.1204305 26
-2.3534191 6.3621173 -1.0743921 24
-2.7165122 7.3555179 -0.9627679 23
-2.7012649 7.3260331 -0.68312669 16
-2.7365324 7.4376731 -0.41533819 11
-2.723557 7.4143944 -0.13787402 17
nan nan nan nan
-8.5708065 23.107906 1.2916515 10
-16.484812 44.516464 4.1531453 27
-8.5421352 23.117182 3.0260162 8
-8.8950911 24.111189 4.070425 9
-8.1745119 22.193752 4.5973525 7
nan nan nan nan
-8.9201326 24.309635 6.9384212 10
-1.3663938 3.7541373 -1.0704756 4
-1.614623 4.4433784 -1.0914626 3
-1.970457 5.4314771 -1.1231018 28
-2.3066955 6.3687024 -1.0728277 24
-2.7271681 7.5460601 -0.98519188 23
-2.6541109 7.3559575 -0.68417257 5
-2.6655359 7.399756 -0.41219804 20
-2.685936 7.4727445 -0.13860701 20
-9.2697248 25.482204 0.47330925 9
-8.3846827 23.086864 1.2872553 10
-9.1546011 25.261751 2.3507648 8
-8.8316717 24.41053 3.187371 9
-8.2630215 22.876228 3.8523557 8
-8.4926653 23.563465 4.8686824 8
nan nan nan nan
-8.7596817 24.384338 6.9425626 10
-1.3349733 3.7469728 -1.0658169 4
-1.5738913 4.4248891 -1.0842642 3
-1.9443096 5.4784045 -1.1299709 19
-2.2483232 6.3455496 -1.0662575 27
-2.7015576 7.637435 -0.99469769 18
-2.6152911 7.4100051 -0.6874845 19
-2.6390333 7.4897666 -0.41617554 11
-2.6675227 7.5832863 -0.14031734 18
-15.851318 44.540222 0.82521957 22
-8.1711559 22.998037 1.2790909 10
nan nan nan nan
-15.697427 44.352772 5.7768507 29
-8.2643471 23.389677 3.9290085 8
-8.3275042 23.607767 4.8660111 8
nan nan nan nan
-8.5610552 24.364702 6.9197865 10
-1.3036987 3.7416065 -1.0616758 4
-1.5340002 4.4100003 -1.0779655 3
-1.9040847 5.4862804 -1.1288261 14
-2.2110817 6.3816228 -1.069699 30
-2.6170249 7.5660596 -0.98299813 18
-2.6096439 7.5618033 -0.69986063 16
-2.6192091 7.6024251 -0.42140913 12
-2.6476855 7.6981649 -0.14209749 15
-8.5337677 24.519436 0.4531692 25
-8.3342142 23.986519 1.3307989 11
-15.406559 44.416279 4.1130538 26
nan nan nan nan
-8.4763002 24.53344 4.1110983 9
nan nan nan nan
nan nan nan nan
nan nan nan nan
-1.2682022 3.7231865 -1.0539112 4
-1.4943901 4.394773 -1.071667 3
-1.827264 5.3860292 -1.1055473 4
-2.1702807 6.4081287 -1.0715762 27
-2.6677778 7.8906693 -1.0227276 26
-2.6013656 7.7119889 -0.71206236 8
-2.6151481 7.7662721 -0.4294689 18
-2.6098068 7.7638483 -0.14297011 18
-8.3443584 24.525402 0.45219186 25
-8.6219749 25.384939 1.4050112 12
-15.048779 44.383118 4.1001549 26
-8.2529945 24.396454 3.162266 9
-8.2011547 24.285089 4.0597878 9
nan nan nan nan
nan nan nan nan
nan nan nan nan
-1.2354674 3.7117867 -1.0482172 4
-1.4575297 4.3866048 -1.0671679 5
-1.7698499 5.3390212 -1.0933356 4
-2.1155615 6.3931179 -1.0665703 27
-2.6362824 7.9807296 -1.0319897 23
-2.5817611 7.8340378 -0.72164959 5
-2.6001868 7.9038663 -0.43606326 21
-2.6204283 7.9794664 -0.14660022 18
-14.772478 44.433571 0.81733108 22
-8.4665642 25.51086 1.4086747 25
-14.702216 44.377403 4.0900445 26
-14.604416 44.185501 5.7139664 28
-14.548909 44.095028 7.3542976 41
nan nan nan nan
nan nan nan nan
nan nan nan nan
-1.1999674 3.6909263 -1.039935 4
-1.4208544 4.3781376 -1.0626689 3
-1.7207613 5.3117232 -1.0853217 2
-2.057513 6.3663797 -1.0596871 27
-2.5500319 7.9044771 -1.0198027 7
-2.6425846 8.206069 -0.75424576 6
-2.5744464 8.0088472 -0.44087815 12
-2.5868294 8.0618553 -0.14778697 18
-14.397682 44.337822 0.81370097 22
-8.3030386 25.614944 1.4111868 12
nan nan nan nan
-14.269759 44.179993 5.7005606 28
-14.181144 43.984352 7.3195691 40
nan nan nan nan
nan nan nan nan
nan nan nan nan
-1.1683837 3.6787558 -1.034241 6
-1.3768864 4.3431244 -1.0518712 3
-1.6727191 5.2858777 -1.0776893 2
-2.0152442 6.3798852 -1.0596871 27
-2.4880006 7.8909245 -1.015903 13
-2.5944378 8.2485752 -0.75651181 6
-2.5892701 8.2472296 -0.45302007 9
-2.5928893 8.2739124 -0.15134728 18
-14.063376 44.306538 0.81139725 21
nan nan nan nan
-8.0904598 25.597324 2.3486729 8
nan nan nan nan
-13.837515 43.940437 7.2964172 40
-13.764465 43.788479 8.9222288 38
nan nan nan nan
nan nan nan nan
-1.139379 3.6716633 -1.0300999 5
-1.3399792 4.3260999 -1.0455725 3
-1.625109 5.2596259 -1.0700569 2
-1.9822499 6.4274325 -1.0653188 27
-2.4015255 7.8014321 -1.0022535 15
-2.5703979 8.3707981 -0.76609892 6
-2.5828214 8.4269762 -0.46191719 18
-2.6295233 8.5954113 -0.15689714 12
-13.722392 44.275173 0.80909353 21
-7.9309034 25.636446 1.406372 12
-7.8382163 25.383902 2.3242693 7
nan nan nan nan
-13.525908 43.993958 7.2898469 40
-13.485671 43.944973 8.9352045 38
nan nan nan nan
nan nan nan nan
-1.1131603 3.6776786 -1.0295821 6
-1.3029836 4.312963 -1.0401738 3
-1.5724895 5.2182097 -1.0593716 2
-1.9418812 6.4562478 -1.0678217 27
-2.3304503 7.7628713 -0.99518514 18
-2.5439022 8.4954233 -0.77586043 6
-2.5691094 8.5959787 -0.47018626 15
-2.6757743 8.9699821 -0.16338943 16
-13.366669 44.216766 0.80630118 21
nan nan nan nan
-13.293526 44.141628 4.0332189 25
-13.231836 44.048134 5.647182 27
nan nan nan nan
-13.14928 43.940247 8.9153605 38
nan nan nan nan
nan nan nan nan
-1.079802 3.6594207 -1.0223353 5
-1.2651322 4.295784 -1.0338751 3
-1.5161042 5.1612482 -1.0456334 2
-1.9101021 6.515141 -1.0753307 27
-2.2380691 7.6535993 -0.97909838 18
-2.5944958 8.8897581 -0.8101998 3
-2.6537867 9.1165705 -0.49761033 16
-2.7024553 9.3019085 -0.16907892 13
-13.025996 44.201588 0.8043465 21
nan nan nan nan
-12.940297 44.109451 4.0217142 24
-12.894994 44.040367 5.6345077 27
nan nan nan nan
-12.797155 43.905048 8.88941 38
nan nan nan nan
nan nan nan nan
-1.0487871 3.6503429 -1.0176765 5
-1.2257656 4.2747555 -1.0266767 3
-1.4704926 5.1417642 -1.0395275 2
-1.8536696 6.4944515 -1.069699 21
-2.1908526 7.6961474 -0.98251075 18
-2.6484265 9.3220701 -0.84785104 8
-2.6832225 9.4696875 -0.51582325 26
-9.2645607 32.762077 -0.59428936 38
-12.669676 44.15527 0.80183339 21
nan nan nan nan
-12.544988 43.92313 3.9964395 24
nan nan nan nan
nan nan nan nan
-12.439781 43.844402 8.85888 38
nan nan nan nan
nan nan nan nan
-1.013798 3.6261256 -1.0088767 3
-1.1799587 4.228982 -1.0136294 5
-1.4241877 5.1181097 -1.0326583 2
-1.7828351 6.4199958 -1.055307 21
-2.1052606 7.5964761 -0.96788639 21
-2.6199276 9.4728317 -0.85987854 12
-6.8044257 24.669678 -1.3411614 13
-8.6779232 31.526489 -0.57076353 35
-12.318966 44.121532 0.79959947 21
-12.269089 44.031887 2.3955216 45
-12.200163 43.873348 3.9840631 24
nan nan nan nan
-12.135024 43.846634 7.2056856 38
-12.100981 43.812847 8.8352203 37
nan nan nan nan
nan nan nan nan
-0.98490793 3.6200662 -1.0052532 5
-1.1412151 4.2032652 -1.0055313 5
-1.3759702 5.0784168 -1.0227362 2
-1.7447687 6.4529572 -1.0587486 3
-2.0532131 7.6148205 -0.96837389 18
-2.6101632 9.7006035 -0.87887847 4
-6.6156292 24.638264 -1.3369745 12
-8.1421089 30.407999 -0.54947156 31
-11.963793 44.003681 0.79596937 21
nan nan nan nan
-11.857124 43.822834 3.9718614 23
-11.846205 43.873569 5.5799103 26
-11.819327 43.865276 7.1953607 38
-11.763248 43.778702 8.8115597 37
nan nan nan nan
nan nan nan nan
-0.95480508 3.606144 -0.99955922 7
-1.1085954 4.1958628 -1.001932 5
-1.3314794 5.0537267 -1.0158671 2
-1.6780787 6.3828316 -1.0452952 3
-1.999318 7.6209393 -0.96739888 18
-2.8403823 10.857757 -0.98189658 10
-6.4212651 24.598822 -1.332369 12
-7.8774767 30.242113 -0.54549241 31
-11.571445 43.765209 0.79017514 20
nan nan nan nan
-11.540823 43.835083 3.9657605 23
-11.515446 43.863033 5.5682106 26
-11.484791 43.83971 7.1778398 38
-11.418309 43.679211 8.7756872 37
nan nan nan nan
nan nan nan nan
-0.92286634 3.586529 -0.99231225 6
-1.0753988 4.1884003 -0.99833286 4
-1.2864271 5.0248609 -1.0082349 2
-1.616854 6.3293185 -1.0346577 3
-1.9578328 7.6808777 -0.97324866 18
-2.7164159 10.688084 -0.96481407 10
-4.7637525 18.784781 -1.0156317 34
-7.5876832 29.986193 -0.53990763 30
-11.241738 43.751961 0.78849971 20
-11.284525 44.01408 2.3812864 45
-11.228096 43.889488 3.9634945 23
-11.179505 43.82695 5.5535865 26
nan nan nan nan
-11.043484 43.48386 8.7207346 36
nan nan nan nan
nan nan nan nan
-0.89265347 3.5722682 -0.98661828 5
-1.0409462 4.1750069 -0.99338394 4
-1.2427903 4.999424 -1.0013657 2
-1.5559834 6.2733469 -1.0237073 3
-1.9132193 7.7309713 -0.97787964 23
-2.631233 10.664231 -0.96097922 10
-4.5747252 18.582918 -1.0029664 8
-4.274827 17.403961 -0.31281695 7
-10.912782 43.736248 0.78682435 20
-10.928723 43.897976 2.3708191 45
nan nan nan nan
-10.849401 43.807583 5.5413995 26
-10.752152 43.512527 7.0989966 37
-10.714752 43.458866 8.7005091 36
nan nan nan nan
nan nan nan nan
-0.86359537 3.5615158 -0.98195946 6
-1.0062751 4.1594429 -0.98798507 4
-1.1954291 4.9564486 -0.99106199 4
-1.4867312 6.1784263 -1.0064995 3
-1.8592041 7.7441392 -0.97787964 23
-2.5288875 10.566082 -0.95052046 10
-4.0445457 16.937904 -0.91263455 13
-4.0489416 16.995699 -0.30496335 14
-10.575202 43.679203 0.78445077 20
nan nan nan nan
nan nan nan nan
-10.478377 43.612034 5.5072761 25
-10.42417 43.486641 7.0827274 36
-10.380953 43.40659 8.6753225 35
nan nan nan nan
nan nan nan nan
-0.8388921 3.5654311 -0.98144192 5
-0.96814197 4.1244578 -0.97808719 4
-1.15272 4.9262381 -0.98342961 4
-1.434765 6.1460819 -0.99961638 3
-1.8118551 7.7798142 -0.98080456 26
-2.4163802 10.400194 -0.9341352 9
-3.9206052 16.928072 -0.91064578 19
-3.9277675 16.999485 -0.30454451 14
-10.252468 43.643108 0.78253096 40
nan nan nan nan
-10.2171 43.698032 3.9261916 22
-10.137118 43.492889 5.4833899 25
-10.101976 43.444996 7.0645814 36
-10.058633 43.361496 8.6524248 35
nan nan nan nan
nan nan nan nan
-0.80753887 3.5429475 -0.97367728 3
-0.93413943 4.1083136 -0.97268844 4
-1.1122104 4.9033365 -0.97732371 4
-1.378943 6.0940528 -0.98960453 3
-1.7553101 7.7825923 -0.97958583 23
-2.327965 10.346835 -0.92786002 9
-3.8131611 16.989445 -0.91252983 19
-3.8124855 17.042101 -0.30482376 14
-9.9325352 43.612446 0.78075087 20
-9.9339104 43.724197 2.3498847 44
-9.8475533 43.484589 3.9007423 22
-9.8093624 43.421467 5.4658403 25
-9.7704306 43.354729 7.0389261 36
-9.7294207 43.313816 8.6291466 35
nan nan nan nan
nan nan nan nan
-0.77965736 3.5313842 -0.96901858 6
-0.90028739 4.0879321 -0.96638978 4
-1.0703775 4.8764648 -0.97045463 4
-1.3274952 6.0630078 -0.98303431 3
-1.7247435 7.8971467 -0.992504 28
-2.2306721 10.247973 -0.91757566 9
-3.7029352 17.054688 -0.91462332 32
-3.7256002 17.202509 -0.30723214 7
-9.604557 43.575272 0.77886599 19
-9.5700674 43.527199 2.3356493 43
-9.5286932 43.447472 3.8915038 22
-9.4907236 43.419075 5.4570661 25
-9.4574203 43.375561 7.0314174 36
-9.4176989 43.302296 8.6138811 70
nan nan nan nan
nan nan nan nan
-0.75095165 3.5178485 -0.96384215 3
-0.86929142 4.0826821 -0.9636904 4
-1.0314171 4.8607726 -0.96587521 4
-1.2687744 5.9948249 -0.97051954 3
-1.6687528 7.9051104 -0.99201655 28
-2.1570225 10.253549 -0.91670412 13
-3.608799 17.19936 -0.92100829 13
-3.6459651 17.421873 -0.31068772 14
-9.2747068 43.521954 0.7767368 39
-9.2394018 43.467918 2.3289504 43
-9.2032404 43.409637 3.8822653 21
-9.1623182 43.365807 5.4421978 25
-9.1217642 43.2859 7.0063877 35
-9.0860662 43.228661 8.5864058 34
nan nan nan nan
nan nan nan nan
-0.72091264 3.4965165 -0.95659518 5
-0.83173794 4.0447493 -0.95334268 4
-0.98248166 4.7947693 -0.9513737 4
-1.2142351 5.9416041 -0.96050775 3
-1.6127313 7.9126782 -0.99152911 5
-2.0816274 10.240658 -0.91426373 9
-3.481905 17.190855 -0.91922885 6
-5.7522082 28.476414 -0.50709713 25
-8.9488726 43.479881 0.77485198 19
-8.9196482 43.453098 2.3247633 43
-8.8756037 43.35376 3.8716323 21
-8.8359337 43.313953 5.4278173 24
-8.7996578 43.251743 6.9907446 35
-8.7692165 43.217926 8.5719042 34
nan nan nan nan
nan nan nan nan
-0.69271588 3.4825168 -0.95141882 5
-0.80006933 4.0332537 -0.94929355 4
-0.94601196 4.7820868 -0.94755751 4
-1.1634407 5.8974051 -0.95206028 3
-1.5371561 7.8205099 -0.97861093 5
-1.9840181 10.121988 -0.90241051 9
-3.2858727 16.810366 -0.89766639 6
-5.5601459 28.551208 -0.50772542 25
-8.6308994 43.429947 0.7728973 19
-8.593359 43.359997 2.3165991 43
-8.5568972 43.334526 3.8644857 21
-8.5248127 43.29129 5.4175801 24
-8.4906044 43.236977 6.9788556 35
-8.446949 43.174046 8.5512962 34
-8.4180393 43.146149 10.148892 49
nan nan nan nan
-0.66754085 3.4795623 -0.94934833 5
-0.77259916 4.0386057 -0.94929355 4
-0.90451783 4.7461467 -0.93916196 4
-1.1163399 5.8743334 -0.94705439 3
-1.448185 7.6496582 -0.95594323 2
-1.9092444 10.114057 -0.90049314 9
-3.2013235 17.00758 -0.90698218 19
-5.3297148 28.424236 -0.50479341 25
-8.313179 43.414516 0.77157092 38
-8.2754765 43.340454 2.312412 43
-8.2471962 43.315434 3.8576872 21
-8.2031384 43.248333 5.4049058 24
-8.1723728 43.209797 6.9650888 35
-8.1293373 43.147072 8.5345049 68
-8.0986261 43.108105 10.126397 48
nan nan nan nan
-0.63736862 3.4557526 -0.94158375 5
-0.73663068 4.0056987 -0.94029552 4
-0.86711264 4.7291727 -0.93458253 4
-1.0629189 5.8199883 -0.93704253 3
-1.3801645 7.5795097 -0.94594997 2
-1.7969482 9.8977795 -0.8800987 8
nan nan nan nan
-5.1134195 28.362352 -0.50304818 25
-7.9910436 43.369232 0.76975584 19
-7.950706 43.319988 2.3082254 42
-7.9198117 43.279266 3.8493204 21
-7.8846183 43.214718 5.3936939 24
-7.8368454 43.123348 6.941937 34
-7.8100657 43.104259 8.5150433 67
-7.7780776 43.056206 10.101203 48
nan nan nan nan
-0.609519 3.4391937 -0.93588972 6
-0.70525706 3.9915538 -0.9357965 4
-0.82848585 4.7081871 -0.92923987 4
-1.0120221 5.7688966 -0.92765647 3
-1.3111429 7.4970565 -0.9344942 2
-1.7243659 9.9005699 -0.8792271 8
nan nan nan nan
-4.9234738 28.444649 -0.50388587 25
-7.6641264 43.332752 0.76811528 19
-7.6335149 43.291828 2.303829 42
-7.5998807 43.233429 3.8404307 21
-7.5618281 43.193768 5.3841877 24
-7.5260878 43.122524 6.9331765 34
-7.4927969 43.064892 8.4967251 33
-7.4531403 43.014751 10.078708 48
nan nan nan nan
-0.58387327 3.4338429 -0.93330151 6
-0.67541772 3.9848523 -0.93309706 6
-0.78873706 4.6732025 -0.92122585 5
-0.96386021 5.7290692 -0.92014766 3
-1.2443291 7.4198852 -0.92376971 2
-1.6542205 9.9064722 -0.87870419 8
-2.7522643 16.535511 -0.87851149 11
-4.7051353 28.359962 -0.5017916 25
-7.3410149 43.264942 0.76598614 38
-7.3131089 43.237724 2.2981768 42
-7.2766695 43.159687 3.8292744 20
-7.2361016 43.102596 5.366395 23
-7.2101808 43.086342 6.9190974 34
-7.1748447 43.013515 8.4764996 33
-7.1424422 43.004219 10.064311 48
nan nan nan nan
-0.55926526 3.4340219 -0.93226624 3
-0.63946342 3.9394577 -0.92139959 4
-0.75013959 4.6417713 -0.91397518 3
-0.91504204 5.6810517 -0.91138726 3
-1.1767627 7.3303928 -0.91158277 2
-1.5804553 9.8781548 -0.87521797 8
-2.5795879 16.195343 -0.85946119 21
-2.9799285 18.772055 -0.33177024 16
-7.0279055 43.248028 0.76479936 19
-6.998322 43.208858 2.2939899 42
-6.9672637 43.160263 3.8249168 20
-6.9249334 43.089344 5.3585954 23
-6.8920226 43.028347 6.9018893 34
-6.8638563 42.996643 8.4635248 66
-6.83149 42.938293 10.037766 47
nan nan nan nan
-0.53230715 3.4187539 -0.92708987 6
-0.60776395 3.9168661 -0.91510099 4
-0.71132851 4.6002049 -0.90481627 3
-0.87033695 5.6481018 -0.90512991 3
-1.114122 7.2638674 -0.90232068 2
-1.5132604 9.9007645 -0.87626386 12
-2.4551477 16.119728 -0.8545416 10
-2.8592839 18.861605 -0.33299193 16
-6.7213564 43.217804 0.76343811 18
-6.6917892 43.176548 2.289803 42
-6.6502852 43.10743 3.8160269 20
-6.621841 43.072697 5.3507957 23
-6.5894055 43.011784 6.8918777 34
-6.5505147 42.958111 8.4467325 33
-6.5195751 42.905945 10.01932 47
nan nan nan nan
-0.50333816 3.3840816 -0.91673708 6
-0.57880116 3.9054909 -0.91150171 4
-0.67575812 4.5817518 -0.9002369 3
-0.81997067 5.5797734 -0.89324087 3
-1.0514269 7.1809316 -0.89110869 2
-1.4475552 9.9347458 -0.8783555 13
-2.2082722 15.211453 -0.80555516 4
-2.7368507 18.922188 -0.33372495 17
-6.4062881 43.174656 0.7618674 18
-6.3797016 43.151081 2.2860346 42
-6.3474164 43.088623 3.8104489 20
-6.3056946 43.013783 5.3378778 23
-6.2712646 42.935547 6.8724799 33
-6.2471914 42.927883 8.4322319 65
-6.2084255 42.871342 10.000875 47
nan nan nan nan
-0.47943133 3.3856001 -0.91621947 5
-0.54852903 3.8882103 -0.90655279 4
-0.63993454 4.5591388 -0.89489418 5
-0.77661717 5.5540614 -0.88823503 2
-0.98976296 7.1055202 -0.88087165 2
-1.3871876 10.009735 -0.88410783 8
-2.0902774 15.141422 -0.80105424 4
-2.655354 19.309311 -0.34021723 17
-6.0940881 43.143089 0.76054096 37
-6.0699463 43.135239 2.2828946 42
-6.0312333 43.023365 3.8008618 20
-5.9962196 42.991871 5.329834 23
-5.968667 42.958714 6.8693509 33
-5.9357929 42.886822 8.415822 32
-5.8975253 42.830627 9.9815283 46
nan nan nan nan
-0.45243612 3.3639748 -0.90949017 7
-0.51852471 3.8706989 -0.90160394 4
-0.60627496 4.5498734 -0.89222288 5
-0.73002946 5.5006008 -0.87884891 2
-0.93025118 7.0374737 -0.87160963 2
-1.298054 9.8729973 -0.87120879 4
-1.9697315 15.042768 -0.79508793 4
-2.5569365 19.606968 -0.34513879 9
-5.7807803 43.095394 0.75897026 18
-5.7522578 43.053822 2.2764051 41
-5.722054 42.999249 3.7951097 20
-5.6839514 42.942162 5.3186221 23
-5.65622 42.905331 6.8543334 33
-5.6237187 42.831841 8.3971233 32
-5.5923314 42.824379 9.9707308 46
nan nan nan nan
-0.42747536 3.3555532 -0.90638429 6
-0.48903686 3.8548918 -0.89710486 2
-0.57154751 4.5306215 -0.88764352 5
-0.68668604 5.4663639 -0.8725915 2
-0.87370592 6.9847045 -0.86429745 2
-1.2123734 9.7473726 -0.85935563 4
-1.8447884 14.895601 -0.78660947 4
-3.6334138 29.464296 -0.51819688 27
-5.4707251 43.063282 0.75771368 18
-5.4420204 43.017635 2.2724276 41
-5.4115129 42.9571 3.7879629 19
-5.3739038 42.900036 5.308629 23
-5.3467669 42.865368 6.8418188 33
-5.3165736 42.805763 8.3845291 32
-5.2812824 42.765678 9.9482365 46
nan nan nan nan
-0.40173286 3.3392754 -0.90120792 6
-0.45979705 3.8388629 -0.89260584 1
-0.53317243 4.4779658 -0.8765766 5
-0.6424613 5.4200225 -0.86445701 2
-0.81701261 6.9236054 -0.85601032 2
-1.1210835 9.5577164 -0.84192449 4
-1.7412158 14.912084 -0.7868188 9
-2.5188975 21.670778 -0.38081151 12
-5.1630259 43.04285 0.75670141 18
-5.1311474 42.967319 2.2678218 41
-5.1037221 42.928547 3.7822106 19
-5.0670724 42.875397 5.3010731 23
-5.0390711 42.83102 6.8305554 33
-5.010067 42.777489 8.3719358 64
-4.9729033 42.718266 9.9288902 46
nan nan nan nan
-0.37536603 3.3151248 -0.89396101 7
-0.43036488 3.8187418 -0.88720703 2
-0.49993297 4.4640193 -0.873142 5
-0.59979516 5.3811841 -0.85757387 2
-0.75902998 6.842329 -0.84528583 2
-1.0434164 9.4662905 -0.83320886 3
-1.6255251 14.818653 -0.78127122 18
-2.349751 21.524826 -0.3779493 12
-4.8523116 42.98843 0.75513071 36
-4.8270402 42.96637 2.2659378 41
-4.7979221 42.909668 3.7775042 19
-4.7614636 42.854485 5.2942486 22
-4.7312469 42.786621 6.8180408 32
-4.7029257 42.73531 8.3570528 64
-4.6661005 42.674458 9.9108944 46
nan nan nan nan
-0.34894982 3.2869272 -0.88567883 7
-0.40000969 3.7867696 -0.87910879 4
-0.46629754 4.4439702 -0.86856258 5
-0.55831313 5.3479109 -0.85162932 2
-0.70447195 6.7823043 -0.83724248 2
-0.96217841 9.3266859 -0.82030988 3
-1.4932864 14.549498 -0.76651251 9
-2.2026825 21.572536 -0.37850779 12
-4.5438919 42.943699 0.75376946 18
-4.5165257 42.899708 2.2607043 41
-4.4893341 42.856907 3.7700086 19
-4.4553881 42.821526 5.2862053 22
-4.4242883 42.740013 6.8055258 32
-4.3978257 42.70266 8.3444595 63
-4.3632836 42.659466 9.9000969 45
nan nan nan nan
-0.32485262 3.2777486 -0.88257295 7
-0.37127098 3.7661979 -0.87370998 4
-0.43296441 4.4236703 -0.86398321 5
-0.5146482 5.2867975 -0.84130466 2
-0.65079254 6.7218537 -0.82919908 2
-0.88255548 9.1824474 -0.80706215 3
-1.380646 14.444253 -0.76044154 9
-2.0637457 21.710812 -0.38067189 12
-4.2384748 42.918655 0.75279212 18
-4.2106714 42.866589 2.2573547 41
-4.1820846 42.805908 3.7628622 19
-4.1469588 42.754768 5.274262 22
-4.122026 42.73053 6.7992682 32
-4.0915565 42.648289 8.3280506 31
-4.0594463 42.626808 9.8857002 45
nan nan nan nan
-0.30196172 3.2799366 -0.88257295 7
-0.34319252 3.7492917 -0.8692109 5
-0.39905384 4.3933468 -0.85749573 3
-0.47541979 5.2646861 -0.83723736 2
-0.59462249 6.6234212 -0.81652468 2
-0.81117636 9.0890179 -0.79834664 3
-1.260043 14.230719 -0.74871826 13
-1.9321129 21.95178 -0.38465104 12
-3.9347248 42.903389 0.75202417 18
-3.9062045 42.839241 2.2544239 41
-3.8791625 42.790405 3.759027 19
-3.8426819 42.71941 5.2664623 22
-3.8176284 42.691376 6.788631 32
-3.789717 42.630833 8.319273 31
-3.760129 42.550575 9.8618555 45
nan nan nan nan
-0.27791038 3.2684903 -0.87894952 5
-0.31504017 3.7282944 -0.86381209 5
-0.36733285 4.3744411 -0.85329783 5
-0.43431661 5.2048063 -0.82722551 2
-0.54280227 6.5601482 -0.80823755 2
-0.73137784 8.8958893 -0.78091538 3
-1.1659195 14.272807 -0.7504977 17
nan nan nan nan
nan nan nan nan
-3.6108446 42.821056 2.252121 41
-3.5752084 42.754894 3.7536232 19
-3.5483587 42.703033 5.2613435 22
-3.5230272 42.669125 6.7811222 32
-3.4881406 42.609291 8.3101139 31
-3.611145 44.397686 10.283863 50
nan nan nan nan
-0.25460207 3.2568247 -0.87532604 3
-0.28814653 3.7109237 -0.85931307 5
-0.33437464 4.3455791 -0.84719193 5
-0.39616096 5.1840768 -0.82347113 2
-0.49122283 6.4726391 -0.79702556 2
-0.65882552 8.7417231 -0.76697052 3
-1.0629765 14.23678 -0.74819487 17
-2.1953793 29.612211 -0.51830161 54
nan nan nan nan
-3.3034978 42.737694 2.2464688 40
-3.279984 42.724606 3.7489171 19
-3.2457824 42.669365 5.2542753 22
-3.219867 42.623737 6.7701716 32
-3.3328655 44.42926 8.6604385 35
-3.4730318 46.625 10.794052 57
nan nan nan nan
-0.22856821 3.212275 -0.8629027 15
-0.2612713 3.6992376 -0.8561638 8
-0.30204159 4.3085856 -0.83955961 5
-0.3575767 5.139358 -0.81596226 5
-0.44179803 6.4145179 -0.78946966 2
-0.58827478 8.606967 -0.75476873 3
-0.97523504 14.379189 -0.75531262 22
-1.9850976 29.574942 -0.51739407 53
nan nan nan nan
-3.0139177 42.779106 2.2475154 40
-2.9780457 42.694782 3.744385 19
-2.95031 42.619183 5.245501 22
-2.9262557 42.595394 6.7623496 32
-3.1673872 46.580593 9.0752583 40
nan nan nan nan
nan nan nan nan
-0.20942549 3.25617 -0.87429082 16
-0.23546498 3.6912062 -0.85391426 4
-0.27072051 4.2909956 -0.83574343 5
-0.31934735 5.1042705 -0.81001776 5
-0.39480975 6.3638816 -0.78288871 2
-0.52207345 8.5114317 -0.74605316 3
-0.88646406 14.577028 -0.76536107 18
-1.7824312 29.565809 -0.51701009 26
nan nan nan nan
-2.709373 42.707417 2.2427006 40
-2.6824629 42.636517 3.737587 18
-2.6487758 42.575333 5.2377009 22
nan nan nan nan
-2.941458 48.092319 9.3656693 44
nan nan nan nan
nan nan nan nan
-0.18503004 3.2286222 -0.86652619 26
-0.20239814 3.5643504 -0.82422072 2
-0.2391061 4.2633791 -0.83001924 5
-0.28140143 5.0649567 -0.80344748 2
-0.34840539 6.3308058 -0.77850145 2
-0.45399228 8.3557119 -0.73210824 3
-0.79100716 14.700531 -0.77153671 9
-1.5781076 29.617472 -0.51770818 26
nan nan nan nan
-2.4077973 42.66547 2.2395606 40
-2.3806438 42.580601 3.7311373 18
nan nan nan nan
nan nan nan nan
-2.7279475 50.370045 9.8052931 48
nan nan nan nan
nan nan nan nan
-0.16132225 3.206682 -0.86031455 31
-0.18070857 3.6299052 -0.83906752 4
-0.20789257 4.2355309 -0.82429492 5
-0.24507643 5.0470672 -0.80031884 2
-0.30038989 6.2537708 -0.76875186 2
-0.39521515 8.3188057 -0.72862202 3
-0.67771262 14.478256 -0.75960416 4
nan nan nan nan
-1.3019876 26.061525 0.45547292 34
-2.1069193 42.621395 2.2364204 40
nan nan nan nan
-2.1209793 43.99612 5.408318 24
-2.3959963 50.247852 7.9675212 49
-2.5469534 54.008003 10.50976 55
nan nan nan nan
nan nan nan nan
-0.13926585 3.2154505 -0.86238509 30
-0.15494613 3.6213436 -0.83681798 4
-0.17814748 4.215271 -0.82009715 14
-0.20964789 5.0229607 -0.79625154 2
-0.25509506 6.2160468 -0.76387709 2
-0.33132225 8.1780272 -0.71607161 2
-0.5591951 13.983618 -0.73343617 4
nan nan nan nan
-1.1288711 26.169676 0.45721817 59
nan nan nan nan
nan nan nan nan
nan nan nan nan
-2.1574724 52.797268 8.3692455 53
-2.3154733 57.649635 11.21499 61
nan nan nan nan
nan nan nan nan
-0.11709387 3.2086015 -0.86031455 30
-0.12994082 3.6125772 -0.8345685 9
-0.14781538 4.1909056 -0.81513608 4
-0.17279242 4.9729733 -0.78811693 4
-0.21148783 6.1799455 -0.75924611 2
-0.2710205 8.0845604 -0.70770466 2
-0.44615003 13.520077 -0.70894295 4
nan nan nan nan
-0.94852835 26.242867 0.45837003 25
-1.5738094 44.183311 2.3170178 43
nan nan nan nan
nan nan nan nan
-1.4857615 43.863766 6.9513226 34
nan nan nan nan
nan nan nan nan
nan nan nan nan
-0.094121024 3.1900308 -0.85513818 35
-0.10353334 3.5724897 -0.82512051 24
-0.11683118 4.1309986 -0.80330586 14
-0.13664287 4.922718 -0.77998233 4
-0.16671728 6.1217399 -0.75193387 2
-0.21224761 7.9986205 -0.70003492 2
-0.34177983 13.139518 -0.68884593 4
nan nan nan nan
nan nan nan nan
nan nan nan nan
nan nan nan nan
nan nan nan nan
nan nan nan nan
nan nan nan nan
nan nan nan nan
nan nan nan nan
-0.07202208 3.1983356 -0.85720873 41
-0.078590132 3.5731254 -0.82512051 33
-0.08807411 4.1356397 -0.80406916 19
-0.1013723 4.8801036 -0.77309924 7
-0.12221009 6.035429 -0.74120939 2
-0.15421687 7.8883553 -0.69027346 2
-0.24273941 12.75818 -0.66874892 3
nan nan nan nan
-0.86042494 38.810551 0.67760712 14
nan nan nan nan
nan nan nan nan
-0.89575738 43.859409 5.3863816 48
nan nan nan nan
nan nan nan nan
nan nan nan nan
nan nan nan nan
-0.049723268 3.2006919 -0.85772634 37
-0.053176798 3.5424106 -0.81792206 30
-0.058132075 4.0615573 -0.78956765 24
-0.066701092 4.8372378 -0.7662161 4
-0.079624258 6.0023909 -0.73706585 2
-0.098094232 7.8055658 -0.6829524 2
-0.15025525 12.475972 -0.65388548 3
nan nan nan nan
nan nan nan nan
nan nan nan nan
-0.61993331 43.84811 3.8365955 20
nan nan nan nan
nan nan nan nan
nan nan nan nan
nan nan nan nan
nan nan nan nan
-0.027410058 3.2048247 -0.85876161 31
-0.028552644 3.5563362 -0.82107139 38
-0.029818818 4.0677538 -0.79071248 30
-0.032996405 4.8474622 -0.76778048 15
-0.037281178 5.9333243 -0.728535 2
-0.044433177 7.7144046 -0.67493409 2
-0.061090577 12.069283 -0.63253242 3
-0.17726482 39.061646 -0.68183059 52
-0.32137451 39.17672 0.68385512 14
nan nan nan nan
nan nan nan nan
nan nan nan nan
-0.25957784 43.741974 6.9281702 34
nan nan nan nan
nan nan nan nan
nan nan nan nan
-0.0049914862 3.177892 -0.8515147 31
-0.0037281204 3.5603466 -0.82197124 19
-0.0021225561 4.0541201 -0.78804117 34
5.7524076e-08 4.8238702 -0.76402605 15
0.004107499 5.8838124 -0.72244155 2
0.0092834262 7.598968 -0.66482401 2
0.020436581 11.709912 -0.61369151 3
0.0953435 39.021946 -0.68113256 52
-0.058058016 41.56963 0.7256012 16
nan nan nan nan
nan nan nan nan
0.015283512 43.785179 5.3761449 24
nan nan nan nan
nan nan nan nan
nan nan nan nan
nan nan nan nan
0.016395634 3.1314886 -0.83909136 30
0.020459933 3.5524945 -0.82017159 31
0.026142552 4.0481462 -0.78689629 37
0.032987483 4.7249861 -0.74838257 24
0.043918956 5.8518877 -0.71854174 2
0.06049598 7.5349736 -0.65924603 2
0.099014588 11.345997 -0.59464121 3
0.36073378 38.996391 -0.68071365 52
0.22049153 39.477371 0.68909079 14
nan nan nan nan
0.29040647 43.785786 3.8308434 20
nan nan nan nan
nan nan nan nan
nan nan nan nan
nan nan nan nan
nan nan nan nan
0.038115542 3.1197076 -0.8359856 45
0.044540524 3.4957561 -0.80712444 24
0.053642854 4.0439487 -0.78613311 29
0.063296698 4.5903397 -0.72710747 19
0.0843089 5.8196807 -0.71464187 2
0.11177921 7.4467134 -0.65157634 2
0.17108712 11.013556 -0.57726568 3
0.63225716 38.94894 -0.67994577 52
0.4829874 38.975075 0.68036461 14
nan nan nan nan
0.59572911 43.756786 3.8285773 20
nan nan nan nan
nan nan nan nan
nan nan nan nan
nan nan nan nan
nan nan nan nan
0.059019133 3.1019924 -0.83132678 31
0.068334401 3.4953721 -0.80712444 23
0.080643445 3.9826267 -0.7743029 26
0.095628932 4.60361 -0.72929758 19
0.12278194 5.7653866 -0.70806098 2
0.16174905 7.3541236 -0.64355797 2
0.24204205 10.748522 -0.56344897 3
0.89588588 38.879761 -0.67882884 52
0.75220644 38.822803 0.6777817 14
nan nan nan nan
nan nan nan nan
nan nan nan nan
0.94454342 43.637703 6.9131527 34
nan nan nan nan
nan nan nan nan
nan nan nan nan
0.081025317 3.1150231 -0.83495027 26
0.092993498 3.5045502 -0.80937397 22
0.10737462 3.9427164 -0.76667058 34
0.12759922 4.5969067 -0.72835892 23
0.16139871 5.7068434 -0.70099252 2
0.21089683 7.2771363 -0.63693416 2
0.30906415 10.47506 -0.54921359 3
1.1675361 38.880554 -0.67896843 52
1.0231169 38.812607 0.67771184 14
nan nan nan nan
nan nan nan nan
1.2263894 43.632965 5.35957 23
nan nan nan nan
nan nan nan nan
nan nan nan nan
nan nan nan nan
0.10194202 3.0892811 -0.82822096 26
0.11686999 3.4862866 -0.80532485 23
0.13489735 3.9418707 -0.76667058 34
0.15721917 4.5248332 -0.71709567 24
0.19682792 5.580595 -0.685637 2
0.25643134 7.1640301 -0.62717271 3
0.37110993 10.169266 -0.53330344 3
1.3972056 37.744396 -0.65928209 49
1.2929887 38.772541 0.67715341 14
nan nan nan nan
1.4999419 43.607544 3.8174214 20
nan nan nan nan
nan nan nan nan
nan nan nan nan
nan nan nan nan
nan nan nan nan
0.12265768 3.0672607 -0.82252699 28
0.14104822 3.4814916 -0.80442506 24
0.16124274 3.9290912 -0.76438087 26
0.18621048 4.4802375 -0.71021259 24
0.23486099 5.5572681 -0.68295586 2
0.30286232 7.0784607 -0.61985165 3
0.42580253 9.8312778 -0.51571852 3
nan nan nan nan
1.5560731 38.742859 0.67680436 14
nan nan nan nan
nan nan nan nan
nan nan nan nan
1.8465921 43.513943 6.8981347 34
nan nan nan nan
nan nan nan nan
nan nan nan nan
0.14461701 3.0895116 -0.82873863 28
0.16290002 3.4415197 -0.79542702 23
0.18678518 3.8886499 -0.7567485 31
0.21767549 4.4827743 -0.71083826 30
0.26742762 5.4484744 -0.66979396 2
0.35286632 7.0881143 -0.62089753 3
0.47978079 9.5368347 -0.50043643 3
nan nan nan nan
1.826116 38.723064 0.67666471 14
nan nan nan nan
nan nan nan nan
nan nan nan nan
2.1495514 43.484207 6.8956318 34
nan nan nan nan
nan nan nan nan
nan nan nan nan
0.16493531 3.0652781 -0.82252699 26
0.18755509 3.4519737 -0.7981264 24
0.21317336 3.8735292 -0.7540772 33
0.24841796 4.4712839 -0.70927399 24
0.30145702 5.375124 -0.66101938 2
0.39330575 6.926343 -0.60695255 3
0.542916 9.4734335 -0.49729633 3
nan nan nan nan
2.0953465 38.689404 0.67631567 14
nan nan nan nan
nan nan nan nan
2.5892937 46.313328 5.6954422 28
nan nan nan nan
nan nan nan nan
nan nan nan nan
nan nan nan nan
0.18480654 3.0389843 -0.81579769 26
0.21069537 3.4350193 -0.79452717 31
0.23874989 3.8484328 -0.74949777 27
0.27678829 4.4240961 -0.70207798 26
0.33647275 5.3332653 -0.65614462 2
0.43277249 6.7842436 -0.59475076 3
0.59724617 9.2860441 -0.48766652 3
nan nan nan nan
2.363445 38.641895 0.67575717 14
nan nan nan nan
2.7054017 43.4855 3.8118436 20
nan nan nan nan
nan nan nan nan
nan nan nan nan
nan nan nan nan
nan nan nan nan
0.20549668 3.0299101 -0.81372708 22
0.23374265 3.4198554 -0.79137784 20
0.26385307 3.8212109 -0.74453676 27
0.30506253 4.384614 -0.69613349 24
0.36828384 5.2535567 -0.64663881 2
0.47674447 6.7333593 -0.59056729 3
0.64727724 9.0744591 -0.47678062 3
nan nan nan nan
2.6361325 38.668343 0.67652506 14
nan nan nan nan
nan nan nan nan
3.0363026 43.421093 5.3444591 23
3.0518384 43.317337 6.8777986 33
nan nan nan nan
nan nan nan nan
nan nan nan nan
0.22361535 2.9879463 -0.80285674 32
0.25468138 3.3792758 -0.78237981 30
0.28858972 3.7938268 -0.73957568 27
0.33506408 4.3744984 -0.69488198 26
0.39991698 5.1855435 -0.6385954 2
0.51632041 6.6345205 -0.58220035 3
0.70000464 8.9343204 -0.4696629 3
nan nan nan nan
2.9228172 38.872337 0.68043447 14
nan nan nan nan
nan nan nan nan
3.3346231 43.337482 5.3369031 23
3.3547657 43.302853 6.8790503 33
nan nan nan nan
nan nan nan nan
1.8102059 22.847891 6.1412582 8
0.24446969 2.9863124 -0.80285674 33
0.27634677 3.3541095 -0.776981 15
0.31344104 3.7721546 -0.7357595 33
0.36295989 4.3405571 -0.68987608 24
0.43361235 5.1529536 -0.63493931 4
0.55622745 6.5553136 -0.57557648 3
0.75013208 8.7859354 -0.46212655 3
nan nan nan nan
nan nan nan nan
nan nan nan nan
nan nan nan nan
nan nan nan nan
nan nan nan nan
nan nan nan nan
1.9591823 22.852844 5.2953482 9
2.6367416 30.568161 8.2211285 17
0.26668057 2.9999266 -0.80699778 30
0.29854113 3.3385115 -0.77383167 22
0.33835819 3.7542317 -0.73270655 33
0.386655 4.2651267 -0.67829996 28
0.46290419 5.0766563 -0.62592101 3
0.596874 6.4957185 -0.57069582 3
0.79785031 8.6333132 -0.45438081 6
1.5878223 17.083757 -0.2994833 6
3.9832754 44.631779 0.78214705 20
nan nan nan nan
3.916193 43.36721 3.8095775 20
nan nan nan nan
nan nan nan nan
3.0686867 33.332531 6.506587 15
2.837249 30.584724 7.0913577 17
2.8498893 30.547085 8.2206106 17
0.2830039 2.9499164 -0.79405683 26
0.31921986 3.3091898 -0.76753306 21
0.36114168 3.7166052 -0.72583747 36
0.41315648 4.2289009 -0.67298114 22
0.49445352 5.0337892 -0.62104625 1
0.63396662 6.4081197 -0.5633747 3
0.84999412 8.5460472 -0.45008928 3
1.5389246 15.390899 -0.26998872 11
4.2947669 44.602886 0.78214705 20
nan nan nan nan
nan nan nan nan
4.5179377 46.077347 5.6847181 28
nan nan nan nan
3.0438094 30.711895 5.9990354 84
3.0501211 30.558355 7.0900078 17
3.0605712 30.501455 8.2138815 17
0.29932433 2.9114091 -0.78422177 52
0.3391349 3.2817407 -0.7616843 18
0.387041 3.719919 -0.7269823 25
0.4398776 4.2063441 -0.66985244 21
0.52559358 5.0006943 -0.61739016 1
0.67212301 6.3521414 -0.5588426 3
0.9020251 8.4824686 -0.44705379 3
1.562698 14.622496 -0.25669 10
4.5666471 44.266293 0.77677172 19
nan nan nan nan
nan nan nan nan
4.5319057 43.190754 5.3322716 23
2.4077137 22.831226 3.6361632 7
3.2517395 30.680706 5.9971271 84
3.2561944 30.519445 7.085959 17
3.2697651 30.495283 8.2180223 17
0.32006308 2.913089 -0.78525704 62
0.36096674 3.2696083 -0.75943482 18
0.4106167 3.6956625 -0.72278452 33
0.46463028 4.1619439 -0.66328222 21
0.55673045 4.963366 -0.61324656 1
0.7084049 6.2760205 -0.55256736 3
0.94411337 8.325139 -0.43909872 3
1.586639 13.925771 -0.24464783 14
4.8716507 44.197556 0.77614343 19
nan nan nan nan
5.124289 46.04678 4.0534391 25
2.5568323 22.83075 2.8207881 7
3.439074 30.56374 4.8713698 13
3.4645286 30.64555 5.9948373 48
3.467859 30.48435 7.0832591 86
3.4797313 30.446762 8.2112932 17
0.34286073 2.9318902 -0.79095107 47
0.38060105 3.2399125 -0.75313616 18
0.43502304 3.6810081 -0.72049481 39
0.49181184 4.1429057 -0.66077924 21
0.58361131 4.8943114 -0.60520321 3
0.74589539 6.2275319 -0.54873258 3
0.98453182 8.1716099 -0.431353 3
1.6355329 13.515326 -0.23763196 18
5.178225 44.146576 0.77586418 19
5.5189285 46.839256 2.4717226 48
3.6274543 30.648191 2.7000849 9
3.6408827 30.578747 3.7811184 35
3.6554151 30.564484 4.8754373 27
4.7913446 39.885361 7.8086681 50
3.6743457 30.452299 7.0814595 100
3.6940668 30.437067 8.2154341 17
0.36142001 2.9140875 -0.78680992 50
0.39959916 3.2081695 -0.7463876 26
0.45544064 3.6409478 -0.71324408 12
0.51753825 4.1198621 -0.65765053 22
0.61228997 4.8467908 -0.599841 3
0.77581024 6.1154394 -0.53931969 3
1.027003 8.0616941 -0.42591006 6
1.6648006 12.995806 -0.22869635 17
5.4470325 43.856297 0.77139634 19
4.1496582 33.268192 1.757023 22
3.8415787 30.624098 2.7002592 9
3.8499343 30.561136 3.7820935 35
3.8638728 30.542816 4.8760629 27
4.065753 31.959425 6.262351 13
3.8868532 30.425905 7.0814595 86
3.900423 30.40547 8.2138815 17
0.38049337 2.9058137 -0.78525704 30
0.41736141 3.1744616 -0.73918921 31
0.47878996 3.6221089 -0.71019113 21
0.5447284 4.1044002 -0.6557734 22
0.63897645 4.7952852 -0.59399122 15
0.80315524 6.0033779 -0.52990693 3
1.0672897 7.9355617 -0.41962975 3
0.75191599 5.5686088 -0.098082528 12
5.3521819 40.763878 0.71764296 15
nan nan nan nan
4.0502028 30.599213 2.7004335 9
4.0642304 30.541386 3.7830684 11
4.076993 30.5151 4.8760629 13
4.2790089 31.899881 6.2562456 13
4.0938516 30.398746 7.0814595 86
4.1146712 30.392813 8.2180223 17
0.39601517 2.8686397 -0.77593952 16
0.44192067 3.188843 -0.74323833 26
0.50099742 3.6012657 -0.70675659 19
0.56664097 4.0575566 -0.64889026 22
0.66526186 4.7395964 -0.58765399 14
0.83448118 5.9226546 -0.52328306 6
0.78564888 5.5550184 -0.29402342 30
0.78486419 5.5216484 -0.097349517 27
1.493906 10.807577 0.19044067 1
nan nan nan nan
4.2587733 30.534674 2.6972959 19
4.2747922 30.532673 3.785506 23
4.286272 30.498375 4.8779402 13
4.3245125 30.615377 6.0101018 24
4.3084517 30.386789 7.0855088 52
4.3170986 30.333502 8.2097406 17
0.41192856 2.8410234 -0.76921022 20
0.46277431 3.179976 -0.74188864 31
0.521299 3.5646558 -0.70026904 18
0.59180069 4.0320029 -0.64544868 29
0.69143486 4.6937165 -0.58253551 15
0.83467317 5.6387854 -0.49870515 9
0.82441115 5.5493979 -0.29402342 47
0.82390249 5.5260673 -0.097524047 31
1.5684578 10.790947 0.19033594 3
4.4752479 30.676741 1.6247176 17
4.4667921 30.50695 2.6974702 59
4.4872532 30.498156 3.7850182 35
4.4984951 30.4638 4.8773141 27
4.5319266 30.579407 6.0089569 36
4.5408664 30.492821 7.1174517 88
4.5327587 30.32937 8.2169876 17
0.42710385 2.8075206 -0.76092798 23
0.48202249 3.1574032 -0.73738962 18
0.54289663 3.5395839 -0.69607127 17
0.61422354 3.9906778 -0.63950419 16
0.72327501 4.682889 -0.58180428 17
0.85783041 5.5284724 -0.48946664 45
0.86067754 5.527719 -0.29318607 32
0.86153823 5.5142531 -0.097419336 40
1.6229502 10.643333 0.18792751 1
2.1724505 14.197037 0.7526958 10
4.6826863 30.494717 2.6992133 59
4.6994562 30.462164 3.7845309 23
4.7140851 30.451176 4.8804431 13
4.7597671 30.640142 6.0272746 12
4.7572265 30.483484 7.1228504 17
4.7467642 30.31226 8.2211285 17
0.45034009 2.827364 -0.76713973 20
0.49882546 3.121248 -0.72974128 12
0.56105953 3.4950001 -0.6880573 24
0.64144051 3.9823921 -0.63887841 22
0.74359912 4.6012988 -0.57229847 21
0.89672214 5.5243158 -0.48964092 42
0.89892375 5.5196052 -0.2930814 52
0.9000113 5.5081048 -0.097419336 57
1.5793227 9.8932085 0.17487311 1
2.2386599 13.976423 0.7418099 16
4.8960977 30.465216 2.6995618 59
4.9145384 30.44429 3.7864809 11
4.9240327 30.401922 4.8779402 13
4.9798574 30.644924 6.0349073 12
5.5500431 34.003769 7.9542694 24
4.9592047 30.284101 8.222682 17
0.46530876 2.795567 -0.75937515 29
0.52316993 3.1330667 -0.7333405 22
0.5844714 3.4851892 -0.68691242 17
0.66300029 3.940805 -0.63293391 17
0.77008778 4.5627193 -0.56815493 21
0.93426847 5.5120282 -0.48911804 57
0.94044912 5.5309157 -0.29402342 60
0.93541706 5.4839458 -0.09710519 34
1.5924196 9.5466261 0.16893929 1
2.3384867 13.974243 0.74254262 9
5.1106448 30.442081 2.7006078 59
5.1282797 30.417068 3.7874558 35
5.1371465 30.372648 4.8788786 27
5.3815355 31.71657 6.2531929 13
5.1794362 30.396801 7.1188016 52
5.1724591 30.260166 8.2257872 17
0.48217168 2.7770231 -0.755234 30
0.54536599 3.1312575 -0.7337904 33
0.60574281 3.4636195 -0.68347788 16
0.68435049 3.9010589 -0.62730229 17
0.79951251 4.5435472 -0.56644875 15
0.9737668 5.5112572 -0.48964092 39
0.97938776 5.5261822 -0.29412812 47
0.97612947 5.4910641 -0.097349517 29
1.4828428 8.522646 0.15099822 1
2.3968422 13.73328 0.73061001 26
5.3340402 30.468462 2.7061858 9
5.343256 30.396168 3.7894058 23
5.3545504 30.367168 4.8838844 27
5.3829684 30.435146 6.0078125 36
5.3799348 30.294664 7.1035047 35
5.3886709 30.251848 8.233552 17
0.50120342 2.7716882 -0.75471634 37
0.55538881 3.0621803 -0.71849376 23
0.62850344 3.4515796 -0.6819514 19
0.70944077 3.884526 -0.62542504 19
0.82656544 4.5124702 -0.56328017 14
1.0093336 5.4886494 -0.48824647 9
1.0186658 5.5231385 -0.29433745 42
1.0151652 5.4880486 -0.097419336 40
1.4549549 8.0300112 0.14244655 3
2.4855113 13.676912 0.72851658 22
5.5480342 30.438322 2.706883 9
5.5546165 30.354218 3.7889183 23
5.5667796 30.330992 4.8841977 27
5.5768332 30.296421 5.9879684 24
5.5962577 30.283195 7.1098032 17
5.5965681 30.196394 8.2288933 17
0.51768368 2.752933 -0.75057524 37
0.56952894 3.0199287 -0.70949566 31
0.64929801 3.4297469 -0.67851686 17
0.73396343 3.8658936 -0.62323499 18
0.84096909 4.4168873 -0.55206817 29
1.0379051 5.4305873 -0.48371434 6
1.0553226 5.5060849 -0.29381409 60
1.0553442 5.4906459 -0.097593859 51
1.4361893 7.6227031 0.13539577 1
2.5798211 13.653338 0.72820258 13
5.7637377 30.416468 2.708452 9
5.7686043 30.326401 3.7903807 36
5.7831917 30.316616 4.8882647 27
5.7944627 30.289532 5.9944558 36
5.8240752 30.329508 7.1300492 17
5.81601 30.202114 8.2413158 17
0.53614968 2.7454598 -0.74953997 30
0.59097266 3.0177915 -0.70994556 28
0.65997225 3.3577065 -0.66516018 13
0.75214684 3.8160999 -0.61603898 16
0.87178212 4.4109092 -0.55206817 13
1.0649376 5.3684888 -0.47883365 5
1.0956848 5.5083766 -0.29433745 40
1.0905212 5.4674554 -0.097314619 27
2.6973073 13.786475 0.24520631 5
2.6743138 13.631074 0.72799325 16
5.9821124 30.406765 2.7112408 9
5.9840274 30.304867 3.7928181 24
5.9935493 30.26969 4.8873258 27
6.0260463 30.350401 6.0146813 36
7.0258603 35.257133 8.2997942 27
6.0308685 30.181618 8.2470102 17
0.55261904 2.7283962 -0.74591655 12
0.610475 3.0059533 -0.70814598 27
0.6806528 3.3395517 -0.66248888 15
0.77521026 3.7933373 -0.61322314 28
0.89219427 4.3541532 -0.54573095 16
1.0894235 5.302567 -0.47360432 5
1.133708 5.4986377 -0.29423279 37
1.1310911 5.4714594 -0.097524047 34
2.7839394 13.720277 0.2443686 31
2.7737854 13.633602 0.72914463 3
6.1966205 30.375977 2.7122867 19
6.1978526 30.274015 3.7942803 24
6.2087121 30.246456 4.8904548 27
6.2429452 30.332588 6.0196428 36
7.3062692 35.405071 8.3461342 28
6.2473054 30.167154 8.254775 17
0.56927311 2.7131276 -0.74281067 29
0.63024211 2.9958973 -0.70679629 23
0.69607574 3.3002634 -0.65561974 20
0.7948826 3.7589831 -0.6085301 30
0.92092222 4.3400517 -0.544756 13
1.1168805 5.25001 -0.46959516 2
1.1740286 5.5044661 -0.29496548 45
1.16968 5.465385 -0.097558953 38
2.9163091 13.886925 0.24768455 27
2.8714602 13.637858 0.73040068 6
6.4138885 30.357317 2.7145526 59
6.4136367 30.277739 3.8001301 24
6.4218221 30.238279 4.8960867 13
6.4590406 30.309391 6.0238404 49
nan nan nan nan
6.4456382 30.091814 8.2459745 17
0.58854681 2.7129655 -0.74384594 29
0.64440787 2.9629745 -0.70004773 41
0.71951747 3.2972414 -0.65600139 20
0.81815076 3.7398341 -0.60634005 22
0.93938607 4.2832675 -0.53841883 19
1.1402344 5.1817632 -0.46419147 5
1.2115681 5.4922357 -0.29475614 42
1.2103117 5.4729166 -0.097838193 36
3.1358986 14.430961 0.25777203 19
2.9589479 13.582353 0.72851658 9
6.6246271 30.33242 2.716296 59
6.6257086 30.236101 3.8006177 36
6.6387029 30.219721 4.9004669 13
6.6677341 30.276224 6.0261297 24
6.6856685 30.257082 7.1538939 53
6.6639028 30.083807 8.2563276 17
0.60578024 2.7012508 -0.74177545 34
0.65951961 2.933687 -0.69419903 37
0.73776764 3.2710714 -0.65180355 26
0.84031916 3.7166908 -0.60352427 18
0.96619457 4.2630534 -0.53671265 14
1.1662194 5.128993 -0.46018231 2
1.2472159 5.4719596 -0.29412812 37
1.2467059 5.4565358 -0.097698569 6
3.1839845 14.174585 0.25358346 28
3.078707 13.672426 0.73448288 6
6.8428063 30.314585 2.7189105 9
6.8427587 30.216219 3.8040299 24
6.8547764 30.195751 4.9042211 27
6.8580441 30.137049 6.0078125 36
8.2859755 36.294922 8.5949297 30
6.8776436 30.053499 8.2609863 17
0.61895859 2.6724892 -0.73504615 25
0.67866391 2.923316 -0.69284928 35
0.75613141 3.2467206 -0.64798737 31
0.86444801 3.7030392 -0.60227275 16
0.98371905 4.2040172 -0.5301317 22
1.1901602 5.0702949 -0.45565021 5
1.288589 5.476728 -0.29486081 17
2.1463315 9.1009083 -0.16321491 6
3.2941613 14.200711 0.2544561 22
3.1772501 13.664217 0.73521554 19
8.2608919 35.443012 3.1839736 12
