# .PCD v0.7 - Point Cloud Data file format
VERSION 0.7
FIELDS x y z intensity
SIZE 4 4 4 4
TYPE F F F F
COUNT 1 1 1 1
WIDTH 1462
HEIGHT 1
VIEWPOINT 0 0 0 1 0 0 0
POINTS 1462
DATA ascii
2.4687078 1.2508211 -0.4383294 10
2.7755334 1.4044548 -0.38193855 9
3.1599007 1.5968719 -0.30975151 7
3.7126143 1.8729384 -0.21792693 7
4.3253112 2.1791914 -0.084539458 17
5.3761206 2.7333636 0.10527291 8
7.1144361 3.6124835 0.41816431 19
7.0474439 3.5738273 0.69131935 2
7.0152612 3.5513525 0.96544904 2
6.9475188 3.5124905 1.2330166 10
7.1152611 3.5926206 1.5493692 75
10.27662 5.182096 2.6571219 2
nan nan nan nan
1.8608687 0.93063527 -0.55749625 12
2.0362763 1.0170256 -0.52548569 9
2.2311752 1.1129093 -0.4846549 12
2.4630189 1.2269429 -0.43582645 10
2.7781603 1.3815097 -0.38096359 11
3.1388509 1.5588226 -0.30661389 6
3.7252769 1.8476239 -0.21792693 7
4.33146 2.1445034 -0.084364928 21
5.5502148 2.7744956 0.10830963 9
7.0959744 3.5425627 0.41565222 8
7.0365562 3.5067694 0.68783307 3
7.0072818 3.487601 0.96106172 3
6.9288144 3.4440136 1.2255077 7
7.1032367 3.524534 1.5413551 67
10.661771 5.2832775 2.7471025 2
nan nan nan nan
1.8706275 0.91965175 -0.55853152 12
2.0361545 0.99970603 -0.52368605 10
2.2424157 1.0990348 -0.48541811 12
2.471524 1.2097191 -0.43582645 10
2.7910657 1.3643119 -0.38145107 9
3.1711442 1.5473559 -0.30870563 4
3.7201309 1.8128226 -0.21688022 7
4.3675327 2.1254728 -0.084783792 18
5.5640645 2.7330353 0.10820492 11
7.1223259 3.4938169 0.41575688 22
7.0370049 3.4473932 0.68556702 6
7.0029283 3.4246395 0.9571619 5
6.9402618 3.3894923 1.2233176 12
7.0900073 3.4580286 1.5333412 64
20.534752 9.9977312 5.2728529 9
nan nan nan nan
1.8804815 0.90825027 -0.5595668 10
2.0360634 0.98208016 -0.52188647 11
2.2535715 1.0850564 -0.48618135 12
2.4781299 1.191578 -0.43551362 9
2.7969444 1.3430736 -0.38096359 9
3.1746831 1.5217348 -0.3080084 7
3.7326963 1.7868071 -0.21688022 7
4.3840694 2.0957925 -0.084818691 13
5.4911585 2.6498044 0.10642478 9
7.1231523 3.4327397 0.41439614 27
7.0447421 3.390409 0.68399829 8
6.9765654 3.3515975 0.95033723 2
6.9441657 3.3315587 1.2198761 10
7.0891891 3.3965707 1.5279986 68
20.751724 9.9247551 5.3106451 9
nan nan nan nan
1.8763036 0.89013261 -0.55646098 10
2.0428696 0.96784282 -0.52188647 10
2.2504435 1.06426 -0.48389161 10
2.4881742 1.1750919 -0.43582645 10
2.7918892 1.3167402 -0.37901369 9
3.188834 1.501233 -0.308357 4
3.7233901 1.7505072 -0.21562417 7
4.3895431 2.0608857 -0.084644176 17
5.4968743 2.6054089 0.10618044 14
7.0711241 3.3470387 0.40999994 16
7.0466247 3.3309274 0.68190652 11
6.9818406 3.2943392 0.94789982 2
6.9279423 3.2644737 1.2129929 12
7.0878592 3.3352933 1.5226558 70
21.053335 9.8890018 5.3700318 10
nan nan nan nan
1.8824722 0.8770119 -0.55646098 10
2.0495765 0.95355731 -0.52188647 9
2.2524767 1.0460423 -0.48274681 10
2.5052776 1.1618481 -0.43739083 9
2.8010137 1.297217 -0.37901369 9
3.1920035 1.4755886 -0.30765978 6
3.7645342 1.7378644 -0.21729892 7
4.3965597 2.0268419 -0.084504552 8
5.507678 2.5635943 0.10604082 14
7.1160536 3.3076904 0.41125599 35
7.0299501 3.2631929 0.67807168 12
6.9722476 3.2304981 0.94351256 2
6.9039497 3.1944637 1.2048583 10
7.0806723 3.2717335 1.5161684 76
21.206799 9.7809563 5.3916268 10
nan nan nan nan
1.8762515 0.85822338 -0.55283749 10
2.0632739 0.94246399 -0.52368605 10
2.2579377 1.0294782 -0.48236516 11
2.5079339 1.1418751 -0.43645221 10
2.8208437 1.2825618 -0.38047612 9
3.1985986 1.4516214 -0.30731115 9
3.7656596 1.7065939 -0.21667089 7
4.3978496 1.9903271 -0.084260218 10
5.43996 2.4860137 0.1044003 9
7.071744 3.2272499 0.40738311 24
7.0253654 3.2016418 0.675457 12
6.9765615 3.1735246 0.94107521 2
6.9116964 3.1396482 1.2023554 10
7.0693717 3.2068083 1.5089177 79
nan nan nan nan
nan nan nan nan
1.8839599 0.84589404 -0.5533551 10
2.0538001 0.92086017 -0.51963699 10
2.2579021 1.0104818 -0.48083872 10
2.5014167 1.1178907 -0.43394926 10
2.8279159 1.2620283 -0.38023239 8
3.205014 1.4276357 -0.30696252 7
3.7647071 1.6745827 -0.21593818 7
4.3933616 1.9514604 -0.083911166 1
5.3458848 2.3980525 0.1022711 17
7.0886321 3.1753552 0.40706912 27
7.0329947 3.1460123 0.67406249 16
6.9695468 3.1117895 0.93717533 2
6.9045806 3.0784483 1.1973495 5
nan nan nan nan
nan nan nan nan
6.9236746 3.0724876 2.029659 41
1.8915871 0.83350092 -0.55387276 12
2.05126 0.90257621 -0.51738745 9
2.2738888 0.99864244 -0.48274681 12
2.5127788 1.1019858 -0.43457499 10
2.825748 1.2374758 -0.37876993 8
3.2222052 1.4084176 -0.30765978 9
3.7580016 1.6402699 -0.21489146 3
4.3353853 1.8895812 -0.082549877 3
5.3533459 2.3566444 0.10209658 13
7.0557756 3.1016774 0.40392897 19
7.027421 3.0848234 0.67144781 13
nan nan nan nan
4.2981496 1.8804971 0.74306375 7
nan nan nan nan
nan nan nan nan
6.9059892 3.0071089 2.018271 41
1.8955865 0.81950808 -0.5533551 12
2.0593002 0.88900608 -0.51783735 10
2.2681844 0.9773041 -0.48007545 10
2.5167811 1.0828563 -0.43394926 11
2.8270223 1.2145851 -0.37779501 8
3.2319593 1.3858881 -0.30765978 9
3.769362 1.6139923 -0.21489146 5
4.4201808 1.8899266 -0.083911166 1
5.4265757 2.3437958 0.10317863 11
nan nan nan nan
4.3661485 1.8803611 0.4159072 2
4.3204603 1.8571103 0.57741702 1
6.8960619 2.9599323 1.1885892 10
nan nan nan nan
4.2033081 1.7980689 1.0554705 1
nan nan nan nan
1.9030403 0.80700874 -0.55387276 12
2.0708401 0.87688744 -0.51918709 11
2.2749519 0.96144539 -0.48007545 9
2.5224595 1.0644914 -0.43363637 10
2.8409207 1.1971318 -0.37852621 9
3.2268634 1.3571117 -0.30626526 9
3.7731709 1.5845461 -0.21447276 5
4.3963842 1.843558 -0.083213076 1
4.4374709 1.8799419 0.084120601 1
nan nan nan nan
7.0275936 2.9685721 0.66743869 27
4.3662448 1.8407834 0.58180428 1
nan nan nan nan
7.0656614 2.9701319 1.4898368 43
19.353674 8.1196451 4.8454461 8
nan nan nan nan
1.8997086 0.78999537 -0.55128461 12
2.0751112 0.86166251 -0.51873714 10
2.2779813 0.94403654 -0.47931221 11
2.5243537 1.0445894 -0.43269777 10
2.8528783 1.1787853 -0.37901369 9
3.2252076 1.3299935 -0.30521941 9
3.7915289 1.5612079 -0.21489146 5
4.446137 1.8280286 -0.083911166 1
5.4310722 2.2562895 0.10265506 9
nan nan nan nan
nan nan nan nan
nan nan nan nan
6.8874168 2.8430088 1.1801417 12
7.0372167 2.900532 1.479533 76
19.363029 7.9650578 4.8337483 8
nan nan nan nan
1.9105448 0.77890062 -0.55283749 12
2.0738568 0.84421456 -0.51693755 10
2.2881539 0.92958921 -0.48007545 10
2.5260932 1.0247142 -0.43175918 9
2.8610377 1.1588411 -0.37901369 9
3.2454972 1.3119251 -0.30626526 9
3.774554 1.5234867 -0.21332137 7
4.338233 1.7483582 -0.081642359 5
nan nan nan nan
4.3181901 1.7560689 0.24430427 1
4.232892 1.7187989 0.39969626 5
nan nan nan nan
6.875967 2.7822599 1.1748229 10
7.0227094 2.837359 1.4722823 85
19.436234 7.8369813 4.8382478 8
nan nan nan nan
1.9159358 0.76554352 -0.55283749 12
2.0724602 0.82682735 -0.51513797 10
2.296412 0.91431844 -0.48045707 10
2.5386925 1.0092418 -0.43269777 10
2.8506083 1.131514 -0.3765763 9
3.2471671 1.2863017 -0.30556804 7
3.7943833 1.5007728 -0.21384473 5
4.3503327 1.718031 -0.081642359 7
4.3384352 1.7317394 0.081537649 1
nan nan nan nan
4.2429361 1.6884711 0.39952192 1
4.1418591 1.6448969 0.54719341 1
6.8695154 2.7239947 1.1704428 8
7.0186162 2.7788665 1.4673213 85
19.541224 7.7211418 4.8508449 8
nan nan nan nan
1.9284289 0.75496709 -0.55490804 11
2.0727365 0.81021124 -0.51378828 10
2.2881072 0.89255536 -0.47740412 10
2.5401547 0.98934311 -0.43175918 9
2.8621383 1.1130242 -0.37706378 9
3.2595627 1.2656099 -0.30591667 9
3.8010447 1.4728017 -0.2136354 7
4.3454361 1.6811225 -0.081328213 7
4.3131728 1.6868423 0.080839552 1
nan nan nan nan
4.2546206 1.6588087 0.39952192 3
4.1254907 1.6051462 0.54353732 1
6.8515382 2.6616673 1.1641854 10
7.0213704 2.7234135 1.4638867 79
19.662378 7.6147017 4.8679414 8
nan nan nan nan
1.9120072 0.73318547 -0.5486964 11
2.0892615 0.79990166 -0.51648766 10
2.2831261 0.87275493 -0.47511441 9
2.5486751 0.97273546 -0.43207204 7
2.8754039 1.0951366 -0.37779501 5
3.2571445 1.2385755 -0.30487078 8
3.8072462 1.4454784 -0.21342604 5
4.3234067 1.6379919 -0.080699928 7
4.287209 1.643131 0.080141447 1
4.2455373 1.624611 0.23823328 1
4.167449 1.5913929 0.39028341 1
4.1344671 1.5763185 0.5432936 5
6.8510365 2.6079378 1.1610568 10
7.0255299 2.6687512 1.4608337 79
18.024155 6.8359451 4.4504318 7
nan nan nan nan
1.9169537 0.72015387 -0.5486964 12
2.0964828 0.78634638 -0.51693755 10
2.3057117 0.86298817 -0.478549 7
2.5461519 0.95146126 -0.43050769 9
2.8790717 1.0741513 -0.37730753 6
3.254509 1.2116354 -0.3038249 8
3.8209894 1.4202554 -0.2136354 3
4.3532033 1.6154848 -0.081048973 7
4.270493 1.6026219 0.07961788 2
4.1987967 1.5732085 0.23498847 1
4.1744518 1.561595 0.38993478 7
4.134212 1.5432527 0.54183114 27
6.8431611 2.5503905 1.1566767 10
7.0177727 2.6112828 1.4554911 77
17.903372 6.647532 4.4090409 6
nan nan nan nan
1.9291871 0.70942044 -0.55076694 12
2.0927746 0.76833296 -0.51468807 11
2.3024631 0.84349358 -0.47664091 9
2.5527322 0.93366253 -0.43050769 9
2.8902299 1.0553871 -0.37779501 5
3.2666326 1.1902492 -0.30417353 8
3.8082883 1.385352 -0.21237932 7
4.3549776 1.5816413 -0.080874451 8
4.2365279 1.556221 0.078780167 2
4.2115526 1.5445446 0.23509313 4
4.2095742 1.5413191 0.39220083 2
nan nan nan nan
6.845953 2.4971387 1.1541736 12
7.0044713 2.5508053 1.4490036 85
17.806482 6.4704685 4.3739486 6
10.129858 3.6749563 2.8873854 2
1.9340928 0.69593489 -0.55076694 13
2.0889177 0.75040972 -0.51243854 10
2.3119919 0.82872373 -0.47740412 10
2.5591881 0.91581839 -0.43050769 9
2.8900499 1.0325123 -0.37682006 4
3.2784119 1.169325 -0.30452216 6
3.8122227 1.3567206 -0.21206531 7
4.3489556 1.5451719 -0.080560312 7
4.3206792 1.5529876 0.080141447 5
4.2673497 1.5312968 0.23760527 1
4.2052264 1.5065197 0.39080635 1
4.1553564 1.4853792 0.54183114 1
6.8520565 2.4453003 1.1522964 10
6.9962173 2.4926183 1.443661 85
17.710569 6.2994885 4.339756 6
10.253579 3.6390433 2.915338 2
1.9389038 0.68241638 -0.55076694 12
2.0959439 0.73645508 -0.51288843 9
2.308316 0.80971909 -0.47549605 10
2.5690911 0.89968431 -0.43113342 9
2.8859441 1.0083822 -0.3753576 6
3.2902577 1.1477213 -0.30487078 8
3.8307996 1.334026 -0.21258868 5
4.3501916 1.5114933 -0.080385789 3
4.3707657 1.5374745 0.080874451 4
4.3040571 1.511477 0.23907068 1
4.2306843 1.4823936 0.39220083 1
4.1916032 1.4662364 0.54524344 3
6.8181896 2.3810191 1.1438489 12
6.9949083 2.4372585 1.4398447 87
nan nan nan nan
nan nan nan nan
1.9380245 0.66731507 -0.54921407 12
2.0972226 0.72090334 -0.51198864 8
2.310199 0.7923094 -0.47473282 9
2.57531 0.88172555 -0.43113342 9
2.8910344 0.98756951 -0.37511387 11
3.286875 1.1208662 -0.3038249 8
3.834347 1.3053205 -0.21227466 5
4.3928266 1.4920193 -0.080979168 1
4.3908467 1.5101771 0.081048973 1
4.3145037 1.4813943 0.23907068 1
4.2783713 1.4664847 0.39568707 3
4.2223988 1.4440037 0.54792464 7
6.8309073 2.3320847 1.1432233 1
nan nan nan nan
nan nan nan nan
9.8710575 3.3507736 2.7931752 4
1.9372571 0.65158224 -0.54766113 12
2.1115644 0.70897889 -0.51423812 9
2.3175352 0.77678567 -0.47511441 9
2.566566 0.85826397 -0.4286305 9
2.8940926 0.9661051 -0.3746264 11
3.2908401 1.0966308 -0.30347627 8
3.8568566 1.2822579 -0.21300736 5
4.5625591 1.5142246 -0.083911166 1
4.3937006 1.4769378 0.080909356 1
4.4196744 1.4822358 0.24430427 1
4.3000908 1.4396267 0.39673293 3
4.2907405 1.4339983 0.55548048 2
6.8118153 2.2712722 1.1372787 10
nan nan nan nan
4.2127681 1.3997686 1.0248771 1
nan nan nan nan
1.9454288 0.63924879 -0.5486964 12
2.1109076 0.69239902 -0.51288843 9
2.3193028 0.75896078 -0.47435117 9
2.5649846 0.8378703 -0.42737901 9
2.9102037 0.94895267 -0.37584507 9
3.3099706 1.0767537 -0.30452216 8
3.850517 1.2503678 -0.21216999 5
4.4779062 1.4515067 -0.082165927 1
4.5029559 1.4778857 0.082724407 1
7.0871038 2.3219023 0.39084497 2
4.364954 1.4275317 0.40178797 3
4.2574868 1.3890959 0.54987448 12
nan nan nan nan
nan nan nan nan
17.558029 5.6947875 4.2614727 6
10.093881 3.2680185 2.8428683 2
1.9516838 0.6262418 -0.54921407 12
2.1082664 0.67526752 -0.51108885 9
2.333895 0.74573928 -0.47625926 9
2.578299 0.82234514 -0.4286305 9
2.9091916 0.92620361 -0.37487015 8
3.2984185 1.0475869 -0.30277905 8
3.8705759 1.2270752 -0.21279801 7
4.4688663 1.4141746 -0.081816882 1
5.1968036 1.6655111 0.095255233 1
6.9014983 2.2078609 0.37974975 2
nan nan nan nan
nan nan nan nan
4.2393746 1.3480686 0.7045809 13
6.9722843 2.2130814 1.4219086 73
10.028563 3.1754684 2.4285717 2
nan nan nan nan
1.9596953 0.61375594 -0.55024934 12
2.1147892 0.6611141 -0.51153874 10
2.3259249 0.72533613 -0.47358796 9
2.5764327 0.8019768 -0.42737901 9
2.9042122 0.90233845 -0.37340769 8
3.3170702 1.028073 -0.3038249 8
3.8676004 1.1964819 -0.21216999 5
4.4289522 1.3676016 -0.080909356 1
4.4239092 1.3838265 0.080909356 1
4.3315439 1.3524446 0.23781461 1
6.9580727 2.1685286 0.63763142 1
6.8544788 2.1309977 0.88135916 3
6.7975149 2.1093857 1.1272669 10
6.9706869 2.1591237 1.4184742 98
10.080276 3.1145875 2.43577 2
nan nan nan nan
1.9546946 0.59723824 -0.54766113 12
2.1212168 0.6469034 -0.51198864 10
2.3215406 0.70622361 -0.47167987 10
2.5857489 0.78511816 -0.42800474 10
2.9218397 0.88549572 -0.37487015 8
3.3089089 1.0002799 -0.30243042 8
3.8796828 1.1706076 -0.21237932 7
4.4364767 1.336074 -0.080874451 3
5.2004247 1.5869529 0.094906189 3
6.8323011 2.0810239 0.3743068 7
6.9120412 2.1013577 0.63205343 40
6.8463936 2.0761762 0.8784343 10
6.7780442 2.0515747 1.1216353 7
6.9028997 2.0854213 1.401683 71
nan nan nan nan
6.5637393 1.9742144 1.83658 100
1.9458563 0.57971519 -0.54403764 12
2.1294177 0.63318866 -0.51288843 11
2.3301785 0.69111651 -0.4724431 9
2.5835903 0.7648055 -0.42675328 9
2.9203351 0.8628273 -0.37389517 8
3.3118193 0.97660482 -0.30208179 8
3.8858447 1.1429303 -0.21227466 7
4.4418583 1.3039423 -0.080804639 8
5.1922107 1.5449058 0.094557136 4
6.83709 2.0304317 0.37378344 9
6.8940692 2.043426 0.62909013 31
nan nan nan nan
nan nan nan nan
6.6950622 1.971735 1.356652 98
6.6241541 1.947084 1.5940033 100
6.5588241 1.9229045 1.8314036 100
1.9628432 0.5698871 -0.54766113 12
2.1262989 0.6161375 -0.51108885 10
2.3480306 0.67905635 -0.47511441 9
2.5887365 0.74720055 -0.42675328 9
2.9262877 0.84241718 -0.37389517 8
3.3300455 0.95676291 -0.30312768 8
3.8954539 1.1170042 -0.21237932 5
4.4681573 1.2778493 -0.081118785 10
5.1853218 1.5045124 0.09424299 6
6.8354049 1.9794017 0.37294605 7
6.8890243 1.9897212 0.62734705 45
6.7866268 1.9562936 0.86722231 78
6.7430391 1.939906 1.1113106 63
6.6822448 1.9173661 1.3513094 95
6.6300926 1.8986453 1.5922037 100
6.5587583 1.8745024 1.8277801 100
1.9629583 0.555462 -0.54662579 12
2.1210666 0.59900284 -0.50883931 10
2.3527141 0.66264743 -0.47511441 9
2.5919883 0.72857505 -0.42644039 10
2.924309 0.82033432 -0.37292022 8
3.3326437 0.93299955 -0.30277905 6
3.8896914 1.0860218 -0.21164663 5
4.472899 1.2463323 -0.081048973 10
5.1822286 1.4644687 0.093998663 4
6.2050962 1.7500176 0.33788097 2
6.8755598 1.9352223 0.62490666 13
6.7771845 1.9024283 0.86429745 73
6.7488093 1.8906518 1.110059 85
6.6762338 1.8665509 1.3474932 100
6.6147065 1.8456157 1.5854552 100
6.5605178 1.8255606 1.8246742 100
1.9649265 0.5412305 -0.54610825 13
2.1233177 0.58366293 -0.50838941 10
2.3439171 0.64298207 -0.4724431 9
2.5987928 0.71143663 -0.42675328 9
2.9376242 0.80199146 -0.37389517 8
3.3352311 0.9086647 -0.30243042 8
3.8969932 1.0595222 -0.21164663 7
4.4293804 1.2009465 -0.080106542 15
5.2075005 1.4334086 0.094277903 4
6.1821966 1.6982203 0.33599687 6
6.892745 1.8882275 0.62525529 42
6.7765732 1.8525891 0.86259133 82
6.7329364 1.8368714 1.1053661 87
6.6834188 1.8183502 1.3463483 92
6.6123853 1.7953064 1.581856 100
nan nan nan nan
1.9629669 0.52634317 -0.54455531 12
2.1366539 0.57171601 -0.51063895 9
2.3407614 0.62457824 -0.47091663 9
2.6036963 0.69327629 -0.42675328 9
2.9315047 0.77891707 -0.37243277 5
3.3414938 0.88535672 -0.30243042 6
3.9004338 1.0312672 -0.21143727 5
4.4335856 1.1697484 -0.080036737 5
5.2038593 1.3933979 0.094033569 6
6.236352 1.6663619 0.33829966 2
6.8784866 1.8340797 0.62281495 42
6.7739925 1.8011569 0.86064136 78
6.7207742 1.7832395 1.1012988 80
nan nan nan nan
nan nan nan nan
4.9243207 1.2973846 1.3644941 4
1.9628549 0.51165158 -0.54352003 13
2.136821 0.55580425 -0.5097391 9
2.343164 0.60772961 -0.47053501 10
2.5950859 0.67161894 -0.4245632 7
2.9330263 0.75744098 -0.37194526 8
3.3360169 0.85902607 -0.30138457 4
3.9094729 1.004509 -0.21154197 3
4.435833 1.1372777 -0.079932027 7
5.1670156 1.3449423 0.093195848 7
6.2304358 1.6182615 0.33735761 2
6.873765 1.7815152 0.6212461 11
nan nan nan nan
nan nan nan nan
5.0194826 1.2915854 1.0074716 6
4.9606161 1.2727492 1.1823428 4
4.9575872 1.2692059 1.3712233 6
1.9682512 0.49841094 -0.54403764 12
2.1406496 0.54087186 -0.5097391 9
2.3606761 0.59471369 -0.47320631 10
2.5958798 0.65252227 -0.42393744 6
2.9517212 0.74032664 -0.37365144 9
3.3380663 0.83475024 -0.30103594 8
3.9125137 0.97622597 -0.2113326 3
4.4650087 1.1115981 -0.080315977 5
5.1917877 1.3127611 0.093475096 6
5.21907 1.3167524 0.28209084 5
5.1819148 1.304493 0.4675034 5
5.0829768 1.2758113 0.64347017 3
5.0875063 1.2741171 0.83066714 3
5.0569477 1.2636507 1.0131959 5
4.9901814 1.2432687 1.1872917 4
4.9700766 1.2354965 1.3722585 6
1.9754355 0.48557922 -0.54507297 12
2.1368027 0.52405846 -0.50793952 9
2.3571422 0.57635337 -0.47167987 9
2.6042104 0.63532013 -0.4245632 9
2.9471743 0.71735299 -0.37243277 9
3.3515575 0.8133052 -0.30173317 6
3.8978815 0.94371808 -0.21018122 3
4.4648857 1.0785214 -0.080176361 5
5.1736369 1.2698102 0.09298642 6
5.1757574 1.2674578 0.27926469 3
5.1908956 1.2682846 0.4675034 2
5.1168323 1.2464042 0.64663881 6
5.1154723 1.2432361 0.83379585 6
5.0408425 1.2223037 1.0082349 5
6.6826653 1.6154711 1.5872548 18
nan nan nan nan
1.9825355 0.47267228 -0.54610825 12
2.1366174 0.5082261 -0.50703973 9
2.3553774 0.55852443 -0.47053501 9
2.6105046 0.61757857 -0.42487606 9
2.957906 0.69812965 -0.37316394 9
3.349396 0.7880618 -0.30103594 5
3.9140966 0.91876471 -0.21070457 3
4.4372602 1.039115 -0.079548068 4
5.1901579 1.235513 0.093126044 10
5.190309 1.2326778 0.27957872 5
5.1899295 1.2297176 0.46663183 6
5.1292734 1.2115644 0.64712632 5
6.8217812 1.6075742 1.110059 66
nan nan nan nan
nan nan nan nan
6.6347013 1.5512712 1.8257096 100
1.9726113 0.45577577 -0.54248476 12
2.1496081 0.49548584 -0.50928926 9
2.3611329 0.54250687 -0.47091663 7
2.6147523 0.59933877 -0.42487606 9
2.9414213 0.6725952 -0.37048283 8
3.3509307 0.7637738 -0.30068728 6
3.9204154 0.89141679 -0.21070457 5
4.440506 1.0072292 -0.079478264 8
5.1830678 1.1956552 0.092846803 6
5.2085195 1.1986548 0.28010207 1
6.9344206 1.5920165 0.62246627 58
nan nan nan nan
6.8135796 1.5555133 1.1069304 84
nan nan nan nan
nan nan nan nan
nan nan nan nan
1.9719744 0.4411507 -0.54144943 12
2.1587207 0.48174104 -0.51063895 10
2.3629463 0.52558351 -0.47053501 9
2.6111591 0.57935816 -0.4236246 9
2.9596126 0.65504664 -0.37218902 9
3.3638344 0.74266523 -0.30138457 5
3.930444 0.86488384 -0.21091393 5
4.4591484 0.9787764 -0.079687685 3
5.1678705 1.1542084 0.092427947 6
6.1953917 1.3802931 0.33264738 2
6.9161916 1.5370824 0.61985165 60
nan nan nan nan
nan nan nan nan
7.2816586 1.6049747 1.4493852 1
7.2324657 1.5901617 1.7096281 2
nan nan nan nan
1.9787825 0.42819011 -0.54248476 11
2.1525068 0.46460176 -0.50838941 10
2.3722272 0.51072687 -0.47167987 9
2.615042 0.56157112 -0.4236246 9
2.9563489 0.63270837 -0.37121406 9
3.368937 0.71916473 -0.30138457 5
3.9264722 0.83603227 -0.21039055 7
4.4600048 0.94637668 -0.079582974 3
5.1775608 1.1194301 0.092462853 4
6.2241664 1.342304 0.3336941 2
6.9053273 1.4841557 0.61793417 61
7.4204054 1.5907967 0.93181306 1
7.4370718 1.5902975 1.2045455 1
7.4309363 1.5835617 1.4768617 1
7.4149446 1.5760957 1.7501193 2
7.4346547 1.5762173 2.0363884 3
1.9929965 0.41708529 -0.54559058 12
2.1498966 0.44874585 -0.50703973 10
2.3718905 0.49335358 -0.47091663 9
2.6111619 0.54169595 -0.42237309 9
2.9605873 0.61256903 -0.37121406 9
3.36607 0.69401664 -0.30068728 5
3.9224324 0.80658674 -0.20986721 5
4.4604664 0.91479117 -0.079478264 3
5.1774201 1.0816209 0.092323236 4
6.2372961 1.299633 0.33390343 2
6.9035649 1.4346892 0.61688834 60
7.6257138 1.5792124 0.95618695 1
7.6375771 1.5774995 1.2352067 1
7.387702 1.5218565 1.4661764 1
7.2940507 1.4972537 1.719076 2
7.2600031 1.4863039 1.9856598 2
1.9920726 0.40239641 -0.54455531 12
2.1510665 0.43334094 -0.50658983 10
2.3810513 0.47794288 -0.47206149 9
2.6226277 0.52500564 -0.4236246 9
2.9608977 0.59110945 -0.37072656 9
3.4020994 0.67671931 -0.30347627 4
3.9220903 0.7780174 -0.20955318 7
4.4706669 0.88440496 -0.079548068 3
5.1809249 1.0446564 0.092253424 3
6.1894345 1.2446352 0.33086795 2
6.8977847 1.3833206 0.61549383 61
7.480824 1.4948188 0.93668783 1
7.45855 1.4863074 1.2045455 1
7.3711882 1.4648861 1.4608337 2
7.323441 1.4500836 1.723575 2
7.3308501 1.4475625 2.0022242 2
1.9891444 0.38737145 -0.54300237 12
2.1578653 0.41905609 -0.50748962 10
2.3669825 0.45795205 -0.46862692 9
2.6301084 0.50743192 -0.42425033 9
2.9610538 0.56967402 -0.37023908 9
3.3714056 0.64679086 -0.30033869 6
3.9215407 0.74949408 -0.20923917 6
4.4708395 0.85204917 -0.07944335 1
5.1920176 1.0092269 0.092323236 4
6.2077761 1.2032979 0.3313913 2
6.8798876 1.329841 0.6130535 61
7.5105715 1.4463065 0.93912524 1
7.4959044 1.4394124 1.2089256 1
7.5374222 1.4432935 1.4917448 1
7.5111599 1.4341882 1.765416 2
7.5020919 1.4270332 2.0462234 3
1.9918003 0.37347516 -0.54300237 12
2.1645694 0.40469742 -0.50838941 11
2.3816247 0.44398865 -0.47091663 9
2.6218486 0.48735148 -0.42237309 9
2.9649587 0.54898804 -0.37023908 9
3.3601646 0.62034446 -0.29894418 6
3.9363737 0.72458971 -0.20976254 7
4.4766784 0.82081819 -0.07944335 3
5.1673183 0.96797144 0.091764756 3
6.2118959 1.1602814 0.33118194 2
6.8772511 1.2795912 0.61200762 61
7.6861429 1.4259317 0.95984304 1
7.6764612 1.4199785 1.2364582 1
7.7114277 1.4208797 1.5241823 1
7.6973224 1.4141104 1.806807 2
7.6560507 1.4023849 2.0855639 3
1.9980985 0.36059493 -0.54403764 12
2.1596022 0.38857391 -0.50658983 9
2.3808014 0.42665833 -0.47015342 9
2.6251869 0.46903566 -0.42237309 9
2.9725354 0.5294897 -0.37072656 9
3.3800027 0.60024512 -0.30033869 8
3.9197018 0.6932646 -0.20861115 6
4.4762545 0.78928345 -0.07933864 3
5.1818218 0.9332934 0.091904372 3
6.2296739 1.1186509 0.33170533 2
6.8720732 1.2302917 0.61078745 58
7.8600698 1.4015083 0.98031712 1
7.8845658 1.4016173 1.2683709 1
7.891036 1.3985058 1.5577648 1
7.8871565 1.3935593 1.8490977 2
7.8635263 1.3837242 2.1393983 3
1.9967602 0.34597808 -0.54300237 12
2.1584218 0.37282524 -0.50569004 11
2.3933241 0.4121097 -0.47206149 9
2.6283185 0.45115694 -0.42237309 9
2.9683328 0.50738674 -0.36975163 9
3.3958957 0.57864171 -0.30138457 6
3.9262986 0.66690421 -0.20871581 4
4.485599 0.7586832 -0.079408452 3
5.2018476 0.90038514 0.092148706 1
6.182035 1.0667118 0.32877451 4
6.8706765 1.1805985 0.60991585 68
8.0572605 1.3801483 1.003716 1
8.0652771 1.3771752 1.2959032 1
8.0612516 1.3706931 1.5894389 1
8.0465584 1.3638605 1.8841902 2
8.0499144 1.3600938 2.1875386 2
2.0105035 0.3342787 -0.54610825 12
2.1685996 0.35939807 -0.50748962 11
2.3825834 0.39315245 -0.46939012 9
2.6353033 0.43343681 -0.42299888 9
2.9717176 0.48717013 -0.36975163 9
3.3919866 0.55363756 -0.30068728 8
3.9288871 0.63915843 -0.20861115 3
4.4807892 0.72653496 -0.07923393 1
5.192225 0.8614316 0.091869473 1
6.1932721 1.0241817 0.32898384 2
6.8706899 1.132511 0.6092186 67
8.2645473 1.3563342 1.0283337 1
8.2657423 1.3520865 1.3265644 1
8.2680378 1.3480175 1.6283641 1
8.2790174 1.3438752 1.9363788 2
8.6999836 1.4075332 2.361465 2
2.0032487 0.31871784 -0.54352003 13
2.1729803 0.34455585 -0.50793952 10
2.3833311 0.37620324 -0.46900854 9
2.6382649 0.41502833 -0.42299888 9
2.9770076 0.46671924 -0.36999539 5
3.3760836 0.52686977 -0.29894418 8
3.9391744 0.61263293 -0.20892516 4
4.4521589 0.69002664 -0.078640543 4
5.1941619 0.82453489 0.091799662 1
6.2061892 0.98185593 0.32929787 2
6.8508754 1.0801728 0.60677826 67
8.7954626 1.3804823 1.0931681 1
8.9385395 1.398144 1.4329399 1
8.9154491 1.3897507 1.7539164 1
9.0045557 1.3971983 2.1037424 2
8.8966961 1.3756924 2.4121935 2
1.9977852 0.30356392 -0.54144943 13
2.1772597 0.32966894 -0.50838941 11
2.3839579 0.35926387 -0.46862692 9
2.6450047 0.39718759 -0.4236246 9
2.9801931 0.44592583 -0.36999539 8
3.3915038 0.50504822 -0.29999006 6
3.9394042 0.58453107 -0.20871581 6
4.4687366 0.66068274 -0.078849971 4
5.1938605 0.78735113 0.091694944 3
6.2188177 0.93939668 0.3296119 4
6.8385482 1.0293494 0.60503519 70
9.1150684 1.3655127 1.1316788 1
9.2372341 1.3788698 1.4792445 1
9.1501942 1.3609799 1.7981842 1
9.2068634 1.3628356 2.1487324 2
9.1621809 1.3513198 2.4815571 2
2.0055914 0.29043996 -0.54300237 13
2.1660066 0.31251279 -0.50524008 10
2.3922379 0.34344897 -0.46977177 9
2.6340249 0.37675443 -0.42143452 7
2.9851987 0.42538938 -0.37023908 9
3.3949471 0.48135877 -0.29999006 6
3.927568 0.55477989 -0.20787844 6
4.4831414 0.6308623 -0.079024501 6
5.1794391 0.74821544 0.091345899 3
6.2034783 0.89283139 0.32846051 2
6.8376784 0.98045439 0.60433793 70
9.3523426 1.3343651 1.1599525 1
9.4813223 1.3477027 1.5167887 1
9.4510527 1.3383522 1.8554269 1
9.4091215 1.3257195 2.193723 2
9.4124413 1.3211616 2.5467794 2
2.0056567 0.27616772 -0.54248476 12
2.1642742 0.29685396 -0.50434029 10
2.3965225 0.32700506 -0.47015342 9
2.6405056 0.35888836 -0.42206025 7
2.9821942 0.40373936 -0.36950788 9
3.4021735 0.45817924 -0.30033869 5
3.9214473 0.52602094 -0.20735508 6
4.4775252 0.59822661 -0.078849971 4
5.1924605 0.71312618 0.091485515 4
6.1858144 0.84625262 0.32720444 2
6.8364601 0.93161833 0.60364062 70
9.6486273 1.3079734 1.1955384 1
9.6862621 1.307911 1.5480757 1
9.6858711 1.3026948 1.8996944 1
9.6113014 1.2858354 2.238713 2
9.4673939 1.2615378 2.5592029 2
2.0113668 0.26265913 -0.54352003 12
2.1720915 0.28249124 -0.50569004 9
2.3812237 0.30799848 -0.46671882 8
2.6468654 0.34094891 -0.42268598 6
2.9770646 0.38189816 -0.36853293 8
3.4131951 0.43542498 -0.30103594 6
3.9329495 0.49963811 -0.20777377 4
4.4855609 0.56745505 -0.078919783 4
5.1893806 0.6758256 0.091345899 3
6.1895914 0.80278999 0.32709977 2
6.8309417 0.88233685 0.60259479 71
nan nan nan nan
9.9616346 1.2743504 1.5906258 1
9.9323254 1.265316 1.9462519 1
9.910037 1.2554419 2.3061984 2
9.479804 1.1958958 2.5602381 2
2.0035651 0.24742691 -0.54093182 12
2.1759448 0.2675581 -0.50613987 9
2.3735721 0.29017687 -0.46481073 7
2.6531026 0.32294062 -0.42331171 7
2.9875407 0.36206177 -0.36950788 8
3.4121954 0.41110748 -0.30068728 5
3.9502234 0.47383198 -0.20850646 4
4.4616151 0.53280431 -0.078431122 4
5.2177892 0.64251572 0.091764756 3
6.2049565 0.76077718 0.32762313 4
6.8230901 0.83293957 0.60137457 77
nan nan nan nan
10.193856 1.2317891 1.6262929 1
10.237195 1.2315882 2.0042579 1
10.065616 1.2038184 2.3403909 2
9.4572287 1.1260351 2.5519559 2
2.0014057 0.23298755 -0.53989661 12
2.1758239 0.25213733 -0.50569004 9
2.3852918 0.27472225 -0.46671882 8
2.6552925 0.30441058 -0.42331171 7
2.9939404 0.34164613 -0.36999539 9
3.4110229 0.38682848 -0.30033869 5
3.9593887 0.44691658 -0.20882049 4
4.4652257 0.50164551 -0.078431122 4
5.1923518 0.6026125 0.091241181 1
6.220037 0.71858299 0.32814649 2
6.8069668 0.78277808 0.5994572 71
nan nan nan nan
nan nan nan nan
10.491343 1.1879206 2.0523417 1
10.066029 1.1326463 2.3385913 2
9.4379816 1.0569738 2.544709 2
2.0087447 0.21963938 -0.54144943 12
2.1852801 0.23778428 -0.50748962 9
2.3930075 0.25869614 -0.46786368 7
2.649497 0.28502062 -0.42206025 7
3.0002 0.32115874 -0.37048283 8
3.4215019 0.36444548 -0.30103594 6
3.9743297 0.42052492 -0.20944853 5
4.4765735 0.47129759 -0.078570738 4
5.1884809 0.56548172 0.091101564 1
6.2050462 0.67298794 0.32709977 2
6.7964191 0.73352706 0.59806269 71
nan nan nan nan
nan nan nan nan
nan nan nan nan
5.2693071 0.55661696 1.2232839 5
5.2221041 0.54794484 1.4069405 50
2.0102293 0.20560938 -0.54144943 12
2.1713772 0.22094315 -0.5038904 9
2.3947129 0.24240142 -0.46786368 8
2.6572721 0.26757315 -0.42299888 9
3.0023689 0.30020699 -0.37048283 8
3.4120672 0.33936685 -0.29999006 6
3.9611995 0.39188963 -0.20861115 4
4.4757743 0.43964273 -0.078500926 4
5.1981778 0.53076357 0.091206275 3
6.1677547 0.62650019 0.32490164 2
6.7954268 0.68546134 0.59753978 20
5.3862991 0.54047257 0.66467547 42
nan nan nan nan
nan nan nan nan
nan nan nan nan
5.2141776 0.5112552 1.4038346 65
2.0192745 0.19265628 -0.54352003 12
2.1747708 0.20634302 -0.50434029 9
2.3924375 0.2253091 -0.46710047 8
2.6551414 0.24864697 -0.42237309 9
2.9924834 0.27865773 -0.3690204 8
3.4262016 0.31723589 -0.30103594 5
3.9737833 0.36513945 -0.2091345 4
4.4786634 0.40916684 -0.078500926 3
5.2017565 0.49445799 0.091206275 4
5.462122 0.51632184 0.28753379 50
5.4629593 0.51351529 0.48005384 53
5.3662224 0.5006457 0.66175061 55
5.3441534 0.49576449 0.85006499 64
5.3057499 0.48940021 1.0357113 72
5.2551346 0.48195681 1.218335 80
5.2079997 0.4739655 1.4012463 81
2.0109487 0.17770413 -0.54093182 12
2.1800408 0.19149627 -0.50524008 10
2.3860924 0.20833711 -0.46557397 8
2.6725161 0.23193583 -0.42487606 9
3.0022671 0.25844193 -0.36999539 8
3.4164219 0.29229137 -0.29999006 6
3.9781663 0.33825335 -0.20923917 4
4.4654703 0.37654576 -0.078221686 4
5.2209373 0.4604471 0.091485515 4
5.4674993 0.47930729 0.28763846 43
5.4306822 0.47225714 0.47691619 46
5.3833499 0.46530131 0.66345674 55
5.3395309 0.45869756 0.84881347 57
5.3168616 0.4530113 1.0372378 67
5.2544875 0.44492593 1.2174351 78
5.1995554 0.43753281 1.3981405 81
2.0044098 0.16338408 -0.53886127 12
2.1968329 0.17791116 -0.50883931 10
2.3933597 0.19214416 -0.46671882 8
2.6583173 0.21201481 -0.42237309 9
3.0118723 0.23862581 -0.37097031 6
3.4064147 0.26809013 -0.29894418 6
3.9684837 0.30954042 -0.20861115 3
4.4759045 0.34676144 -0.078361303 4
5.2120657 0.42301631 0.091276079 3
5.4607582 0.44032261 0.28711507 42
5.4178829 0.43401048 0.47552174 27
5.3805304 0.42723832 0.66272557 57
5.3406339 0.42125666 0.84850067 61
5.3041635 0.4155857 1.0341848 72
5.2554512 0.40900066 1.2169853 85
5.1909261 0.40033111 1.3950348 91
2.011281 0.1498172 -0.54041415 12
2.1766436 0.16098891 -0.5038904 10
2.404402 0.17656867 -0.46862692 9
2.6518183 0.19334199 -0.42112163 9
2.9976254 0.21645087 -0.3690204 6
3.4161525 0.24487382 -0.29964143 5
3.9884288 0.28379637 -0.20955318 5
4.4662476 0.31465992 -0.078151874 4
5.2068477 0.38693622 0.091136463 3
5.4656205 0.40328914 0.28721976 43
5.4088583 0.39530462 0.47447586 20
5.3595552 0.38887778 0.65980065 61
5.3433781 0.38489172 0.84850067 69
5.2971444 0.37784711 1.0322767 76
5.2581782 0.37230077 1.2169853 85
5.1800413 0.36404273 1.3914113 74
2.0180604 0.13616231 -0.54196709 12
2.1757703 0.14565898 -0.5034405 9
2.403645 0.15922888 -0.46824533 9
2.6590476 0.1747497 -0.42206025 7
2.9951355 0.19473723 -0.36853293 6
3.42577 0.22093502 -0.30033869 5
3.9744117 0.25422862 -0.20871581 4
4.4843507 0.28370225 -0.078431122 4
5.205493 0.34939918 0.091066658 3
5.4544168 0.36323872 0.28648707 43
5.4333549 0.35897884 0.47639325 49
5.3622007 0.35051829 0.65980065 61
5.3440237 0.34652027 0.8481878 64
5.2957935 0.33968061 1.0315135 78
5.2334809 0.3329325 1.2106867 87
5.1921535 0.32757404 1.3939995 81
2.0247681 0.12206668 -0.54352003 11
2.1787021 0.13020205 -0.5038904 10
2.4007783 0.1422122 -0.46748206 9
2.6602299 0.15571752 -0.42206025 7
3.0122762 0.17474219 -0.37048283 6
3.4471202 0.19815668 -0.30208179 5
3.9801176 0.22600833 -0.20892516 4
4.4742427 0.25171685 -0.078221686 4
5.2197814 0.31376937 0.091276079 3
5.4469075 0.32360628 0.28596368 54
5.4139061 0.31880116 0.47447586 53
5.3565903 0.31261191 0.6588257 61
5.3305893 0.30736074 0.84568483 67
5.2980361 0.3027007 1.0315135 57
5.2240038 0.29572695 1.2079873 33
nan nan nan nan
2.0120671 0.1072096 -0.53989661 12
2.18345 0.11519505 -0.50479025 9
2.3978133 0.12482485 -0.46671882 9
2.661252 0.13714181 -0.42206025 7
3.0054927 0.15330379 -0.36950788 9
3.4325309 0.17268373 -0.30068728 5
3.9855881 0.19841497 -0.2091345 4
4.4639072 0.21988429 -0.078012258 4
5.2139053 0.27598664 0.091136463 4
5.4370666 0.28494462 0.28533566 63
nan nan nan nan
nan nan nan nan
nan nan nan nan
nan nan nan nan
nan nan nan nan
nan nan nan nan
2.0146964 0.093248464 -0.54041415 12
2.1919878 0.10030417 -0.50658983 9
2.40451 0.10834819 -0.46786368 9
2.6542509 0.11820914 -0.42080876 6
3.0144224 0.13266832 -0.37048283 8
3.4336526 0.14871594 -0.30068728 5
3.9828851 0.17041472 -0.20892516 6
4.4733253 0.18905275 -0.078151874 4
5.2236958 0.23994704 0.091276079 4
5.4369283 0.2468892 0.28523099 56
nan nan nan nan
8.1011972 0.35795608 0.99567258 1
8.0202904 0.35017389 1.2714995 1
7.9124107 0.34131327 1.5394472 1
7.8307853 0.33231938 1.8095064 2
7.7785335 0.32601467 2.0860815 3
2.0172286 0.07925681 -0.54093182 12
2.1887403 0.084847793 -0.50569004 9
2.4071698 0.091633596 -0.46824533 9
2.6589594 0.09982305 -0.42143452 6
3.02321 0.11191275 -0.37145779 8
3.4346073 0.12474255 -0.30068728 5
3.9660137 0.14196368 -0.20798311 3
4.4745359 0.15782058 -0.078151874 4
5.2212472 0.20331977 0.091206275 3
5.4305367 0.20862217 0.2848123 54
nan nan nan nan
8.0757275 0.30035743 0.99226028 1
7.9909549 0.293015 1.2664937 1
7.8989038 0.28549856 1.536394 1
7.8426523 0.27798349 1.811756 2
7.7574515 0.27089697 2.07987 3
2.0158019 0.065110557 -0.54041415 12
2.1795404 0.069257021 -0.5034405 10
2.4136374 0.07500793 -0.46939012 7
2.6674893 0.081498884 -0.42268598 6
2.9961388 0.089969881 -0.36804545 8
3.4314115 0.1006446 -0.30033869 4
3.9629157 0.11415531 -0.20777377 3
4.4915199 0.12702872 -0.078431122 4
5.2305336 0.16711907 0.091345899 4
5.4198828 0.17032839 0.28418428 54
nan nan nan nan
7.9784184 0.24097826 0.98007339 1
7.9612136 0.23628666 1.2614876 1
7.8594942 0.2291491 1.5283802 5
nan nan nan nan
7.7263255 0.2158162 2.0710702 27
2.0200698 0.051133797 -0.54144943 12
2.1780226 0.053990975 -0.5029906 9
2.3885875 0.057542227 -0.46442911 8
2.6640439 0.062782504 -0.42206025 6
3.0125706 0.069417961 -0.36999539 8
3.451936 0.077733897 -0.30208179 4
3.9855802 0.086965434 -0.20892516 3
4.4843001 0.095498577 -0.078291491 6
5.2435679 0.13089843 0.091555327 3
5.4049659 0.13209336 0.28334689 56
nan nan nan nan
7.9759364 0.18518037 0.97958583 1
7.8895988 0.17904292 1.2499115 1
7.8667912 0.17440446 1.529525 3
nan nan nan nan
7.748889 0.16231602 2.0767641 9
2.0165145 0.036958996 -0.54041415 12
2.1939337 0.039061721 -0.50658983 9
2.3948131 0.04138403 -0.46557397 9
2.6644094 0.04464744 -0.42206025 6
3.0169513 0.048448309 -0.37048283 8
3.4484103 0.053571045 -0.30173317 4
3.974098 0.059656415 -0.20829713 3
4.4688616 0.063960999 -0.078012258 4
5.2483358 0.095276088 0.091625139 4
5.4097342 0.095372774 0.28355622 52
nan nan nan nan
8.0127392 0.13147169 0.98397315 3
7.9400129 0.12612019 1.2577332 3
7.9090405 0.1201019 1.537539 3
7.8155565 0.11458943 1.8045574 4
7.73243 0.10932136 2.0721054 9
2.012856 0.023187632 -0.53937894 12
2.1902518 0.0240843 -0.50569004 11
2.4009328 0.02472472 -0.46671882 8
2.656755 0.025968038 -0.42080876 7
3.0211813 0.027946692 -0.37097031 8
3.4247873 0.029886896 -0.29964143 5
3.9923921 0.032054845 -0.20923917 3
4.4731927 0.033573024 -0.078082062 4
5.2408748 0.058544122 0.091485515 3
5.4162598 0.057667173 0.28387025 57
nan nan nan nan
7.9797168 0.075210959 0.97982955 1
7.9248972 0.070544712 1.2552303 3
7.8978953 0.066168964 1.5352492 3
7.8239508 0.061452821 1.8063571 6
7.7310724 0.055322338 2.0715878 9
2.0206962 0.0091697481 -0.54144943 12
2.1903665 0.0087928725 -0.50569004 9
2.4030089 0.0083883377 -0.46710047 9
2.6568701 0.0078834426 -0.42080876 7
3.0371835 0.0068916646 -0.37292022 6
3.4368665 0.0059991456 -0.30068728 4
3.9725451 0.0048542889 -0.20819245 1
4.4773178 0.0023433941 -0.078151874 4
5.25315 0.022921542 0.091694944 3
5.4105349 0.020775447 0.28355622 56
nan nan nan nan
7.9899693 0.02091508 0.98104829 3
7.9390216 0.01662508 1.2574203 3
7.8706794 0.010991262 1.5299066 3
7.8202915 0.0068264436 1.8054572 4
7.7119513 0.0026941455 2.0664113 6
2.0265064 -0.0049516992 -0.54300237 12
2.1845284 -0.0064816452 -0.50434029 9
2.4069338 -0.008821913 -0.46786368 9
2.6687107 -0.011178735 -0.42268598 6
3.0093665 -0.014181411 -0.36950788 6
3.4288521 -0.018552057 -0.29999006 4
3.9565005 -0.023478623 -0.20735508 1
4.489223 -0.028990539 -0.078361303 4
5.2571793 -0.014680851 0.091764756 3
5.4005594 -0.017908998 0.28303289 59
nan nan nan nan
7.9859443 -0.036239315 0.98056084 2
7.9567161 -0.040272903 1.2602363 1
nan nan nan nan
nan nan nan nan
nan nan nan nan
2.0322177 -0.019153768 -0.54455531 12
2.1785839 -0.021674087 -0.5029906 9
2.4028873 -0.025583327 -0.46710047 9
2.6606667 -0.029721169 -0.42143452 7
3.0091941 -0.035190232 -0.36950788 8
3.4326236 -0.042538688 -0.30033869 4
3.9841995 -0.051460534 -0.20882049 1
4.4729147 -0.060115278 -0.078082062 3
5.2609472 -0.051421314 0.09183456 3
5.3903165 -0.055508431 0.28250951 54
nan nan nan nan
9.7441721 -0.11224975 1.1965134 1
9.7734566 -0.1177052 1.5480757 1
9.6623755 -0.12142738 1.8783239 1
9.598649 -0.12732877 2.216218 2
9.7665138 -0.13467021 2.6171782 2
2.0165815 -0.033087198 -0.54041415 12
2.1978641 -0.037212718 -0.50748962 9
2.3967612 -0.042254064 -0.46595559 9
2.6682944 -0.048438661 -0.42268598 7
3.0207839 -0.05641976 -0.37097031 8
3.4441953 -0.066733271 -0.30138457 4
3.9797494 -0.079194546 -0.20861115 1
4.4723859 -0.091340393 -0.078082062 3
5.2604599 -0.088148095 0.09183456 4
5.3818097 -0.093000241 0.28209084 54
nan nan nan nan
9.8146019 -0.18159562 1.2052879 1
9.7723961 -0.18593337 1.5480757 1
9.6612921 -0.18888 1.8783239 1
nan nan nan nan
nan nan nan nan
2.0163016 -0.047164667 -0.54041415 12
2.1994989 -0.052602269 -0.50793952 9
2.4022958 -0.059130374 -0.46710047 9
2.6520932 -0.066668406 -0.42018303 7
3.0163474 -0.077405415 -0.37048283 8
3.4396617 -0.090671457 -0.30103594 5
3.9631274 -0.10654688 -0.20777377 1
4.483633 -0.12288979 -0.078291491 4
5.2637153 -0.12496553 0.091904372 4
5.3870196 -0.13071515 0.28240484 63
nan nan nan nan
9.793251 -0.24960375 1.2028506 1
9.7313652 -0.25312516 1.5418184 1
9.5930109 -0.25455272 1.8653487 1
nan nan nan nan
7.7630534 -0.21548575 2.0809052 3
2.025578 -0.061533146 -0.54300237 13
2.1815476 -0.06741453 -0.5038904 9
2.4057491 -0.076024011 -0.46786368 9
2.6594605 -0.085435435 -0.42143452 7
3.0276375 -0.098850101 -0.37194526 8
3.4389451 -0.11468242 -0.30103594 4
3.9602909 -0.13414428 -0.20766909 1
4.4866629 -0.15432569 -0.078361303 4
5.2587166 -0.161587 0.09183456 3
5.3879714 -0.16838253 0.28250951 64
nan nan nan nan
9.7436523 -0.31642056 1.1970007 1
9.7175159 -0.3206653 1.5399411 1
9.5713787 -0.32086009 1.8615327 1
nan nan nan nan
7.772944 -0.2700789 2.0840108 3
2.0135162 -0.075239904 -0.53989661 12
2.1810238 -0.082642838 -0.5038904 10
2.4149685 -0.093195856 -0.46977177 9
2.6666949 -0.10430859 -0.42268598 7
3.0110054 -0.1193554 -0.36999539 8
3.4420421 -0.13884841 -0.30138457 4
3.963249 -0.16195194 -0.20787844 1
4.4814801 -0.18547909 -0.078291491 4
5.261457 -0.19844627 0.091904372 4
5.3746901 -0.20553534 0.28188148 56
nan nan nan nan
nan nan nan nan
nan nan nan nan
nan nan nan nan
nan nan nan nan
7.7554278 -0.32369277 2.07987 3
2.0187316 -0.089551792 -0.54144943 12
2.1940215 -0.098478802 -0.50703973 10
2.4024918 -0.10951669 -0.46748206 9
2.6659017 -0.12292293 -0.42268598 7
3.0100989 -0.14037311 -0.36999539 8
3.4290478 -0.16230962 -0.30033869 2
3.9779816 -0.19038028 -0.20871581 1
4.4760818 -0.21656771 -0.078221686 3
5.2519531 -0.23481579 0.091764756 3
5.3671384 -0.24278165 0.28156745 57
nan nan nan nan
nan nan nan nan
nan nan nan nan
nan nan nan nan
14.547989 -0.70133501 3.3625686 3
7.7414017 -0.37726337 2.0767641 3
2.0180573 -0.1036429 -0.54144943 12
2.1971726 -0.11399537 -0.50793952 11
2.395787 -0.12597716 -0.46633717 9
2.6787865 -0.1422646 -0.42487606 9
3.0169744 -0.16180922 -0.37097031 8
3.4318101 -0.1864609 -0.30068728 4
3.9785497 -0.21825635 -0.20882049 3
4.4704671 -0.24758993 -0.078151874 3
5.254179 -0.27168182 0.09183456 3
5.3673072 -0.28034934 0.28167215 56
nan nan nan nan
nan nan nan nan
nan nan nan nan
nan nan nan nan
14.542738 -0.80288118 3.3625686 3
7.7501526 -0.43194386 2.07987 3
2.0095701 -0.11727875 -0.53937894 12
2.1924326 -0.12910253 -0.50703973 10
2.3968089 -0.14281648 -0.46671882 9
2.659982 -0.15989569 -0.42206025 7
3.0316231 -0.18382879 -0.37292022 8
3.4264474 -0.21017078 -0.30033869 2
3.9769292 -0.24602632 -0.20882049 3
4.4766126 -0.27929145 -0.078291491 3
5.2361851 -0.30741841 0.091555327 4
5.3552508 -0.31722254 0.28114879 59
nan nan nan nan
nan nan nan nan
nan nan nan nan
nan nan nan nan
5.2086558 -0.32405031 1.2048379 1
7.7199554 -0.48434567 2.072623 3
2.0164135 -0.13180928 -0.54144943 12
2.1836996 -0.14389279 -0.50524008 10
2.4133837 -0.16071986 -0.47015342 9
2.6666846 -0.17899098 -0.42331171 9
3.028285 -0.20485482 -0.37267649 9
3.4248967 -0.23408656 -0.30033869 4
3.965152 -0.27309814 -0.20829713 4
4.4705648 -0.31026021 -0.078221686 3
5.2299204 -0.34370378 0.091485515 4
5.3668561 -0.35552534 0.28188148 64
nan nan nan nan
nan nan nan nan
nan nan nan nan
14.611614 -1.0012441 2.8468704 3
5.2568135 -0.36390445 1.2165354 1
7.7433662 -0.54011083 2.07987 3
2.0115905 -0.14560424 -0.54041415 12
2.1806984 -0.15899254 -0.50479025 10
2.4180768 -0.17799678 -0.47129822 9
2.6594601 -0.19716527 -0.42237309 9
3.0050061 -0.22436526 -0.36999539 8
3.4271524 -0.25829044 -0.30068728 2
3.9830639 -0.30228463 -0.20934384 7
4.4802532 -0.34237704 -0.078431122 3
5.2234044 -0.3799167 0.091415711 4
5.3502998 -0.39196262 0.28114879 59
nan nan nan nan
nan nan nan nan
nan nan nan nan
5.2152505 -0.39396742 1.0166303 1
5.1531034 -0.39289105 1.1931405 1
7.7239976 -0.59297317 2.0757289 3
2.0220797 -0.16056161 -0.54352003 12
2.1853628 -0.17467847 -0.50613987 10
2.399163 -0.19345355 -0.46786368 8
2.6619568 -0.21604647 -0.42299888 9
3.0073233 -0.24566178 -0.37048283 8
3.4530652 -0.28450039 -0.30312768 4
3.9649334 -0.32876375 -0.20850646 6
4.4697819 -0.37298131 -0.078291491 3
5.2285986 -0.41700938 0.091555327 3
5.3354878 -0.42834592 0.28052074 63
nan nan nan nan
nan nan nan nan
nan nan nan nan
5.2123728 -0.43036684 1.0166303 1
5.1813073 -0.43144399 1.200339 1
7.7235198 -0.64720458 2.0767641 3
2.007437 -0.1735099 -0.53989661 12
2.1840899 -0.18993083 -0.50613987 10
2.3997099 -0.21036945 -0.46824533 9
2.6682546 -0.23531918 -0.42425033 9
3.0213537 -0.26805413 -0.37243277 8
3.4271812 -0.30647066 -0.30103594 4
3.9784551 -0.35786745 -0.20934384 7
4.4591036 -0.40345621 -0.078151874 3
5.2295442 -0.4538472 0.091625139 3
5.338336 -0.46610501 0.28083476 64
nan nan nan nan
nan nan nan nan
nan nan nan nan
5.2327065 -0.46884778 1.0212098 1
5.1412926 -0.46427548 1.1917908 3
7.7034216 -0.69971067 2.072623 3
1.9927121 -0.18626155 -0.53627306 10
2.1846511 -0.20535627 -0.50658983 10
2.4099097 -0.22822791 -0.47053501 8
2.6626136 -0.25356668 -0.4236246 9
3.027313 -0.28989735 -0.37340769 6
3.4209914 -0.33000663 -0.30068728 4
3.9838121 -0.38640469 -0.20976254 7
4.4721003 -0.43612927 -0.078431122 3
5.2103205 -0.48885047 0.091345899 4
5.3369403 -0.50354964 0.28093943 63
nan nan nan nan
nan nan nan nan
14.837817 -1.4261056 2.3609092 2
5.1980395 -0.50234562 1.0151039 1
5.1340466 -0.49977922 1.1908909 4
7.6945043 -0.75309688 2.0715878 3
2.0144296 -0.20248722 -0.54248476 12
2.1792865 -0.22021106 -0.50569004 10
2.4102108 -0.24524532 -0.47091663 8
2.6627436 -0.27234986 -0.42393744 7
3.0252151 -0.31102476 -0.37340769 5
3.4304953 -0.35511234 -0.30173317 4
3.9532056 -0.41131359 -0.20829713 9
4.4649687 -0.46692353 -0.078361303 3
5.2147393 -0.526016 0.091485515 4
5.3332949 -0.54079592 0.28093943 59
nan nan nan nan
nan nan nan nan
nan nan nan nan
5.2022166 -0.53943217 1.0166303 1
5.1478767 -0.53743035 1.1949401 11
5.0760851 -0.53262234 1.3676 1
2.0091252 -0.21613228 -0.54144943 12
2.1757586 -0.23521042 -0.50524008 10
2.4084401 -0.26206565 -0.47091663 8
2.6607773 -0.29093254 -0.42393744 7
3.0150774 -0.3312698 -0.37243277 6
3.4437749 -0.38080469 -0.30312768 4
3.9502378 -0.4389019 -0.20829713 6
4.4596128 -0.49786147 -0.078326404 3
5.2149162 -0.56283784 0.091555327 4
5.3214474 -0.57715452 0.28052074 66
nan nan nan nan
nan nan nan nan
nan nan nan nan
5.1729569 -0.57292753 1.0116693 1
5.1304421 -0.57184476 1.1917908 22
5.1183195 -0.57320696 1.3800232 1
2.019083 -0.23147346 -0.54455531 12
2.1818073 -0.25128609 -0.50703973 10
2.4007013 -0.2781952 -0.46977177 9
2.6626058 -0.30995789 -0.4245632 7
3.0126913 -0.35231078 -0.37243277 6
3.4449904 -0.40530294 -0.30347627 4
3.9589779 -0.4678753 -0.20892516 6
4.458014 -0.52921873 -0.078361303 3
5.2346992 -0.60197222 0.091974184 4
5.311336 -0.61360312 0.28020674 64
nan nan nan nan
nan nan nan nan
14.804698 -1.7365328 2.3609092 2
5.1824799 -0.61063552 1.0143408 2
5.0353713 -0.59686655 1.1706454 82
nan nan nan nan
2.0078292 -0.24439643 -0.54196709 12
2.1819341 -0.26674819 -0.50748962 10
2.3889577 -0.29375038 -0.46786368 8
2.6721399 -0.32999131 -0.42644039 7
3.0101583 -0.37333456 -0.37243277 8
3.4381225 -0.42885017 -0.30312768 5
3.959579 -0.49599904 -0.2091345 6
4.4542108 -0.56032848 -0.078361303 3
5.2343392 -0.63898695 0.092043988 4
5.3168354 -0.6518833 0.2807301 63
5.2837563 -0.65063602 0.46576029 13
5.2343998 -0.64826828 0.6476137 20
5.1986418 -0.64660364 0.82972854 24
5.1819863 -0.64728755 1.0151039 49
5.1122899 -0.64220673 1.1895412 100
5.0638175 -0.63881111 1.3676 46
2.004158 -0.25816083 -0.54144943 12
2.1877494 -0.28297427 -0.50928926 10
2.3926892 -0.31118071 -0.46900854 9
2.6541009 -0.34659189 -0.42393744 9
3.011415 -0.39485627 -0.37292022 8
3.4192424 -0.4507589 -0.30173317 2
3.9679 -0.52520239 -0.20976254 5
4.4660487 -0.5935182 -0.078640543 3
5.2297506 -0.67551363 0.092043988 4
5.310174 -0.68872881 0.28062543 64
nan nan nan nan
5.2336831 -0.68531066 0.64810121 60
5.1979179 -0.68339598 0.83035421 72
5.1637163 -0.68164998 1.0124326 94
5.1096139 -0.67813772 1.1899912 100
5.0515747 -0.67312664 1.3655293 79
2.0080497 -0.2729266 -0.54300237 12
2.1799278 -0.29745024 -0.50793952 9
2.3943486 -0.32841069 -0.46977177 9
2.6437891 -0.36403453 -0.42268598 7
3.0164504 -0.41695741 -0.37389517 8
3.4239061 -0.47571534 -0.30243042 2
3.9661145 -0.55316633 -0.20986721 3
4.4657574 -0.62523693 -0.078710355 3
5.2387762 -0.71389747 0.092288323 6
5.3032575 -0.72551292 0.28052074 66
5.2741575 -0.72434533 0.46576029 70
5.2110734 -0.71938848 0.64590758 65
5.2047601 -0.72129422 0.83223146 78
5.1607761 -0.71795303 1.0128142 100
5.1086144 -0.71433234 1.1908909 95
5.0544052 -0.70945066 1.3676 93
2.0099199 -0.28748572 -0.54403764 12
2.1739404 -0.31210774 -0.50703973 10
2.4036565 -0.34680042 -0.47206149 9
2.6568232 -0.38474756 -0.42518893 7
3.0056083 -0.43686372 -0.37292022 8
3.4283874 -0.50075871 -0.30312768 2
3.9582033 -0.58026183 -0.20965785 5
4.4810672 -0.65930915 -0.0790594 3
5.2356448 -0.75073725 0.092323236 4
5.3059707 -0.76365674 0.28093943 42
5.2709436 -0.76143277 0.46593457 61
5.2039595 -0.75546569 0.64566386 57
5.1937337 -0.75675809 0.83129281 75
5.1400981 -0.75169164 1.0097612 92
5.0919352 -0.74827951 1.1881915 92
5.05124 -0.74500132 1.3681176 82
2.007864 -0.30151048 -0.54403764 13
2.1697814 -0.32698658 -0.50658983 10
2.3972943 -0.36298469 -0.47129822 9
2.6579781 -0.40387964 -0.42581466 7
3.0064101 -0.45843446 -0.37340769 8
3.4188995 -0.52377582 -0.30260473 2
3.9718232 -0.61061239 -0.21059991 3
4.4763551 -0.69057655 -0.0790594 3
5.2460952 -0.78965139 0.092602469 4
5.2807612 -0.79769737 0.27989271 61
5.2654996 -0.79821211 0.46593457 68
5.2024837 -0.79237521 0.6461513 68
5.1785607 -0.79150611 0.82972854 82
5.1424875 -0.78874832 1.0112877 94
5.0808091 -0.78291917 1.1868418 102
5.0440068 -0.77995211 1.3676 87
2.0018935 -0.31492016 -0.54300237 12
2.1789954 -0.34394953 -0.50928926 9
2.3791897 -0.37725234 -0.46824533 9
2.6589954 -0.42304659 -0.42644039 6
3.0031364 -0.47941181 -0.37340769 8
3.4349284 -0.55018634 -0.30434784 2
3.9733787 -0.63927758 -0.21091393 3
4.4753737 -0.72244781 -0.079129212 3
5.2681084 -0.83061671 0.093091138 6
5.2849274 -0.83610481 0.28041607 68
5.2597985 -0.83495247 0.46593457 67
5.2046666 -0.82992613 0.64712632 68
5.1690073 -0.82701558 0.82910275 79
5.1446085 -0.82587481 1.0128142 99
5.0849819 -0.8190341 1.1890913 100
5.0422525 -0.81576365 1.3686352 79
1.9996463 -0.32888827 -0.54300237 12
2.184232 -0.36042234 -0.51108885 8
2.3939989 -0.39632395 -0.47167987 9
2.6443622 -0.43919396 -0.4245632 7
2.9997163 -0.50036585 -0.37340769 8
3.4290388 -0.57382429 -0.30417353 4
3.9649959 -0.66564715 -0.21070457 3
4.4859958 -0.75633353 -0.079408452 3
5.2643061 -0.866781 0.093126044 6
