# .PCD v0.7 - Point Cloud Data file format
VERSION 0.7
FIELDS x y z intensity
SIZE 4 4 4 4
TYPE F F F F
COUNT 1 1 1 1
WIDTH 1447
HEIGHT 1
VIEWPOINT 0 0 0 1 0 0 0
POINTS 1447
DATA ascii
3.1165593 4.8620033 -0.1008051 15
2.4785442 3.8980403 0.080630124 12
2.4335885 3.8229156 0.23750059 10
2.3504124 3.6879904 0.38261372 23
2.5814753 4.0443153 0.58911645 27
3.8867369 6.0822029 1.1432233 10
4.2649269 6.6663237 1.5383022 72
4.1002903 6.3991356 1.7546183 29
6.0489173 9.4293966 3.0017834 5
1.3018556 2.0177646 -0.64342415 35
1.4084074 2.1804039 -0.59926963 36
1.5356004 2.3736782 -0.54952991 27
1.7063349 2.6345682 -0.49714881 22
1.9418322 2.9947369 -0.4382422 15
2.1984799 3.3853614 -0.35315505 17
2.5409379 3.9082191 -0.24430427 14
nan nan nan nan
2.5089536 3.8856809 0.080734834 15
2.4233549 3.7488031 0.23394175 16
2.3284731 3.597893 0.37494397 18
2.5556619 3.9429057 0.57692951 12
6.6850677 10.301981 1.9451064 16
4.307085 6.6298013 1.5367758 10
4.1384854 6.3605561 1.751919 29
5.7444968 8.8187675 2.8200924 36
1.3201454 2.0150905 -0.64549476 36
1.4150453 2.1574821 -0.59567046 23
1.5467449 2.3546953 -0.54762185 20
1.7333694 2.6357954 -0.49965176 22
1.9801577 3.0076356 -0.44214204 17
2.223156 3.3715954 -0.35332939 22
2.5505536 3.8637168 -0.24262951 14
2.5942805 3.9254811 -0.082131028 7
2.4844859 3.7894723 0.079094306 11
2.4428897 3.7217762 0.23331371 16
2.3513446 3.5782208 0.37459537 31
2.5613019 3.8918021 0.57205474 30
6.3003621 9.5622578 1.8137014 28
4.1057138 6.2242761 1.4493852 14
4.2407942 6.419311 1.7762136 23
5.8080506 8.7816744 2.8211277 21
1.3288316 1.9977825 -0.64290655 26
1.4160312 2.1264646 -0.5898217 34
1.5576997 2.3356731 -0.54571378 30
1.7605033 2.6367726 -0.50215465 18
2.004416 2.9986889 -0.44287321 16
2.24664 3.3559928 -0.35332939 14
2.541883 3.7927246 -0.23928 14
2.5492001 3.7993398 -0.079862215 21
2.3823452 3.5789387 0.075045347 17
2.3735604 3.5616977 0.22431193 12
2.3740563 3.5584033 0.37424675 25
2.523339 3.7764454 0.55767417 18
nan nan nan nan
4.2157059 6.2949672 1.4726639 16
4.1661057 6.2115197 1.7267245 46
6.2310662 9.2797985 2.995054 8
1.3427463 1.9884568 -0.64290655 33
1.4461219 2.1391289 -0.5961203 24
1.5662632 2.3133616 -0.54304242 23
1.7567019 2.5917146 -0.49589729 22
2.0253036 2.9846218 -0.44287321 13
2.2632952 3.3303394 -0.35228351 17
2.5469532 3.7435119 -0.23729126 16
2.5441415 3.7351732 -0.078884877 9
2.5024438 3.7030516 0.078012258 15
2.3871765 3.5284979 0.22326522 33
2.3642049 3.4906044 0.36884311 16
2.4916954 3.673311 0.54499972 17
6.484303 9.5485334 1.8280934 3
4.1171584 6.0559435 1.4234352 12
4.1852398 6.1468453 1.7168266 29
6.2510877 9.1706228 2.9738309 36
1.3467652 1.9646932 -0.63824779 36
1.4544046 2.1193402 -0.59342092 34
1.5834873 2.3039887 -0.54342401 36
1.7680346 2.5696232 -0.4940201 27
2.0382066 2.958967 -0.44116706 15
2.2876229 3.3160961 -0.35245782 12
2.5639474 3.712491 -0.23645388 18
2.637255 3.8143649 -0.080944255 5
2.48751 3.6261284 0.076755688 16
2.3778296 3.4623559 0.22012506 22
2.3783553 3.459239 0.36727428 26
2.5544307 3.7097809 0.55304313 12
6.5519276 9.5046597 1.8284062 1
4.3377528 6.2855854 1.4844941 19
4.4640474 6.4589419 1.8126558 42
6.1918435 8.9488344 2.9158556 36
1.3549308 1.9473151 -0.63565958 40
1.4814163 2.1267252 -0.59836984 39
1.5894241 2.2783861 -0.53998947 36
1.7836685 2.5539782 -0.49339435 25
2.0383401 2.9153817 -0.43677977 17
2.2701528 3.2433195 -0.34635693 9
2.5898011 3.6945021 -0.23645388 24
2.6052349 3.7123823 -0.079164118 1
2.5104811 3.6053908 0.076685868 16
2.379102 3.4129009 0.21803163 31
2.3556998 3.375561 0.36012751 21
2.5381899 3.6316559 0.54402483 13
2.9874392 4.2696819 0.82534832 4
4.5651217 6.5172563 1.5466977 13
4.5907049 6.5464764 1.8459485 36
7.5487452 10.748755 3.5194216 19
1.3718358 1.9425424 -0.63721251 36
1.4861028 2.10201 -0.59432071 33
1.6139685 2.2803352 -0.54304242 24
1.7998698 2.5401664 -0.49308151 25
2.0494518 2.8881297 -0.43482983 20
2.3019712 3.240386 -0.34775141 9
2.5685873 3.6116836 -0.23226699 22
2.8758683 4.0377793 -0.086529031 5
2.4680405 3.4934926 0.074661396 28
2.3838236 3.3705387 0.21635687 24
2.3642375 3.3378968 0.35786149 26
2.5582597 3.6078167 0.54304987 18
3.0884728 4.3507266 0.8450591 16
4.5183706 6.3556161 1.5157868 20
4.5289483 6.3634377 1.8032079 29
6.2910976 8.8295717 2.9049852 8
1.3782756 1.9237372 -0.6341067 30
1.4935616 2.0823445 -0.59162134 34
1.6218321 2.2578492 -0.54037106 39
1.8117931 2.5195203 -0.49151716 26
2.0621061 2.8644454 -0.43336743 23
2.3070579 3.1999948 -0.34513673 11
2.6019208 3.6049995 -0.2329997 22
2.5917594 3.5869615 -0.077244349 4
2.4341092 3.3949201 0.07291615 23
2.3805101 3.3164957 0.21394941 31
2.3752751 3.3055475 0.35611835 18
2.5972989 3.6092036 0.54597467 11
3.0818219 4.27777 0.8350473 13
4.3329916 6.0078411 1.4398447 10
4.6554174 6.4454074 1.8356009 21
6.3084402 8.7243824 2.8847973 17
1.3939445 1.9171932 -0.63514197 43
1.51265 2.0781691 -0.59342092 33
1.6468073 2.2591636 -0.54342401 22
1.830503 2.5084057 -0.49182999 23
2.0726852 2.8371563 -0.43141752 16
2.3211083 3.1725535 -0.34391654 16
2.6482685 3.6157503 -0.2348838 13
2.8283949 3.8574436 -0.083492316 12
2.5083413 3.4473736 0.074417062 10
2.385968 3.2755787 0.21237932 30
2.4053395 3.2985423 0.3571642 31
2.5357971 3.4723539 0.52793807 26
2.929739 4.0073853 0.78623968 15
nan nan nan nan
7.6518135 10.439577 2.98825 26
nan nan nan nan
1.3889441 1.8825425 -0.62685978 24
1.5213325 2.0597205 -0.59117138 29
1.6613705 2.2460344 -0.54304242 23
1.8432671 2.4892163 -0.49057853 17
2.0782547 2.8034818 -0.42849267 13
2.3283997 3.1374824 -0.34182483 16
2.6567669 3.5747313 -0.23341838 33
2.8886783 3.8825252 -0.084469646 15
2.4729581 3.3493421 0.072671816 30
2.3980932 3.2443864 0.21143727 8
2.3974957 3.2400281 0.35263211 33
2.6237986 3.5406904 0.54109991 13
2.8646681 3.8615 0.76152301 15
4.7442036 6.3880744 1.5466977 25
nan nan nan nan
3.5580456 4.7787085 1.596396 15
1.3673208 1.8264047 -0.61133063 54
1.5497005 2.0677617 -0.59657025 36
1.6777996 2.2362432 -0.54342401 36
1.8471195 2.4592366 -0.48713696 33
2.0989692 2.7904906 -0.42873639 20
2.3346663 3.1004598 -0.33955875 16
2.6425641 3.5055299 -0.23006889 16
2.5855856 3.4249678 -0.074905731 16
2.4813149 3.3132248 0.072252966 12
2.3961582 3.1960287 0.20934384 30
2.4068964 3.2056863 0.35071471 10
2.579854 3.4323003 0.52720684 16
2.9645224 3.9397762 0.78092092 10
4.8666649 6.4582806 1.5718845 18
4.6744332 6.1964278 1.7919602 23
3.5695372 4.7266283 1.5870785 1
1.3785518 1.8155172 -0.61081296 42
1.5519456 2.041652 -0.59207124 21
1.6933695 2.2244763 -0.54342401 39
1.8367032 2.4101455 -0.47994098 25
2.09865 2.7508869 -0.42483655 16
2.3332741 3.0540032 -0.33624685 13
2.651201 3.4663713 -0.22870816 22
2.516449 3.2866197 -0.072252966 10
2.4196939 3.1843693 0.069809623 30
2.3845532 3.1347148 0.20641303 17
2.4528015 3.2209322 0.35420093 35
2.5206928 3.3052921 0.51038885 25
3.0674732 4.0179005 0.80063164 9
4.7447996 6.2081885 1.5188397 22
nan nan nan nan
nan nan nan nan
1.4029819 1.8211533 -0.61598933 32
1.5554492 2.0168798 -0.58802211 38
1.6980578 2.198616 -0.53998947 33
1.8728169 2.4222684 -0.48494691 23
2.1226637 2.7424479 -0.42581153 24
2.3508751 3.0329165 -0.33572391 14
2.6985981 3.4777596 -0.2306969 13
2.6497364 3.4111016 -0.075394399 9
2.4894841 3.2291622 0.071170911 30
2.4539719 3.1796539 0.21049525 16
2.420414 3.1327801 0.34635693 23
2.5096934 3.2436533 0.50356412 28
2.9575508 3.8183539 0.76496464 25
4.8313341 6.2307663 1.532578 22
4.7855902 6.1628828 1.8014082 2
7.2596917 9.3389339 3.169498 1
1.4430232 1.8463228 -0.62789506 26
1.5682912 2.004437 -0.58757222 39
1.7194198 2.1944346 -0.54189759 32
1.8909012 2.4106891 -0.48525977 21
2.1258204 2.7072651 -0.42264292 19
2.3640773 3.0074461 -0.33467805 24
2.7067518 3.4384339 -0.2293362 16
2.5348608 3.2166114 -0.071485057 21
2.520591 3.2227294 0.071415246 13
2.4231648 3.0948238 0.20599434 7
2.4127274 3.0781717 0.34217343 22
2.5665967 3.2697752 0.51038885 18
2.9841356 3.7976134 0.76496464 27
5.0130911 6.3727927 1.5760823 9
7.373765 9.3636589 2.7516015 2
7.2445641 9.1863909 3.1348164 1
1.4402758 1.8165239 -0.62116575 40
1.5834589 1.9949648 -0.58802211 34
1.7330956 2.1811428 -0.54151595 36
1.8826722 2.3668432 -0.47900239 15
2.142194 2.6892538 -0.42215544 26
2.3763201 2.979964 -0.33345786 17
2.6877279 3.3668592 -0.22577733 18
2.8869011 3.6111863 -0.080699928 14
2.4940045 3.1443973 0.070053965 17
2.4553506 3.0923367 0.20693639 3
2.3820775 2.9957547 0.33485237 11
2.5813761 3.2429104 0.50892639 23
2.9877572 3.7494051 0.75933295 13
5.0170484 6.2869992 1.563489 2
7.3513818 9.2023287 2.7192085 2
7.2731423 9.0946217 3.1203225 3
1.4429222 1.7946343 -0.6170246 52
1.604332 1.9932498 -0.59072149 34
1.7458165 2.1659334 -0.54075271 41
1.8966691 2.3505676 -0.47837666 21
2.1559269 2.6680558 -0.42118049 28
2.3832829 2.9462621 -0.33154044 17
2.7149384 3.3526697 -0.22609136 26
2.8679569 3.5365844 -0.079478264 8
2.4883187 3.0926318 0.069286056 16
2.607177 3.2368851 0.21782227 11
2.4736984 3.0678778 0.3447881 12
2.6076925 3.2294443 0.50965762 18
2.971637 3.6762242 0.74869543 13
5.1102281 6.3128586 1.5787537 13
3.5788975 4.4164181 1.3123645 5
7.3474107 9.057126 3.1249812 9
1.4679397 1.7992316 -0.62220097 38
1.6037618 1.9636067 -0.58532268 38
1.7708355 2.1658525 -0.54380566 45
1.9084351 2.3308215 -0.4771252 25
2.1694674 2.6467988 -0.42020553 16
2.40253 2.9280117 -0.33136615 14
2.727448 3.319268 -0.2251493 20
2.8125465 3.4191806 -0.077279255 17
2.504791 3.0689878 0.069146432 13
2.4394157 2.9846342 0.20201682 23
2.5283902 3.0901916 0.34932023 17
2.5886672 3.1604812 0.50161427 22
3.0028784 3.6609752 0.74994689 18
5.2700381 6.4181385 1.6142441 3
7.4531598 9.0671787 2.7097607 20
7.4218559 9.0162497 3.1291223 24
1.4780018 1.7859631 -0.62116575 47
1.6112149 1.944859 -0.58307314 29
1.7775141 2.1425483 -0.54113436 37
1.9271839 2.3204813 -0.47775093 25
2.1701245 2.6102192 -0.41679317 12
2.4081228 2.8923705 -0.32927439 16
2.7543902 3.3047485 -0.22546332 13
2.7172062 3.2566662 -0.074033104 19
2.5419936 3.0694671 0.069565296 12
2.4168541 2.9152524 0.19845797 11
2.5677176 3.0939281 0.35176057 11
2.6277101 3.1617243 0.50478286 25
2.920975 3.5108466 0.72335303 18
7.5524263 9.0679283 2.2939057 23
7.5328302 9.0315714 2.7151594 16
7.4251852 8.8930387 3.1042757 40
1.4954023 1.78152 -0.6232363 24
1.622246 1.9305794 -0.58217335 31
1.7848442 2.1210737 -0.53884465 45
1.9471549 2.3115029 -0.47868952 23
2.1895738 2.5965228 -0.41703692 13
2.4243989 2.8709228 -0.32875144 14
2.7348428 3.2351062 -0.22200914 14
2.7592514 3.2605157 -0.074556686 22
2.5119116 2.9903996 0.068169102 20
2.4757087 2.9441688 0.20159812 16
2.5174005 2.9905701 0.34199914 10
2.666353 3.1630318 0.5079515 17
3.0205801 3.5794384 0.74181229 13
7.6446924 9.0494728 2.3026831 57
7.653595 9.0472002 2.7358549 32
7.4059386 8.7451591 3.0706291 18
1.5103078 1.7739786 -0.62427157 21
1.6344205 1.9177239 -0.58172351 30
1.7715694 2.0757086 -0.53044903 21
1.9542625 2.2873397 -0.47649944 37
2.2166796 2.5917337 -0.4187431 6
2.4205616 2.8271108 -0.32561383 15
2.7560616 3.2144184 -0.22190447 21
2.591795 3.0196321 -0.069460578 17
2.4626982 2.8905933 0.066284239 27
2.4456561 2.8675475 0.19751592 13
2.5809093 3.0229256 0.34775141 13
2.6715989 3.1247272 0.50478286 31
3.0223734 3.5312517 0.73618072 13
7.7472782 9.0421028 2.3145132 38
3.641186 4.2452469 1.2912191 14
7.4001021 8.6155691 3.0431943 41
1.5163429 1.7560804 -0.62168342 13
1.6490432 1.907741 -0.58217335 29
1.7959346 2.0754788 -0.53350198 25
1.9607332 2.2635326 -0.47430936 52
2.2230122 2.5626993 -0.41654944 11
2.4232559 2.7905877 -0.32334781 16
2.7713256 3.1880467 -0.22138111 17
2.6075609 2.9954309 -0.069320954 16
2.5019243 2.8964629 0.066807814 28
2.5108414 2.9037113 0.20117943 16
2.4976113 2.8843391 0.33380648 13
2.6889057 3.1019697 0.50405163 16
3.2107618 3.7000766 0.77591503 13
nan nan nan nan
3.6886404 4.2403073 1.2975178 7
7.3684945 8.4615641 3.0064421 28
1.5079005 1.7224623 -0.61340117 17
1.6542835 1.8876795 -0.57947397 28
1.8077902 2.0599389 -0.53273875 28
1.9908291 2.2661135 -0.47775093 16
2.2233622 2.5281298 -0.41338086 12
2.4435112 2.7755239 -0.32352212 13
2.8027608 3.1791091 -0.22211383 17
2.6278896 2.9776125 -0.069320954 16
2.4812357 2.8322971 0.065725766 22
2.5218337 2.8756001 0.20044672 3
2.5106144 2.8597853 0.33293492 22
2.6908357 3.0607593 0.5003956 13
3.1412468 3.5693202 0.7530756 21
7.994504 9.0743704 2.3507669 2
3.912056 4.4357929 1.365453 3
2.8632784 3.2420456 1.1589917 33
1.5224547 1.7147816 -0.61443645 17
1.6738955 1.8833663 -0.58172351 24
1.8335149 2.0607867 -0.53617334 41
2.0022664 2.2480845 -0.4768123 17
2.2224581 2.491807 -0.4099685 12
2.464154 2.7598848 -0.32369643 12
2.8403056 3.1778286 -0.22336988 22
2.5805976 2.8832026 -0.06754081 24
2.5017836 2.8168385 0.065760665 22
2.4630499 2.7703044 0.19427109 8
2.5252187 2.836236 0.33223769 14
2.6561334 2.9801316 0.49015856 27
3.0826175 3.4549954 0.73336488 10
3.7619858 4.2105098 1.0975335 1
8.6432581 9.6635656 2.9931989 2
2.9961038 3.3462563 1.2035086 13
1.5457225 1.7173024 -0.61909521 19
1.6814575 1.8661387 -0.57992387 34
1.8268141 2.0246143 -0.53006744 30
1.9967269 2.2105966 -0.47180638 35
2.2233927 2.4589512 -0.40704364 19
2.4860377 2.7455671 -0.32404503 18
2.8490098 3.1431227 -0.22232316 17
2.5947881 2.8596463 -0.067401193 20
2.6230998 2.9122274 0.068413429 10
2.5171046 2.7916081 0.19699256 3
2.5070868 2.7775695 0.32735696 19
2.7660573 3.0601852 0.50648904 15
3.1318433 3.4612224 0.73930937 6
8.7673092 9.679184 2.538523 2
3.0021353 3.3097329 1.0316256 15
7.5504279 8.3152905 3.0095479 30
1.5563713 1.7050426 -0.61857754 23
1.6983883 1.8586702 -0.58127356 39
1.8329508 2.0031221 -0.52777767 36
2.0174472 2.2024305 -0.4730579 25
2.2472122 2.4506855 -0.40826234 13
2.5024495 2.7252092 -0.32369643 15
2.8506091 3.1011002 -0.2207531 10
2.5754211 2.7987881 -0.066388957 34
2.5786328 2.8229728 0.066738002 19
2.5109255 2.7459612 0.19500379 8
2.5344882 2.7688169 0.32840282 13
2.7028482 2.9486101 0.49113351 30
4.941576 5.3852358 1.1576152 1
3.0918701 3.3659186 0.88840669 1
3.1808445 3.4579341 1.0847141 47
3.2218137 3.4987905 1.274425 13
1.5577382 1.682794 -0.61443645 26
1.7086748 1.8439084 -0.58037376 22
1.8549033 1.9989115 -0.53006744 41
1.9951299 2.1477685 -0.46429756 21
2.2588594 2.4291229 -0.40728739 13
2.5010459 2.6858022 -0.32108176 22
2.8749127 3.0840452 -0.22096242 19
2.623548 2.8114424 -0.067121953 24
2.6213789 2.8298421 0.067331389 12
2.6821344 2.89239 0.20672706 8
2.4981797 2.6911876 0.32125604 33
2.6828225 2.8860495 0.48382133 13
3.1529524 3.3882332 0.73305202 10
3.2491119 3.4879048 0.92656857 8
3.2501037 3.4840932 1.1000108 13
3.3239512 3.5595193 1.3049657 22
1.5681263 1.6704696 -0.61391884 28
1.7041566 1.8134741 -0.57452506 27
1.8647767 1.9816238 -0.52892256 37
1.9992394 2.1222847 -0.46179458 10
2.2744017 2.4118483 -0.40704364 12
2.5224714 2.6711736 -0.32143039 30
2.8414907 3.0058448 -0.21677555 21
2.8259151 2.9862349 -0.07176429 19
2.5657682 2.7313111 0.06541162 14
2.5120771 2.6713519 0.19217765 13
2.5455856 2.7041464 0.3249166 14
2.6252892 2.7849169 0.46992823 16
4.9932389 5.2912889 1.1522964 5
nan nan nan nan
3.356041 3.5476727 1.1274548 17
nan nan nan nan
1.5784181 1.658082 -0.61340117 35
1.7019873 1.7860143 -0.56957608 25
1.8785657 1.9685569 -0.52892256 32
2.0085504 2.1025615 -0.46054313 12
2.2788367 2.3829992 -0.40485001 19
2.5314121 2.6434252 -0.32021019 19
2.8914309 3.0162117 -0.21897365 36
2.8162348 2.9346905 -0.070996389 16
2.5516713 2.6785831 0.064573906 29
2.5155036 2.6378498 0.19102626 36
2.5616508 2.6834266 0.32456797 12
2.61449 2.7349527 0.46456599 15
4.9644995 5.1877985 1.1372787 12
nan nan nan nan
nan nan nan nan
3.6516509 3.8025877 1.4126344 26
1.5912971 1.6484122 -0.61391884 27
1.7252481 1.7852994 -0.57317531 37
1.8854367 1.9483399 -0.52701449 15
2.0218046 2.0870697 -0.46023026 9
2.2871246 2.3584826 -0.40338758 15
2.5442541 2.6199696 -0.31951293 12
2.8581247 2.9400995 -0.21489146 42
2.8687305 2.9479194 -0.071799204 13
2.9065316 3.0087538 0.073020868 20
2.5574596 2.6446328 0.19280569 22
2.6385262 2.7255998 0.33188906 6
2.6072674 2.6895528 0.45993495 16
3.1640635 3.2605035 0.71959865 16
3.2448368 3.3402379 0.90519798 23
3.1919084 3.2811675 1.0568202 3
3.114733 3.1984813 1.1962616 5
1.5933056 1.6275998 -0.6102953 26
1.7199377 1.7551183 -0.56732661 48
1.8811165 1.9169133 -0.52205342 28
2.0224826 2.0588124 -0.45710155 9
2.2923994 2.3311348 -0.40143764 9
2.537318 2.5765917 -0.31637534 27
2.8771772 2.918653 -0.21478678 33
2.7824905 2.8196473 -0.069146432 26
2.6126108 2.6669791 0.065167286 28
2.5688696 2.6195827 0.19228233 30
2.695174 2.7455032 0.33659548 3
2.7414832 2.7887833 0.48016527 20
3.1188557 3.1693459 0.70426804 12
nan nan nan nan
3.2188432 3.2629654 1.0581697 39
3.1193402 3.1587892 1.1895324 24
1.5991857 1.6109526 -0.60822481 28
1.7596222 1.770713 -0.57632464 31
1.8958373 1.9051266 -0.52243507 37
2.031229 2.0390453 -0.45585006 9
2.298806 2.3052349 -0.39973149 5
2.5510206 2.5545857 -0.3158524 18
2.8466501 2.8476446 -0.21101859 26
2.8162525 2.8142879 -0.069495484 19
2.6114359 2.6288128 0.064678617 10
2.5659704 2.5803413 0.19071224 25
2.697408 2.7096763 0.33450374 32
2.8071353 2.8159685 0.48820862 16
nan nan nan nan
nan nan nan nan
3.3338845 3.3327217 1.0883133 13
3.0565636 3.0523 1.1574388 31
1.6186174 1.6079172 -0.61133063 21
1.7567257 1.7432861 -0.57137573 21
1.910486 1.8932266 -0.52281672 29
2.0440109 2.0234253 -0.45553723 9
2.3120205 2.2863381 -0.39924401 4
2.5687928 2.5367138 -0.3158524 10
2.9034293 2.8641701 -0.21374007 31
2.7247341 2.6850779 -0.066772908 24
2.6155317 2.5964308 0.064329572 16
2.6151206 2.5933056 0.19301502 21
2.7403207 2.7146168 0.33746704 10
2.7378178 2.7083509 0.47285309 15
3.2822354 3.2435107 0.73086196 25
3.1981134 3.1570733 0.87352359 37
nan nan nan nan
nan nan nan nan
1.6270424 1.5938749 -0.6102953 36
1.7716379 1.7337061 -0.57227552 29
1.9194452 1.8757256 -0.52167183 30
2.0595016 2.0104852 -0.45585006 9
2.3137138 2.2562821 -0.3968066 4
1.9926425 1.9404706 -0.24333882 1
2.94769 2.8675072 -0.21551949 26
2.7147315 2.638118 -0.066074811 12
2.6507421 2.5948939 0.064748429 13
2.6617208 2.6029139 0.19510846 10
2.6665666 2.6049228 0.32613677 12
2.7680266 2.7002606 0.474803 15
3.0798576 3.001312 0.68111575 10
3.2679062 3.1812308 0.88649869 17
nan nan nan nan
3.1654065 3.0739272 1.1822854 15
1.6395195 1.5838195 -0.61081296 38
1.7710778 1.7091163 -0.5682264 31
1.9494573 1.8786272 -0.52625126 36
2.0777569 2.0001678 -0.45678869 7
2.3165317 2.2276907 -0.39461297 12
2.0158637 1.9365232 -0.24455902 7
2.9993474 2.8772755 -0.21782227 12
2.7547395 2.6398549 -0.066598386 16
2.6587224 2.5666029 0.064504094 31
2.6395726 2.5454485 0.19217765 8
2.601465 2.5060697 0.31602672 13
2.8168519 2.7097723 0.47992152 11
3.4810266 3.345192 0.76465172 51
3.9032862 3.7470448 1.0517392 12
3.5585024 3.4124842 1.1382525 30
3.6262987 3.4726388 1.3453414 40
1.6267579 1.5496826 -0.60201317 36
1.7829664 1.6967103 -0.5682264 30
1.9351633 1.8396144 -0.51900047 23
2.0855927 1.9805388 -0.45553723 14
2.3421092 2.2210267 -0.39631912 12
2.5804205 2.4444532 -0.31097168 24
2.9405248 2.7826633 -0.21216999 21
2.947511 2.7853739 -0.07078696 12
2.694957 2.5663736 0.064957857 22
2.6611793 2.5315523 0.19249167 12
2.6290085 2.4974525 0.31724688 29
2.7617962 2.6208456 0.46749085 13
3.3546231 3.1800811 0.73211342 46
3.230737 3.0583613 0.86474639 3
3.7365744 3.5335023 1.1872917 14
3.0937378 2.9225352 1.1403568 9
1.640084 1.5412194 -0.60304838 30
1.8072617 1.6965387 -0.57227552 39
1.9536893 1.8314296 -0.52052695 21
2.0431366 1.9132706 -0.44333532 10
2.367322 2.214525 -0.39802533 13
2.5970008 2.4268308 -0.31097168 24
2.935056 2.7389016 -0.21039055 43
2.9927297 2.7897909 -0.071415246 37
2.8512907 2.6775408 0.068273813 2
2.665678 2.5006137 0.19154961 8
2.7200909 2.5489812 0.32613677 16
2.7940626 2.6155534 0.46992823 22
3.2757277 3.0621579 0.71021259 24
3.7192552 3.4731212 0.98915386 16
3.6194646 3.3763888 1.1427515 14
3.0965979 2.8856065 1.1341451 26
1.65762 1.5365875 -0.6056366 24
1.808758 1.6749301 -0.56912625 43
1.9459293 1.7994289 -0.51518428 47
2.0357971 1.8805547 -0.43895519 13
2.3925519 2.2077844 -0.39973149 15
2.6178532 2.4131498 -0.31149462 25
2.9551005 2.7202127 -0.21049525 33
2.8924205 2.6597185 -0.068587959 12
2.7652934 2.5615866 0.065795571 14
2.7808542 2.5732973 0.19856264 11
2.8266249 2.6129057 0.33676979 6
2.8015926 2.5870473 0.46822205 12
3.3502281 3.089335 0.7217887 12
3.581085 3.2987471 0.94641262 16
nan nan nan nan
7.1425843 6.5656404 2.5995786 30
1.6580619 1.5161425 -0.60201317 30
1.8042907 1.6481214 -0.56417727 27
1.9523307 1.7808495 -0.51365787 21
2.1084156 1.9212033 -0.45178279 11
2.3961608 2.1803393 -0.39778158 12
2.6788666 2.435019 -0.31672394 12
2.9543259 2.6825807 -0.2091345 34
3.122756 2.8315437 -0.073579341 9
3.2225776 2.9446812 0.076197207 7
2.6906219 2.4560146 0.19092159 32
2.878206 2.6244812 0.34077895 32
2.7711487 2.5233209 0.4601787 18
3.5319185 3.2126727 0.75620425 9
3.6708746 3.3343887 0.96396708 22
3.8186502 3.4649718 1.190441 11
3.1604226 2.8646927 1.1429449 39
1.6674336 1.5029455 -0.6014955 31
1.8116937 1.6312561 -0.56282759 33
1.9428209 1.7474827 -0.50793356 27
2.123579 1.9073864 -0.45209566 10
2.4024589 2.1556034 -0.39631912 12
2.70767 2.4268959 -0.31811845 4
3.0032103 2.6880116 -0.21122794 15
2.9218204 2.6124098 -0.068413429 12
2.950393 2.6584134 0.069320954 10
2.6769488 2.408644 0.18872347 27
2.6613071 2.3920498 0.31306344 10
2.7680182 2.4853456 0.45676634 18
3.1106489 2.789067 0.66171783 16
3.4249792 3.067668 0.89374936 30
3.229883 2.889879 1.0005825 31
3.2860045 2.9359648 1.1807325 9
1.660558 1.4758676 -0.59528387 31
1.8230377 1.6185683 -0.56282759 33
1.9479307 1.7270232 -0.50602549 31
2.1368432 1.8925146 -0.45209566 9
2.408529 2.1308866 -0.39485672 16
2.7189937 2.4021831 -0.3174212 3
3.0608375 2.7013414 -0.21394941 21
2.9759872 2.6236863 -0.06925115 17
2.7974 2.4845231 0.065306902 12
2.743 2.4336398 0.19217765 7
2.7733686 2.4579892 0.32421938 23
2.9016805 2.5680933 0.47577798 15
3.3594334 2.9700859 0.71021259 13
3.3374193 2.9475114 0.86550963 36
3.8760216 3.418376 1.1931405 16
nan nan nan nan
1.672273 1.4655126 -0.59580147 41
1.8240285 1.5968174 -0.55967826 32
1.961418 1.7146741 -0.50640708 15
2.1157818 1.8476657 -0.44489968 12
2.4353137 2.1244593 -0.3968066 16
2.7266848 2.3752887 -0.31637534 4
3.0766082 2.6772845 -0.21374007 52
3.2915418 2.861294 -0.076127395 11
3.1817431 2.7863884 0.073823676 6
2.8005116 2.4499357 0.19500379 11
2.7334526 2.3887463 0.31759554 14
2.763988 2.4120321 0.45042911 12
3.3681729 2.9361773 0.70770961 39
3.2824051 2.858387 0.8460471 8
nan nan nan nan
1.9353355 1.6811762 0.68690574 6
1.6912341 1.4613808 -0.59890729 24
1.8321817 1.5814976 -0.55877846 32
1.970366 1.6983765 -0.50564384 13
2.1106656 1.8173838 -0.44114524 13
2.4500847 2.1074071 -0.3968066 12
2.7140768 2.3320048 -0.31306344 13
3.0740035 2.6375329 -0.21227466 28
3.2051556 2.7471507 -0.073684059 12
2.9650087 2.5602291 0.06837853 28
2.8886285 2.4916372 0.19992337 3
2.7832687 2.398217 0.32143039 14
2.9598241 2.546751 0.47943404 10
3.1024628 2.6666551 0.6479516 22
nan nan nan nan
1.9791427 1.697529 0.60196906 9
1.94409 1.6651115 0.68587047 5
1.6866907 1.4370089 -0.59373093 27
1.8387264 1.564878 -0.55742878 34
1.9744029 1.6785659 -0.50373578 11
2.1169653 1.7978588 -0.43989375 14
2.4541399 2.0812633 -0.39510044 11
2.7318108 2.3142879 -0.31323773 12
3.2031798 2.7107346 -0.2199157 17
3.207454 2.7105112 -0.073300108 13
3.0112913 2.5646238 0.069041722 9
2.7975144 2.3800306 0.19249167 6
2.7543902 2.3400295 0.31620103 40
2.896874 2.4584684 0.46651587 7
nan nan nan nan
1.9869046 1.6820385 0.50602549 9
1.9835054 1.677379 0.59971952 6
1.9775161 1.670539 0.69363505 9
1.7097435 1.4366807 -0.59838963 33
1.8582904 1.5598441 -0.56012815 46
1.9755404 1.6559139 -0.50106448 11
2.1536973 1.8033273 -0.44489968 13
2.1911237 1.8327147 -0.35073999 22
2.7417858 2.2900498 -0.3125405 25
3.1959572 2.6665525 -0.2181363 19
2.9124644 2.4274347 -0.066179529 15
2.8591363 2.4008021 0.065167286 9
2.8354847 2.378412 0.19395708 17
2.8007977 2.3468189 0.31968728 14
2.0355139 1.7031623 0.32587865 2
2.0234077 1.6912323 0.41768005 10
2.0178983 1.6848336 0.51098651 5
2.0056436 1.672227 0.60286885 7
1.9876454 1.6554574 0.69311744 6
1.7197317 1.4247094 -0.59838963 31
1.8691349 1.5468327 -0.56012815 29
1.9779724 1.634578 -0.49877474 10
2.135767 1.7630967 -0.43864229 23
2.4718821 2.038388 -0.39339426 8
2.7638576 2.2759199 -0.31323773 21
3.1898146 2.6238763 -0.21646154 12
2.9463351 2.4210074 -0.06656348 15
3.0791528 2.5491083 0.069774717 12
2.8227766 2.3343747 0.19196831 26
2.0506246 1.6940149 0.23270583 5
2.0366354 1.6800677 0.32417247 6
2.0290673 1.6720402 0.4164286 6
2.0402217 1.6794391 0.51365787 9
2.0202801 1.6606592 0.60376865 5
1.9692937 1.6170216 0.68276465 4
1.7101846 1.3967832 -0.59166032 43
1.8753579 1.5300514 -0.55877846 26
1.9832474 1.615769 -0.49724829 10
2.1510878 1.7506369 -0.43926802 22
2.256547 1.8345004 -0.35707721 15
2.6586485 2.1590853 -0.29964143 8
3.2111573 2.6040592 -0.21667089 21
2.9476256 2.3877933 -0.066214427 16
2.926461 2.3884649 0.065935194 28
2.0727522 1.6898934 0.1401557 7
2.056222 1.6746249 0.23200859 6
2.0652561 1.6795859 0.3268536 7
2.0667553 1.6790082 0.42174736 9
2.0442753 1.6589681 0.51174974 5
2.0133719 1.6321419 0.59836984 6
1.9895439 1.610527 0.68587047 5
1.7093618 1.3763279 -0.58803689 26
1.872328 1.5059284 -0.55472934 22
2.0064435 1.6120692 -0.50030124 10
2.1567919 1.7310086 -0.43801656 25
2.2259262 1.7839431 -0.35025251 12
2.8151953 2.253782 -0.31550378 13
2.1603386 1.7276634 -0.14497061 2
2.1219904 1.6945698 -0.047400735 10
2.0921009 1.6838981 0.046877164 7
2.0717537 1.6657344 0.13931833 5
2.0880599 1.6764445 0.23427464 7
2.0750923 1.6642472 0.32660985 9
2.0565531 1.6476101 0.41736722 4
2.0343437 1.6274866 0.50640708 7
2.0384181 1.6289965 0.60241896 6
3.3758712 2.6949234 1.1574388 1
1.7307935 1.374272 -0.59217799 26
1.8764273 1.488306 -0.55292976 41
2.0222661 1.6016792 -0.50144607 10
2.1719224 1.7183605 -0.43864229 40
2.2068698 1.744132 -0.34537774 31
2.2162037 1.7489967 -0.24699937 2
2.1503878 1.6952293 -0.1435052 10
2.1319048 1.6788495 -0.047365833 5
2.1022401 1.6680075 0.046842258 5
2.1021159 1.6661164 0.1405744 7
2.1009846 1.6634294 0.23444894 8
2.0726447 1.6386406 0.32441622 6
2.0726552 1.6368864 0.41830578 9
2.049998 1.6172506 0.50755197 6
3.7274969 2.9364133 1.0955118 9
nan nan nan nan
1.7266541 1.3514391 -0.58751929 18
1.8852366 1.4739693 -0.5524798 41
2.0117331 1.5706089 -0.49610341 9
2.1682885 1.6910089 -0.43551362 34
2.179842 1.6981847 -0.33928427 32
2.1654565 1.6845483 -0.24002692 6
2.157439 1.676499 -0.14319119 5
2.1467328 1.6663774 -0.047435641 8
2.1327353 1.668074 0.047261119 7
2.1042531 1.6440223 0.13994636 5
2.1062639 1.6438181 0.2337517 6
2.0762062 1.6180288 0.32319754 8
2.0590935 1.6029605 0.41329992 2
nan nan nan nan
3.4123645 2.6497645 0.99743301 49
3.7550969 2.9127522 1.2733897 12
1.7391067 1.3417112 -0.58855456 21
1.8815897 1.4500653 -0.54843074 27
2.0257607 1.5589205 -0.49686664 10
2.1784749 1.6746261 -0.43520072 23
2.1916444 1.6829252 -0.33928427 7
2.1834884 1.6742388 -0.24072415 6
2.202388 1.6869004 -0.1453893 8
2.1599021 1.6525649 -0.047470544 5
2.1379931 1.6482612 0.047121495 4
2.0998545 1.6171066 0.13889964 4
2.1034749 1.6181409 0.23218289 8
2.1866288 1.6796788 0.33855307 1
3.1782248 2.4387372 0.6344983 42
4.0715246 3.1208048 0.99716789 12
3.6056466 2.7597179 1.048272 39
3.3763204 2.581392 1.1388038 45
1.7407417 1.3236914 -0.58596635 15
1.9025294 1.445146 -0.55158001 37
2.0412881 1.5482985 -0.4980115 19
2.2090075 1.6736912 -0.43895519 6
2.2381637 1.6939379 -0.34464651 7
2.1967123 1.6601566 -0.24089848 7
2.2061403 1.6654679 -0.14486594 5
2.1490331 1.6205906 -0.046981879 5
2.1351185 1.6224067 0.046807356 6
2.1174564 1.6072377 0.13931833 5
2.9926789 2.2690995 0.32857716 32
2.9959569 2.2682927 0.46139738 20
3.2046261 2.4236391 0.63637549 28
nan nan nan nan
3.6979437 2.7896371 1.0694174 45
3.3958032 2.5589209 1.1393216 38
1.7422109 1.3057135 -0.5833782 12
1.8985318 1.4213176 -0.54753089 31
2.0441844 1.5281334 -0.49610341 12
2.2238038 1.6605922 -0.43958092 18
2.2467527 1.6758975 -0.34415907 8
2.2098475 1.6459693 -0.24107277 3
2.1888714 1.6285646 -0.14298184 5
2.1699255 1.612704 -0.047191311 5
2.1431918 1.6050637 0.046737548 6
3.0402081 2.2743671 0.19898133 51
2.9988711 2.2409954 0.32753128 30
3.0228565 2.2556322 0.46310353 13
3.2119641 2.3941257 0.6344983 24
3.8769195 2.8866122 0.93954355 42
3.9784963 2.9579248 1.144551 13
4.018445 2.9843605 1.3412004 22
1.7512841 1.2935188 -0.5833782 12
1.9021357 1.4034009 -0.54573131 31
2.0611253 1.5184829 -0.49762988 9
2.2464788 1.6532235 -0.44177097 14
2.2488005 1.6531179 -0.34269661 6
2.1955864 1.6116383 -0.2382838 4
2.2017982 1.6144246 -0.14308652 3
3.8008471 2.7838366 -0.082235746 36
3.13096 2.3108749 0.067924768 24
3.0415449 2.2424188 0.19803928 22
3.0080273 2.2152774 0.32683402 20
3.0417283 2.2368257 0.46359101 16
3.2970562 2.4219298 0.6479516 39
4.3148499 3.1660972 1.0402907 19
4.0540662 2.9703913 1.1602976 4
3.7273948 2.7280428 1.2376727 55
1.7616098 1.2827052 -0.5838958 12
1.9069164 1.3869821 -0.54438156 37
2.0666475 1.5009582 -0.49648505 10
2.2448876 1.6286151 -0.43926802 7
2.2506411 1.6303906 -0.34123421 5
2.2533143 1.6305289 -0.24333882 1
3.3474302 2.4195771 -0.21646154 31
3.9531488 2.8532007 -0.085097939 15
4.0310979 2.9330661 0.087017693 16
3.1504426 2.2897711 0.20411025 5
3.1568551 2.2919068 0.34130189 27
3.092242 2.2417021 0.46895328 19
3.359864 2.4330306 0.65702486 16
3.8977556 2.8183939 0.93496412 41
3.9778275 2.8731222 1.1328536 39
3.8038456 2.7444282 1.2568253 13
1.7597549 1.262185 -0.58027232 12
1.9183768 1.374436 -0.54483151 31
2.0706904 1.4819221 -0.49495855 10
2.2725563 1.6239946 -0.4423967 10
2.5867226 1.8464545 -0.39022568 9
2.4463334 1.7443089 -0.2628617 2
3.3679128 2.3978779 -0.21667089 31
3.7334201 2.6551664 -0.079966925 14
3.3266623 2.3851731 0.071450152 7
3.1505075 2.2555418 0.20306353 27
3.2298965 2.3098221 0.34740278 12
3.1288152 2.2350597 0.47212186 13
3.2983871 2.3527174 0.64169425 22
4.074029 2.9027603 0.9723627 24
nan nan nan nan
3.7666974 2.6768513 1.2381904 45
1.759058 1.243179 -0.5771665 16
1.9247414 1.358762 -0.54393172 30
2.0844512 1.469329 -0.49572179 10
2.2854545 1.6092256 -0.44270959 10
2.5849371 1.8180728 -0.38803205 8
2.9605753 2.0799558 -0.31654966 10
3.3862059 2.3754539 -0.21677555 21
3.8304729 2.6841202 -0.081642359 15
3.546191 2.5043464 0.075778343 26
3.1580157 2.2277374 0.20254017 40
3.5439904 2.4972322 0.37930179 11
3.1057649 2.1851985 0.46627215 27
3.2597826 2.2910137 0.63105673 27
4.0106397 2.8155892 0.95251852 23
4.0558467 2.844157 1.1436512 1
4.1445155 2.9020219 1.3556943 13
1.7772058 1.2374926 -0.58027232 12
1.9245815 1.3386153 -0.54123229 34
2.0944042 1.4551065 -0.49572179 10
2.2931094 1.5913794 -0.44208387 10
2.6040931 1.8045048 -0.38900697 8
2.9701095 2.0558343 -0.31602672 9
3.3875113 2.3421271 -0.2158335 19
3.7372153 2.5800588 -0.079268835 19
3.4269328 2.3853295 0.072881252 7
nan nan nan nan
3.2978373 2.2894988 0.35123762 21
3.1303537 2.1707964 0.46773461 34
3.3337591 2.3092675 0.64232004 18
4.2336459 2.9282374 1.0006025 11
3.9858186 2.7537413 1.1184567 56
4.1132932 2.8386312 1.3391298 12
1.7887735 1.2275529 -0.58130759 13
1.927219 1.3210766 -0.53943264 16
2.104511 1.4404504 -0.49572179 10
2.3009012 1.5731028 -0.44145811 9
2.5999217 1.7755435 -0.38656959 8
2.9942663 2.041784 -0.3170726 9
3.4103827 2.3229182 -0.21625218 7
3.8009841 2.5860567 -0.080246165 5
3.7568476 2.5762205 0.079513162 33
5.5447416 3.7979841 0.35222104 2
3.2261961 2.2073681 0.34199914 10
3.1454332 2.1488881 0.46773461 29
3.3432736 2.2814813 0.64106852 21
nan nan nan nan
3.956615 2.6929555 1.1049596 39
9.7997208 6.6623912 3.1751921 1
1.787698 1.2085426 -0.57820177 12
1.923475 1.2988654 -0.53583348 19
2.1063769 1.4202352 -0.49381369 10
2.3216581 1.5636221 -0.44333532 9
2.6122549 1.7573481 -0.38656959 8
2.9555216 1.985281 -0.31149462 3
3.4447596 2.3112953 -0.21740359 3
3.629575 2.4325442 -0.076267019 17
3.5493829 2.3976972 0.074766114 11
3.3956511 2.2912593 0.21468212 9
3.2894392 2.2170858 0.34705415 33
3.2212932 2.1678843 0.47675291 25
3.3263321 2.2360446 0.6348111 19
nan nan nan nan
4.0708184 2.7292926 1.1315038 27
4.2103114 2.8196223 1.3577647 19
1.7864432 1.1896088 -0.57509595 12
1.9357406 1.287565 -0.53673327 8
2.111335 1.4022359 -0.49266884 10
2.3292263 1.5451907 -0.44270959 9
2.62446 1.7390682 -0.38656959 8
2.9560165 1.9558042 -0.31010011 6
3.4874713 2.3048091 -0.21907835 3
3.673172 2.4247708 -0.0768255 13
3.4811294 2.3163626 0.072985962 10
3.4182177 2.2719195 0.2151008 9
3.3164563 2.2017813 0.34827435 19
3.2512395 2.1552155 0.47894657 24
3.45386 2.2869287 0.65608621 12
20.779974 13.743546 4.8427324 8
4.0003352 2.6417432 1.1067592 17
4.1863527 2.7614393 1.3437886 12
1.7866278 1.1718106 -0.57250774 12
1.9349016 1.267612 -0.53403383 11
2.1292872 1.3928365 -0.49457693 10
2.346571 1.5332149 -0.44396105 9
2.6431854 1.7250447 -0.38754454 8
2.9996459 1.9546978 -0.31323773 9
3.4733474 2.2607923 -0.21719423 5
3.7503648 2.4383075 -0.078082062 16
5.5761447 3.6544902 0.11637264 8
3.8083096 2.4930382 0.23854731 10
3.3801067 2.2101936 0.35332939 28
3.26122 2.1292093 0.47821537 30
3.4962153 2.280025 0.66109216 16
nan nan nan nan
3.9811058 2.5893154 1.0964115 17
4.0321875 2.6195362 1.2884012 6
1.794765 1.159309 -0.57250774 12
1.9420668 1.2530165 -0.53358394 9
2.1406097 1.3790004 -0.49495855 10
2.3372836 1.5039685 -0.44020665 9
2.6551642 1.7065496 -0.38754454 9
3.0232792 1.9401665 -0.31428361 7
3.5159488 2.2537355 -0.21886899 3
4.1495819 2.6568325 -0.086005464 16
3.6156194 2.3336823 0.075115159 8
3.8743019 2.4977748 0.2415828 13
3.4155548 2.1994884 0.3554211 23
3.3578217 2.1589959 0.49015856 22
3.4422388 2.2107275 0.6479516 21
6.9998631 4.4903798 1.6165339 4
6.9413753 4.4460287 1.9030859 10
6.8363342 4.3737025 2.1745977 11
1.8011841 1.145715 -0.57199007 12
1.9458326 1.2362926 -0.53223425 9
2.1535003 1.3661259 -0.49572179 10
2.3544004 1.4918437 -0.44145811 9
2.6502399 1.6773556 -0.38510716 8
3.0266447 1.9126269 -0.31323773 7
2.6313863 1.6609238 -0.16307886 27
4.1291232 2.6032693 -0.085202649 9
5.5810595 3.5473161 0.11543022 17
5.888052 3.7381139 0.36551434 7
3.4577482 2.1926615 0.35821009 28
3.3879068 2.1450584 0.49235216 13
3.5043356 2.2162058 0.656712 21
6.9928632 4.4172907 1.6077567 4
6.9227982 4.3662734 1.8895891 10
6.8340111 4.305275 2.1642449 9
1.8140513 1.136188 -0.57354301 12
1.956068 1.2237115 -0.53268409 10
2.1529942 1.3448189 -0.4934321 10
2.378165 1.4837365 -0.44396105 9
2.6517773 1.6525133 -0.38364473 8
3.0466905 1.8956605 -0.31393498 9
2.6174722 1.6266993 -0.16150878 10
3.7428408 2.3233743 -0.076895304 19
5.6056886 3.5082667 0.11543022 9
5.6514997 3.5328207 0.34929019 20
nan nan nan nan
3.4567056 2.1549599 0.50015181 2
3.5649974 2.2198792 0.66515946 7
7.0001922 4.3538475 1.6024141 5
4.6122298 2.8641646 1.2534273 7
6.844202 4.2452364 2.1580334 12
1.8104287 1.116398 -0.56991959 12
1.9645636 1.2100257 -0.53268409 9
2.1589861 1.3276975 -0.49266884 10
2.3867831 1.4660627 -0.44364822 7
2.6750934 1.6412266 -0.38535091 9
3.0462577 1.8660201 -0.3125405 6
3.5777092 2.1889915 -0.21981104 5
4.1462998 2.5338912 -0.084818691 5
5.6436625 3.4774406 0.11570945 9
5.7474642 3.5372493 0.35368642 13
5.6928639 3.4995377 0.58464068 38
5.9333005 3.6416314 0.85479164 2
5.6939602 3.4906304 1.0578099 14
6.9935827 4.2823162 1.5940183 5
4.6437521 2.8390107 1.2565767 14
6.8308029 4.1711774 2.1445746 12
1.8132236 1.1007249 -0.56836665 12
1.9712964 1.1952717 -0.53223425 10
2.1564462 1.3054756 -0.48999751 11
2.39696 1.4493641 -0.44364822 7
2.6881852 1.6235371 -0.38559461 8
3.0523865 1.8405908 -0.31184325 7
3.6117244 2.1752939 -0.22096242 3
4.1793094 2.5141623 -0.085132837 3
5.5942826 3.3933606 0.11420855 14
5.9496717 3.6046717 0.36457232 2
6.0308008 3.6495054 0.616714 7
5.6170683 3.3937857 0.8058002 26
5.6302433 3.3977239 1.0415409 17
6.9829521 4.2090669 1.5848596 5
6.9058595 4.156024 1.8607953 10
6.8630681 4.1253786 2.1456099 9
1.8175474 1.0860577 -0.56733137 12
1.9879597 1.1864738 -0.53448373 9
2.1756263 1.2964199 -0.49228725 12
2.3968346 1.4265343 -0.44177097 9
2.6943345 1.6016889 -0.38486344 9
3.0720155 1.8233039 -0.3125405 6
3.6199508 2.1459525 -0.22054374 10
2.6773918 1.5852978 -0.05431189 12
5.4907846 3.2783604 0.1116256 11
5.9609704 3.5548601 0.36373493 16
5.795948 3.4523358 0.59021866 38
5.6167374 3.3402832 0.80238777 13
5.7064757 3.3896074 1.0512397 16
6.9750223 4.1381721 1.5764639 4
6.9665604 4.1265841 1.8693434 6
6.9449048 4.1088462 2.1621742 12
1.8234199 1.0723629 -0.56681371 12
1.9827527 1.1646694 -0.5308845 11
2.1930914 1.2861654 -0.49419534 12
2.4084396 1.4107649 -0.44208387 9
2.6900301 1.5738178 -0.38266978 6
3.0846689 1.8018143 -0.3125405 6
3.6400185 2.1236496 -0.22085775 7
4.2347388 2.4676459 -0.085551701 3
5.5928431 3.2865539 0.11323121 8
7.0759749 4.1531124 0.42999226 8
5.8181882 3.4107835 0.59004438 27
5.6690464 3.3180335 0.80653143 25
5.7470551 3.3596525 1.0543684 14
7.0715585 4.128974 1.5917287 5
nan nan nan nan
nan nan nan nan
1.8475821 1.0692837 -0.57199007 12
1.9908347 1.1507996 -0.5308845 11
2.1884139 1.2629727 -0.49114239 11
2.4045386 1.3860245 -0.43958092 9
2.7043934 1.5569792 -0.38315722 5
3.0902631 1.7762637 -0.31184325 7
3.6443632 2.0922194 -0.22022973 7
4.2189021 2.4191244 -0.08488851 18
5.5827603 3.2284083 0.11256802 13
7.0892305 4.0946207 0.42905018 5
5.8591161 3.3800375 0.59178752 19
5.8778505 3.3853784 0.83285517 16
5.7960529 3.3342268 1.0590615 35
nan nan nan nan
7.0708299 4.0560594 1.8819406 100
7.0166855 4.0201192 2.1668332 52
1.8331786 1.0439312 -0.56526077 12
2.002208 1.1387999 -0.5317843 10
2.1920562 1.2447556 -0.48999751 13
2.4210293 1.3731019 -0.44083238 9
2.7151964 1.5380622 -0.38315722 8
3.0887146 1.7468001 -0.31044877 7
3.6519248 2.0627968 -0.21981104 7
4.2374301 2.3905923 -0.084923409 3
5.5512838 3.1586974 0.11148597 11
7.1228538 4.0479894 0.42936423 8
5.8305893 3.3095453 0.58655816 27
5.7821746 3.2767296 0.81603718 15
5.7830873 3.2732477 1.0524912 17
7.1575718 4.0462642 1.5982162 69
7.0769119 3.9941452 1.8760918 100
nan nan nan nan
1.831995 1.0263866 -0.56267262 12
2.0101097 1.124794 -0.5317843 10
2.2092624 1.2342093 -0.4919056 11
2.4202065 1.3503915 -0.43895519 9
2.7345378 1.5239007 -0.38437593 9
3.0903885 1.7193807 -0.30940288 6
3.652271 2.0294886 -0.21897365 7
4.2452745 2.3560994 -0.084748887 14
5.5574951 3.1110766 0.11117183 13
7.0533142 3.9435849 0.42350259 17
5.8883429 3.2881875 0.59004438 11
5.8309174 3.250782 0.81969327 10
5.8299603 3.2462485 1.0568714 14
7.1530461 3.9780664 1.5909655 56
nan nan nan nan
nan nan nan nan
1.8408076 1.0145054 -0.56319028 11
2.0110838 1.1069756 -0.52998471 10
2.2126632 1.2159191 -0.49076074 9
2.422648 1.3296605 -0.43770367 9
2.7416286 1.5028646 -0.38388845 9
3.1090102 1.7021339 -0.31010011 6
3.6628444 2.0020273 -0.21876432 7
4.289701 2.3417368 -0.08530736 7
5.5107646 3.0345805 0.10981054 11
7.087676 3.8980942 0.42392129 14
7.0724301 3.8848877 0.70596153 1
5.9422369 3.2586782 0.83212399 13
5.8698049 3.2149608 1.0600001 19
7.1306963 3.9007046 1.5798986 70
nan nan nan nan
10.21653 5.5725498 3.118252 1
1.8495438 1.00255 -0.56370795 12
2.008481 1.0873411 -0.52728528 10
2.2191617 1.1998961 -0.49037915 9
2.4281662 1.311262 -0.43707794 9
2.7380743 1.4761528 -0.38193855 9
3.1313422 1.6860563 -0.31114599 6
3.6693509 1.9732648 -0.21834564 7
4.2636609 2.2890308 -0.084469646 15
5.5260172 2.9941442 0.10970583 13
7.1544452 3.8716261 0.42632878 17
7.0608163 3.8145843 0.70212668 1
nan nan nan nan
5.9698067 3.2170985 1.0740792 9
7.1266322 3.8340888 1.5730294 67
10.224231 5.493679 2.6796172 2
10.329123 5.5430727 3.1410282 1
1.8546203 0.98902822 -0.56319028 12
2.0141153 1.0727293 -0.52683538 11
2.2240176 1.1825309 -0.48961592 9
2.4442399 1.2979841 -0.4383294 9
2.7480595 1.4574798 -0.38193855 9
3.1395161 1.6622883 -0.31079736 3
3.6901 1.9513345 -0.21876432 7
4.249083 2.2440803 -0.083876267 22
5.537962 2.9507909 0.10953131 11
7.1619043 3.8112628 0.42517737 31
7.0655031 3.7552166 0.70003492 2
7.0334678 3.7318959 0.97763592 2
6.9765534 3.6970131 1.2505373 10
7.1248016 3.7707965 1.5669236 64
10.222705 5.401228 2.6692693 2
10.249679 5.408617 3.1053109 3
1.8546362 0.97246802 -0.56111974 12
2.0267344 1.0613542 -0.52818507 12
2.2252588 1.1633382 -0.48808944 10
2.4602463 1.2845455 -0.43958092 9
2.7546475 1.4364235 -0.38145107 9
3.1369064 1.6329699 -0.30940288 7
3.7000887 1.9236826 -0.21855497 7
4.2628717 2.2134399 -0.083841361 17
5.4982033 2.880502 0.10834454 14
7.1175532 3.7241294 0.4209905 14
7.0579982 3.6882627 0.69672298 1
7.0311899 3.6680114 0.97373611 3
6.9741616 3.6336172 1.2455313 10
7.1265688 3.7082803 1.5615808 67
10.310315 5.3557801 2.6823165 2
10.717607 5.5602283 3.2352383 2
1.859663 0.95861131 -0.56060207 12
2.0306294 1.0453951 -0.52728528 10
2.2298341 1.1459799 -0.4873262 11
2.4621241 1.2637315 -0.4383294 10
2.7787402 1.4244031 -0.38340098 9
3.1411355 1.6073998 -0.30870563 7
3.7063148 1.8941686 -0.2181363 7
4.2960315 2.1927164 -0.084190413 17
5.5412884 2.8539526 0.1087983 9
7.1469316 3.6761761 0.42119983 28
7.0428138 3.6179595 0.69271386 2
7.0177679 3.5989034 0.96837389 3
6.9641972 3.5668268 1.239274 10
7.1085892 3.6360829 1.5520406 73
10.437701 5.3297586 2.7057116 2
nan nan nan nan
1.8645872 0.94473106 -0.5600844 12
2.0274458 1.0259131 -0.52458584 8
2.2290182 1.1259588 -0.48541811 12
2.4603047 1.2411736 -0.43645221 9
2.7779796 1.3996099 -0.38193855 9
3.14872 1.5836426 -0.308357 6
3.7087383 1.8628703 -0.21750826 7
4.3434072 2.1788123 -0.084818691 16
5.4290533 2.7483628 0.10621535 9
7.1171651 3.5982597 0.41795498 19
7.046556 3.55793 0.69062209 3
7.0037241 3.5301659 0.96301162 3
6.9571686 3.5021331 1.2336423 10
7.0969644 3.5678482 1.5440264 73
10.429374 5.2340288 2.6940141 1
nan nan nan nan
1.8675157 0.93029535 -0.55904913 12
2.0239131 1.006882 -0.52188647 10
2.2471809 1.1159997 -0.48770785 12
2.474005 1.2270312 -0.43739083 10
2.77701 1.3748962 -0.38047612 9
3.1665714 1.565704 -0.30905426 6
3.7105887 1.832275 -0.21688022 7
4.3620996 2.1502049 -0.08488851 18
5.5246134 2.7496607 0.10771625 11
7.1146669 3.5363929 0.41638491 16
7.0420589 3.4957058 0.68783307 3
7.0026875 3.4700749 0.95959932 3
6.9383535 3.4336715 1.2261335 12
7.0935354 3.5043056 1.5379206 67
10.789813 5.3232927 2.7776959 2
nan nan nan nan
1.8828014 0.92115289 -0.56163734 11
2.0415719 0.9975062 -0.52458584 10
2.240802 1.0933967 -0.4846549 12
2.4880497 1.2118912 -0.4383294 9
2.7793996 1.3520033 -0.37950116 11
3.1702557 1.540078 -0.308357 6
3.7254026 1.8065473 -0.21698491 7
4.3572078 2.1101096 -0.084504552 17
5.5328979 2.7057509 0.10750683 11
7.0877376 3.4599886 0.41334942 22
7.0507741 3.4373703 0.68626434 7
7.0017552 3.4089365 0.95618695 2
6.9414268 3.3735721 1.2223791 10
7.1001649 3.4461257 1.5341043 64
20.62582 9.9975777 5.2917485 9
nan nan nan nan
1.8787388 0.90296572 -0.55853152 10
2.0414586 0.97985613 -0.52278626 11
2.2432573 1.074789 -0.48351002 11
2.4928861 1.1927866 -0.43770367 10
2.7923529 1.3342782 -0.37998864 9
3.181195 1.5173528 -0.308357 6
3.7433326 1.7830737 -0.21729892 7
4.3844728 2.0856545 -0.084748887 10
5.4872231 2.6349273 0.10625025 11
7.1225271 3.415601 0.41397744 30
7.0422544 3.3725724 0.68312669 10
7.0044785 3.3484721 0.95326209 2
6.9291563 3.3080089 1.2161217 10
7.0921521 3.3812654 1.5272354 68
20.841124 9.918396 5.3286409 9
nan nan nan nan
1.8780088 0.88652897 -0.55646098 11
2.0588253 0.97056699 -0.52548569 10
2.2524824 1.0599377 -0.48389161 10
2.48685 1.1686327 -0.43520072 10
2.8051941 1.3164382 -0.38047612 9
3.1844938 1.4917263 -0.30765978 4
3.7593071 1.7585891 -0.21750826 7
4.4116092 2.0609188 -0.084993221 16
5.48559 2.5871718 0.1058663 14
7.0883794 3.3385606 0.41062793 19
7.0295691 3.306366 0.67964047 11
6.9917464 3.2826173 0.94838732 2
6.9252539 3.2469749 1.2114286 12
7.0818024 3.3158529 1.5199846 73
21.132303 9.8766203 5.3853283 10
nan nan nan nan
1.8841528 0.8733955 -0.55646098 9
2.0478671 0.94798261 -0.52098668 10
2.2509158 1.0400702 -0.48198354 10
2.4841857 1.1462784 -0.43332353 9
2.8143156 1.2968234 -0.38047612 9
3.1984506 1.4711231 -0.3080084 6
3.7460837 1.7206305 -0.21604285 7
4.4022603 2.0192316 -0.084539458 10
5.4962597 2.5454504 0.10572667 9
7.1151395 3.2906697 0.41083729 30
7.0362015 3.2496912 0.67807168 12
6.9676218 3.2121177 0.9420501 3
6.9208379 3.1861572 1.2067356 10
7.0673194 3.2491102 1.5119705 79
21.328264 9.7873669 5.4177217 10
nan nan nan nan
1.8954794 0.86262101 -0.55801392 10
2.0420163 0.92801881 -0.51783735 10
2.2670619 1.0283847 -0.48389161 10
2.5065229 1.1354269 -0.43582645 9
2.8160665 1.2738702 -0.37950116 9
3.2013786 1.4454798 -0.30731115 9
3.7416167 1.6870492 -0.2151008 5
4.4089556 1.985167 -0.084399842 10
5.3937507 2.4523935 0.10342296 9
7.0651946 3.2078915 0.40665042 19
7.0296822 3.1873293 0.67528266 12
6.9573231 3.1486633 0.93766278 2
6.9105115 3.1231198 1.2011039 10
7.0647779 3.1883855 1.5066279 83
nan nan nan nan
nan nan nan nan
1.8943993 0.84621626 -0.55594331 10
2.0573435 0.91771048 -0.52008688 11
2.2508705 1.0021517 -0.47893062 10
2.5089736 1.1154929 -0.43488789 10
2.819448 1.2517626 -0.37876993 8
3.21843 1.4268837 -0.3080084 7
3.7642629 1.6657343 -0.21572883 7
4.3971009 1.9430205 -0.083911166 1
5.3322182 2.3796358 0.10192205 27
7.0782962 3.154424 0.40612707 33
7.0317402 3.1292648 0.67336524 15
6.9428506 3.0839024 0.93278801 1
nan nan nan nan
nan nan nan nan
nan nan nan nan
6.9295607 3.0591903 2.029659 41
1.8949533 0.83064359 -0.55439043 12
2.0637 0.9033252 -0.52008688 10
2.263036 0.98916715 -0.48007545 10
2.5110767 1.0960196 -0.43394926 9
2.8317578 1.2336358 -0.37925744 6
3.2173502 1.3996128 -0.30696252 7
3.7700176 1.6376874 -0.21541482 5
4.3114862 1.8693212 -0.08202631 7
5.3446293 2.3416805 0.10185225 11
7.0355611 3.0781507 0.40246356 15
nan nan nan nan
4.3270545 1.8868464 0.57961065 1
4.2869368 1.8666821 0.74056083 6
7.0689931 3.0722218 1.4982322 73
nan nan nan nan
6.9059086 2.9927473 2.0167181 43
1.8970138 0.81619859 -0.5533551 12
2.06622 0.88771856 -0.51918709 11
2.2752998 0.97566539 -0.4812203 10
2.5132201 1.0761285 -0.43301064 10
2.8400898 1.2143307 -0.37925744 8
3.212383 1.3708614 -0.30556804 7
3.7795219 1.610545 -0.21531016 5
nan nan nan nan
5.3884044 2.3161561 0.10237581 3
4.4653802 1.9166335 0.25466678 1
4.3602667 1.8688138 0.41503564 3
4.3127441 1.8448828 0.57595456 2
6.8903179 2.9432368 1.186712 10
nan nan nan nan
4.2387147 1.804468 1.0635686 1
nan nan nan nan
1.8937666 0.79917961 -0.55076694 12
2.0723672 0.873272 -0.51918709 11
2.2711973 0.9551903 -0.47893062 10
2.5206711 1.0585577 -0.43301064 11
2.8503282 1.1952425 -0.37950116 9
3.2292271 1.3514781 -0.30626526 7
3.7685602 1.5748765 -0.21405408 5
4.4365053 1.851282 -0.083911166 1
4.4333749 1.8690851 0.083980985 1
6.9802909 2.9385467 0.39691594 7
6.9813356 2.9346848 0.66255796 1
nan nan nan nan
nan nan nan nan
nan nan nan nan
nan nan nan nan
nan nan nan nan
1.9082249 0.78963244 -0.5533551 12
2.0658059 0.85357368 -0.51603776 10
2.2905154 0.94455028 -0.48160195 10
2.5371327 1.044695 -0.43457499 9
2.8439152 1.1692754 -0.37755126 9
3.2385833 1.3289009 -0.30626526 7
3.7702219 1.5447445 -0.21353073 5
4.4123054 1.8051206 -0.083213076 1
5.4276085 2.2437541 0.10251543 1
nan nan nan nan
4.2404122 1.7477723 0.40126503 1
nan nan nan nan
6.8941956 2.8317347 1.1804546 10
7.0313697 2.8837764 1.4772433 76
19.355257 7.9223948 4.8283496 8
nan nan nan nan
1.9136908 0.77629215 -0.5533551 12
2.0681019 0.83766866 -0.51513797 10
2.2861326 0.9241218 -0.47931221 10
2.527878 1.0203029 -0.43175918 10
2.8483267 1.1479087 -0.37706378 9
3.2514787 1.3077458 -0.30661389 9
3.7753541 1.5161527 -0.21321672 5
4.3394217 1.7400401 -0.081607454 7
nan nan nan nan
nan nan nan nan
4.2358856 1.711409 0.39969626 1
4.1626458 1.6784412 0.55109322 1
6.8753152 2.7680423 1.1738844 12
7.0312943 2.8265595 1.4730455 85
19.370304 7.7711129 4.8184519 8
nan nan nan nan
1.9118835 0.76005769 -0.55128461 12
2.0847673 0.82752287 -0.51783735 11
2.2815766 0.90380192 -0.4770225 9
2.5477974 1.0077171 -0.43394926 10
2.8562708 1.1279969 -0.37706378 9
3.2494078 1.2806311 -0.30556804 9
3.7969973 1.4941467 -0.21384473 5
4.3309908 1.7016588 -0.081223503 7
4.3191495 1.715306 0.081118785 1
4.3314929 1.7175832 0.2441996 1
4.2458773 1.6810617 0.39952192 1
4.1041069 1.6216176 0.54183114 1
6.863234 2.7076521 1.1685656 8
7.036242 2.7716501 1.4699926 83
