# .PCD v0.7 - Point Cloud Data file format
VERSION 0.7
FIELDS x y z intensity
SIZE 4 4 4 4
TYPE F F F F
COUNT 1 1 1 1
WIDTH 1436
HEIGHT 1
VIEWPOINT 0 0 0 1 0 0 0
POINTS 1436
DATA ascii
1.1481073 3.2711554 -0.54908502 26
1.3259982 3.7716763 -0.49088979 19
1.5619471 4.4329181 -0.41120079 15
1.8805127 5.3281288 -0.29611689 2
2.4861383 7.0323377 -0.13019496 11
4.1660967 11.923191 0.22045881 31
4.0676317 11.621827 0.64530241 23
4.0703754 11.610168 1.0763733 20
10.450691 29.742638 3.8708143 49
10.470782 29.750006 4.995266 28
10.478795 29.72307 6.1261144 25
10.475169 29.646725 7.2591705 18
10.520948 29.726728 8.4494066 58
0.86163801 2.4144266 -0.68690574 39
0.94850379 2.6534469 -0.65055853 27
1.0395377 2.9017224 -0.59914029 32
1.1749177 3.2742164 -0.55096221 20
1.3482666 3.7511194 -0.48942733 16
1.5812844 4.3921909 -0.4084118 18
1.9054627 5.2810535 -0.29423279 2
2.5141029 6.9565091 -0.1291129 19
4.254622 11.908878 0.22073804 34
4.1796236 11.679648 0.65011734 25
4.1533475 11.587094 1.0768963 18
10.699689 29.784784 3.8859262 37
10.690943 29.711493 5.0012102 14
10.707361 29.708286 6.1383257 39
10.723046 29.703041 7.2906637 57
10.744641 29.697979 8.462348 58
0.87450212 2.3974628 -0.68379998 39
0.96299398 2.6357775 -0.6478591 23
1.0673627 2.9167027 -0.60371965 27
1.1808633 3.2216296 -0.5434534 16
1.3627853 3.7099383 -0.48528376 15
1.5823265 4.3006411 -0.40091643 14
1.9178816 5.2042441 -0.29067394 2
2.5106454 6.7981005 -0.12649503 16
4.320497 11.838317 0.21997014 21
4.2727365 11.688447 0.65221077 20
4.2978721 11.731804 1.0931073 17
10.940475 29.815624 3.8995755 25
10.909276 29.682535 5.0087194 29
10.926718 29.665974 6.145195 26
14.528568 39.38139 9.6908922 43
10.960617 29.662203 8.4732189 19
0.89349717 2.3986964 -0.68587047 29
0.97273737 2.6072521 -0.64246029 37
1.0856352 2.9036641 -0.60257488 28
1.2026312 3.2114577 -0.54314053 22
1.3852181 3.6931415 -0.48430881 20
1.6221281 4.3155985 -0.40335676 20
1.9400959 5.1533437 -0.28858051 2
2.574502 6.8276296 -0.12736766 19
nan nan nan nan
4.3332634 11.602204 0.64907056 20
4.3210783 11.551124 1.0789881 18
11.149755 29.742235 3.9000633 75
11.144703 29.681475 5.0215468 29
11.142893 29.629503 6.1532087 26
nan nan nan nan
8.1042061 21.469839 6.1490231 24
0.90541154 2.3797615 -0.68224704 34
0.98952669 2.5967562 -0.64156049 31
1.1086814 2.9033504 -0.6041013 25
1.2179657 3.1845334 -0.54001182 23
1.3988956 3.6518674 -0.48016527 22
1.646503 4.2892885 -0.40196225 25
1.9473542 5.0651054 -0.28439364 7
2.5789874 6.6975241 -0.12527338 21
3.7010314 9.7174807 0.18150502 1
4.4212809 11.590329 0.65011734 17
4.4286423 11.591399 1.0856119 23
11.374157 29.708166 3.9059129 75
11.368622 29.647213 5.0290561 14
11.371295 29.607805 6.1650391 39
4.0772266 10.593903 2.6206799 16
8.0683756 20.93145 6.0108137 23
0.92130375 2.3715818 -0.68172938 40
1.002685 2.5770717 -0.6384111 33
1.120366 2.87359 -0.59952188 30
1.2387313 3.1722727 -0.53938609 15
1.4229103 3.6383145 -0.47967777 24
1.6872877 4.3076649 -0.40475124 20
1.9695325 5.017921 -0.28250951 14
2.5708125 6.5397754 -0.12265551 18
4.2826414 11.012793 0.20625255 5
4.5426807 11.6634 0.65597892 5
4.5297318 11.612172 1.0904927 17
11.597181 29.668709 3.9112751 37
11.587564 29.598392 5.0343747 14
4.3422718 11.074487 2.3122237 38
4.1471057 10.560463 2.6193304 38
8.0346289 20.418005 5.879334 22
0.93356663 2.3543169 -0.67862362 31
1.0235302 2.5772531 -0.64021075 43
1.1253881 2.8294122 -0.59188956 26
1.2449439 3.1252294 -0.53281587 17
1.4342918 3.5932636 -0.47504675 22
1.7017884 4.2569299 -0.40109071 14
1.9746908 4.9320865 -0.2784273 7
2.5694985 6.404747 -0.12045651 28
4.096447 10.325389 0.19389623 3
4.6942358 11.814109 0.66623676 3
4.6011081 11.556202 1.0882267 19
13.90026 34.858952 4.6078801 15
8.7087851 21.806623 3.7190735 16
4.4172921 11.038433 2.3110785 17
4.1177859 10.274393 2.5554442 46
8.0028753 19.937943 5.7566533 28
0.94160181 2.328208 -0.67292953 29
1.039585 2.5666146 -0.63931096 22
1.1369922 2.801476 -0.58769172 32
1.2801206 3.1494017 -0.5384475 16
1.4512345 3.5650306 -0.47260937 26
1.7073864 4.1859107 -0.39551273 17
2.0611901 5.0457568 -0.28564969 9
2.6160634 6.3945112 -0.12059613 18
3.8240061 9.4457502 0.17787492 1
4.7195716 11.640379 0.65828174 3
4.7336326 11.657528 1.100777 14
8.8944349 21.860582 2.8978095 8
4.5045695 11.054667 1.8906672 12
4.2920361 10.517327 2.2080419 48
4.1702375 10.198498 2.5437467 42
4.2184577 10.301024 2.9826307 30
0.96372718 2.3358643 -0.67707068 73
1.0351527 2.5052626 -0.62581384 28
1.1527663 2.7844009 -0.58578366 27
1.2869432 3.1038938 -0.53219014 16
1.4715184 3.543813 -0.47114691 26
1.7090155 4.1076655 -0.38923752 21
2.0971341 5.0330873 -0.28575432 16
2.6506305 6.3521008 -0.12014236 15
4.1852598 10.134109 0.19138309 10
4.902247 11.852614 0.67220312 12
4.8171897 11.629718 1.1013 17
8.9197664 21.491764 2.857105 64
8.9305229 21.485899 3.6852834 15
4.2853875 10.29498 2.1675904 33
4.671164 11.19972 2.8015406 36
4.2575035 10.192892 2.9598548 34
0.97626603 2.3201756 -0.67448246 61
1.0405109 2.4692416 -0.61861545 34
1.174468 2.7817111 -0.58692849 30
1.3116584 3.1021113 -0.5334416 17
1.4985453 3.5389376 -0.47187814 16
1.7353142 4.0901327 -0.38871458 22
2.1158166 4.979723 -0.28355622 21
2.6565447 6.2432804 -0.11843203 20
4.2364979 10.058572 0.19051047 8
5.0857773 12.057337 0.68581045 15
4.8959312 11.590302 1.100777 25
9.0835171 21.461874 2.8614924 96
4.5613523 10.761531 1.8512456 31
4.4208255 10.414808 2.1992648 4
4.2344313 9.9563608 2.4978566 6
4.0060792 9.4057646 2.739341 13
0.99320054 2.3150792 -0.67500007 36
1.0700309 2.4905653 -0.62581384 23
1.1829932 2.7481973 -0.58158582 31
1.3278108 3.0801799 -0.53125149 19
1.5200696 3.5210986 -0.47090316 13
1.7867641 4.1309495 -0.39376962 19
2.1187763 4.8915219 -0.27936935 21
2.6738055 6.164042 -0.11728017 5
4.3271317 10.076524 0.19141799 8
5.2771397 12.271069 0.70004582 9
5.0862708 11.810195 1.1250063 15
nan nan nan nan
4.6073732 10.662333 1.8396695 18
4.2868009 9.9062204 2.0981357 1
4.4216652 10.198321 2.566242 2
4.0962672 9.4342728 2.7559054 27
1.0054685 2.2992387 -0.67241186 48
1.0819201 2.4705391 -0.62266457 24
1.1887393 2.7093093 -0.57509834 28
1.3445128 3.0599842 -0.5293743 19
1.5350189 3.4885976 -0.46797833 16
1.8164481 4.1223383 -0.39411828 17
2.1456165 4.8601656 -0.2784273 33
2.6763482 6.0537772 -0.11553493 15
4.1760616 9.5404682 0.18178427 8
5.1774549 11.811375 0.6758666 6
5.1237502 11.672234 1.1152449 6
4.7502775 10.800946 1.4487829 14
4.7016034 10.675103 1.8474913 13
4.4437957 10.07544 2.1404953 7
4.1854887 9.4763393 2.3916798 18
4.1135578 9.2959166 2.7238116 6
1.0104866 2.2674596 -0.66516501 38
1.1062889 2.4789417 -0.62671363 28
1.2159649 2.7208717 -0.57929617 30
1.3233507 2.9570034 -0.51310509 36
1.5617731 3.4832304 -0.46870953 20
1.8288615 4.0732055 -0.39063203 21
2.1827419 4.8545575 -0.27895069 28
2.7086904 6.0130658 -0.11511607 22
4.3459501 9.7474251 0.18628699 10
5.3342743 11.947289 0.68570572 18
5.3393497 11.936269 1.1440063 6
4.721436 10.540096 1.4180719 24
4.7102866 10.500467 1.8227745 19
nan nan nan nan
nan nan nan nan
4.5482159 10.091968 2.9660666 22
1.0322843 2.2746022 -0.6693061 56
1.1094303 2.4411938 -0.61906534 25
1.2324886 2.7069566 -0.57815129 30
1.3742816 3.0141959 -0.52468127 16
1.5813241 3.46349 -0.46749085 19
1.8531092 4.0512786 -0.38976046 19
2.2032721 4.8101473 -0.27727592 28
2.7153728 5.9199686 -0.11368498 17
4.3419423 9.5584507 0.18325028 7
5.3563552 11.775226 0.67796004 18
5.3287969 11.698388 1.1246576 6
4.703424 10.306419 1.3910168 35
4.8631215 10.641603 1.8531229 13
4.6999326 10.270281 2.1954484 14
nan nan nan nan
4.6234007 10.0705 2.969172 34
1.0416538 2.2533116 -0.66516501 46
1.1264461 2.4333892 -0.61906534 40
1.2521839 2.7000666 -0.57853287 22
1.3977888 3.0099022 -0.52561986 26
1.6037912 3.448766 -0.46700338 22
1.8914422 4.059916 -0.39185223 19
2.2030215 4.72225 -0.27308905 20
2.7422502 5.8700662 -0.1130916 15
4.3329868 9.3645716 0.18010885 12
5.5845251 12.052869 0.69617295 12
4.9256492 10.616266 1.0239056 20
4.7878122 10.300334 1.3946729 30
4.6963911 10.089828 1.7627038 34
4.7383423 10.166041 2.1801836 43
4.6295538 9.9145575 2.5262005 20
4.3867383 9.381731 2.7750578 6
1.0631183 2.25822 -0.66878843 33
1.1434057 2.4254663 -0.61906534 36
1.2642962 2.6770568 -0.57547992 35
1.4103228 2.982213 -0.52249116 30
1.6295283 3.4410737 -0.46749085 15
1.9129095 4.0322099 -0.39045769 19
2.2325096 4.6995373 -0.27267036 20
2.7118642 5.7008986 -0.11019449 16
4.3880301 9.3123865 0.17968997 7
5.61484 11.899792 0.68957865 15
5.0507188 10.689705 1.0343643 28
4.8833814 10.316899 1.4014976 9
nan nan nan nan
4.7923584 10.097243 2.1725514 11
4.754724 9.9999104 2.5563438 14
4.4255533 9.2950621 2.7584937 31
1.0713426 2.2350647 -0.66412973 33
1.1679001 2.4332364 -0.62311447 30
1.2684906 2.638087 -0.56899244 36
1.4225372 2.9544969 -0.51936251 25
1.6405786 3.4027925 -0.46383476 15
1.9219499 3.9792881 -0.38662288 18
2.2356982 4.6227045 -0.26911151 20
2.7210927 5.6188364 -0.10897283 14
4.4148808 9.2021933 0.17815416 12
5.8084888 12.090736 0.70297664 9
nan nan nan nan
4.9458079 10.262884 1.3988165 32
3.502692 7.2586017 1.2765055 17
3.4883933 7.2193022 1.5585279 3
3.5992079 7.4353905 1.9071352 6
5.1096644 10.541663 3.1389575 13
1.08099 2.2153773 -0.66050619 45
1.1788715 2.4127665 -0.61996514 31
1.294645 2.6450374 -0.57242703 22
1.4387821 2.9356248 -0.51779813 35
1.6503016 3.3627431 -0.45993495 19
1.9294642 3.9246502 -0.38261372 20
2.2608595 4.5926485 -0.26827416 20
2.6488526 5.3737054 -0.10457481 9
4.5149922 9.2448215 0.17958528 10
5.7804413 11.820235 0.68957865 12
3.3383882 6.8175149 0.66412675 3
nan nan nan nan
4.7603559 9.691391 1.7101418 10
3.4936514 7.1031647 1.5386838 36
3.6114099 7.3296709 1.8864397 17
4.7933693 9.7157278 2.9029145 22
1.0998669 2.2146976 -0.66257679 58
1.1818027 2.3765597 -0.61276674 27
1.3113283 2.6324198 -0.57166374 29
1.4539511 2.9149024 -0.51592094 23
1.6834962 3.3706744 -0.46261609 20
1.945227 3.8879206 -0.38034767 32
2.2901812 4.5713968 -0.26796013 24
2.7544451 5.4909263 -0.10722758 16
4.4735041 8.9999838 0.17543158 14
5.1455421 10.338434 0.60521305 23
5.1535034 10.340854 1.0108323 13
5.1693068 10.35445 1.4209967 45
4.8429141 9.6879587 1.7154605 10
3.6600306 7.3120966 1.5894389 10
4.8792515 9.7309074 2.5131533 14
5.3794398 10.714452 3.2124622 6
1.1149164 2.2071598 -0.66257679 67
1.1979522 2.3684604 -0.61276674 27
1.3274417 2.6199305 -0.57090056 39
1.4666089 2.8908453 -0.51341796 31
1.6911153 3.3290505 -0.45847249 20
1.9637437 3.8607266 -0.37895316 20
2.3112726 4.5361257 -0.26680872 27
2.8017561 5.491643 -0.10761154 16
4.3966188 8.6962833 0.17009115 14
5.1391182 10.151706 0.59631598 23
5.2075572 10.273546 1.0076946 7
nan nan nan nan
5.1629972 10.154856 1.8043153 30
3.6046135 7.0805659 1.5444082 11
3.6834204 7.226006 1.8724927 19
4.9418073 9.6779633 2.9117146 6
1.1241157 2.1872952 -0.65895331 45
1.2233735 2.3773677 -0.61726576 46
1.3317547 2.5846567 -0.56517625 30
1.4889708 2.8860612 -0.51435655 20
1.7097582 3.3083453 -0.45725381 23
1.9833236 3.8327672 -0.37755868 28
2.3292298 4.4954619 -0.26534331 13
2.825285 5.443553 -0.10705306 16
4.516973 8.7853069 0.17242977 11
5.2181554 10.136022 0.5974673 20
5.1001678 9.8898649 0.97352958 5
3.5064621 6.7907395 0.93839401 18
4.9915833 9.6544762 1.721405 9
nan nan nan nan
4.9125867 9.4732876 2.4636641 38
4.9755249 9.5823765 2.8930793 38
1.1255585 2.1539099 -0.65118873 28
1.2277838 2.3465383 -0.611417 31
1.347945 2.5718179 -0.56441307 37
1.5090816 2.8755965 -0.51435655 22
1.7208037 3.2734869 -0.4540852 27
1.9988952 3.7976716 -0.37546691 18
2.3531101 4.4649553 -0.26450595 13
2.8156078 5.3335071 -0.10527291 16
4.0091615 7.6655679 0.15099822 1
5.223001 9.9737253 0.59003562 8
5.4467802 10.387812 1.0261717 16
3.5740924 6.8047581 0.94375628 28
5.0625405 9.6263857 1.7226565 1
nan nan nan nan
3.6693978 6.9566922 1.8158051 14
5.1343198 9.7216511 2.9458785 18
1.1373149 2.1389775 -0.64911819 34
1.2445438 2.3376923 -0.611417 38
1.3603257 2.55195 -0.5621233 30
1.5156639 2.8385861 -0.50966352 16
1.751104 3.275398 -0.45603511 31
2.0216 3.7765968 -0.37476969 16
2.3840542 4.4462433 -0.26440126 9
2.8262894 5.2643886 -0.10429558 15
4.4175625 8.3047371 0.16419223 11
5.2857847 9.9202309 0.58909357 8
5.4543896 10.223762 1.0137956 5
5.362114 10.038141 1.397354 8
5.1117249 9.5533361 1.7160863 15
nan nan nan nan
3.6653678 6.8330202 1.7901605 23
5.6207132 10.46066 3.1819215 7
1.1430306 2.1139925 -0.64394182 27
1.2561936 2.3203788 -0.60916752 29
1.380424 2.5456016 -0.56288654 21
1.5231906 2.8053677 -0.50559622 27
1.7616024 3.2404206 -0.45286649 22
2.0371387 3.7410362 -0.37267792 16
2.3997397 4.4014344 -0.26272655 9
2.8715966 5.2603264 -0.10460973 22
4.4340496 8.1937714 0.16262153 13
5.6003933 10.33615 0.61609894 17
3.7128897 6.8439946 0.68120927 10
3.7239578 6.8529711 0.95764935 55
nan nan nan nan
3.5388758 6.4961524 1.4379367 13
3.633894 6.659502 1.751469 40
5.3194036 9.7362537 2.9727957 16
1.175444 2.1381261 -0.65377688 33
1.2648447 2.2978947 -0.60556829 39
1.3848914 2.5118332 -0.55754393 32
1.53892 2.7877483 -0.50434476 25
1.7937846 3.2454169 -0.45530388 19
2.0554864 3.7127788 -0.37128347 16
2.416853 4.3601179 -0.26126111 14
2.894665 5.215672 -0.10412105 20
4.1662898 7.5721874 0.1508586 6
5.6059251 10.176091 0.60887659 8
5.3348694 9.6720743 0.96638286 10
3.8177853 6.9102097 0.96934885 31
nan nan nan nan
nan nan nan nan
3.7644348 6.7856336 1.7915102 31
5.0298476 9.0554399 2.7755756 24
1.1959971 2.139986 -0.65688276 31
1.2827594 2.2924097 -0.60646808 31
1.3937532 2.4866908 -0.55410933 23
1.5612435 2.7821052 -0.50528342 22
1.8105624 3.2224321 -0.45384148 28
2.0719175 3.6830742 -0.36971465 18
2.4491944 4.3466191 -0.26147047 8
2.9300241 5.1935945 -0.10408615 22
4.0189347 7.1851425 0.14370312 4
5.6904941 10.161103 0.61034197 2
5.8125 10.366226 1.039768 16
3.8464963 6.8487701 0.96447408 25
4.004549 7.1214519 1.294026 29
3.6995437 6.5709929 1.4657948 24
3.6765647 6.5221882 1.7285241 12
5.1803231 9.1748724 2.8231983 19
1.2042294 2.1198256 -0.65325934 45
1.2919891 2.2715404 -0.60331875 34
1.4048196 2.4669094 -0.55181968 28
1.5899301 2.7885733 -0.50841206 23
1.8241552 3.1941993 -0.45164782 26
2.0886788 3.6529527 -0.36814582 20
2.4489555 4.2778473 -0.25833032 8
2.9284098 5.1070938 -0.10275977 20
4.0973878 7.2097793 0.14475027 16
5.555059 9.7628012 0.5886749 8
4.0260787 7.0641994 0.71136516 10
5.6206303 9.8500252 1.3924793 13
3.8814423 6.7938719 1.239274 33
3.6887722 6.4461741 1.443661 6
3.79176 6.6181054 1.7609171 42
5.2513103 9.1544771 2.827857 14
1.2176641 2.1099069 -0.65274167 46
1.3191196 2.2829418 -0.60871756 33
1.4249566 2.4621401 -0.55296451 36
1.6113386 2.7808247 -0.50903779 17
1.8259323 3.1473675 -0.44677305 30
2.0951133 3.6055508 -0.36483395 22
2.4616868 4.2312984 -0.25655088 17
2.969146 5.0974083 -0.10296919 27
4.1016107 7.1013455 0.14314464 34
4.1173301 7.1199355 0.43103898 5
4.1130066 7.1038737 0.71816331 10
2.5662911 4.4253063 0.62811464 13
3.8920791 6.703402 1.2276978 21
3.6664548 6.307198 1.4180925 1
3.798645 6.5241113 1.7429209 10
5.4269738 9.3095274 2.8873854 19
1.2294315 2.0963559 -0.65118873 43
1.3330508 2.2703168 -0.60781777 24
1.4580348 2.4792087 -0.55907035 24
1.6026493 2.7218456 -0.50027746 23
1.8448362 3.1294131 -0.44604182 19
2.1080756 3.5702493 -0.36274219 22
2.4667716 4.1727471 -0.25403875 6
3.0026209 5.0731153 -0.10289939 18
4.1379323 7.0501165 0.14269088 24
4.1213989 7.0135326 0.42632878 5
2.582365 4.3892407 0.44554016 8
2.5840216 4.3850498 0.62494606 13
3.9297485 6.6607542 1.224882 7
4.0139427 6.7953205 1.5341043 40
3.8044081 6.4303451 1.7249248 42
3.8466473 6.4939785 2.0224121 8
1.2470036 2.0927005 -0.65274167 46
1.3428787 2.2509129 -0.60511833 18
1.4773214 2.4723399 -0.55983365 36
1.6205982 2.7088954 -0.49996459 26
1.8492985 3.087507 -0.44189829 20
2.1288495 3.5486112 -0.36204496 33
2.4814453 4.1314535 -0.25257334 4
3.0173545 5.0177555 -0.1022013 20
4.1471057 6.9540749 0.14132959 29
4.2511487 7.1200624 0.43459785 2
2.5270734 4.2274542 0.43089798 11
2.526876 4.2204309 0.60398453 15
4.0218568 6.7094007 1.2389611 12
nan nan nan nan
3.8482039 6.4019585 1.7244749 36
5.5763502 9.2659512 2.897738 2
1.2525798 2.0690696 -0.64808291 42
1.3454292 2.2198184 -0.59926963 23
1.4772253 2.4334366 -0.5533461 28
1.639469 2.6975164 -0.49996459 27
1.8656486 3.0660417 -0.44067958 20
2.1483872 3.5251558 -0.36117339 26
2.4925432 4.0850453 -0.25079393 14
3.0168676 4.9385471 -0.10101452 20
4.1758652 6.8924575 0.1406664 30
2.6403222 4.3528285 0.26680872 27
2.4293194 4.0002451 0.40945768 13
2.5387416 4.1738553 0.599841 16
3.7963316 6.2340617 1.1560508 7
4.1206903 6.7587318 1.5386838 19
3.936475 6.4464536 1.7438207 25
4.2261429 6.9126797 2.1709743 24
1.2599102 2.0487552 -0.64445943 25
1.3823493 2.2452195 -0.60871756 31
1.4849048 2.4080238 -0.54991156 24
1.6572248 2.6843233 -0.49965176 28
1.919363 3.1052885 -0.44823548 27
2.1660421 3.5002851 -0.36012751 26
2.5094256 4.048872 -0.24964255 12
3.0470543 4.9105687 -0.10087491 15
4.2081575 6.8375936 0.14014283 14
2.547013 4.1336451 0.25445744 11
2.3327043 3.7814009 0.38871458 21
2.5417337 4.113811 0.5937475 11
4.2533536 6.8760252 1.2805728 17
4.1047211 6.627985 1.5154052 25
3.9977207 6.4476647 1.751469 48
4.2620692 6.8633127 2.1647625 9
1.2762285 2.0431874 -0.64549476 36
1.3866231 2.21734 -0.60376865 29
1.4887583 2.377893 -0.54533213 16
1.6576217 2.6445277 -0.49433297 26
1.9198859 3.058188 -0.44336072 24
2.1840644 3.474957 -0.35908166 21
2.5177824 4.0012674 -0.24775843 16
3.0908582 4.9044023 -0.10118905 24
2.6311793 4.2107649 0.086668648 8
2.4395061 3.8994796 0.24105945 13
2.3579907 3.763334 0.3885403 15
2.5760059 4.1065044 0.59520996 23
4.0951943 6.5207114 1.2195632 35
3.9543734 6.2867427 1.443661 25
4.0540566 6.4377398 1.756418 23
5.650126 8.9618483 2.8387275 23
1.293211 2.0393465 -0.64704764 27
1.3891515 2.1881073 -0.59836984 27
1.515857 2.3840089 -0.54914832 19
1.6718004 2.6262255 -0.49308151 18
1.9523921 3.0634642 -0.44604182 15
2.1879022 3.4277165 -0.35576975 22
2.5273707 3.9549837 -0.24597903 20
3.1198571 4.876514 -0.10104944 22
2.4804995 3.9086435 0.080804639 12
2.4538155 3.8621252 0.23980337 10
2.356817 3.7051697 0.38418248 30
2.5843465 4.0566101 0.59057891 25
nan nan nan nan
4.0541329 6.3490314 1.4642683 36
4.0978546 6.4076362 1.755968 23
6.0208941 9.403758 2.9919484 14
1.3011403 2.0205238 -0.64394182 31
1.3980569 2.1685293 -0.59567046 41
1.5335296 2.3750167 -0.54952991 25
1.7008193 2.6310785 -0.49621019 22
1.9456909 3.0064282 -0.43970463 15
2.1998582 3.3939676 -0.35385233 19
2.5396988 3.9137869 -0.24451362 14
3.1037128 4.7774773 -0.099443816 4
2.4990604 3.8777843 0.080525406 13
2.4179149 3.7475607 0.2337324 18
2.3274932 3.6032722 0.37529263 20
2.5608461 3.9584677 0.57887942 12
6.7770166 10.463663 1.974516 9
nan nan nan nan
4.114893 6.3363781 1.7442706 44
5.7841845 8.8966599 2.8433859 29
1.3194436 2.0178585 -0.64601237 33
1.4174314 2.1652379 -0.59747005 20
1.5543777 2.370821 -0.55105644 21
1.7386562 2.6488669 -0.50184184 22
1.9731717 3.0027263 -0.44116706 20
2.2191193 3.3718684 -0.35315505 21
2.5471828 3.8659396 -0.24262951 14
2.6205835 3.9728134 -0.083073452 1
2.5151222 3.8435106 0.080176361 8
2.4286964 3.7072001 0.23226699 18
2.3471284 3.5786049 0.37442106 31
2.5797002 3.9272203 0.57692951 32
6.3115478 9.5974627 1.819333 25
4.0991983 6.2262187 1.4490036 15
4.1515169 6.2961106 1.7411213 21
5.8067713 8.7964125 2.8242335 19
1.3270876 1.9989413 -0.64290655 33
1.4303555 2.1520438 -0.59657025 37
1.5502216 2.3288598 -0.54380566 27
1.7636791 2.6465271 -0.50371903 20
2.0084088 3.010345 -0.44433567 13
2.2470315 3.3629215 -0.35385233 15
2.5596716 3.8264825 -0.24126878 16
2.5648015 3.8298073 -0.080455594 19
2.3936071 3.6026688 0.07549911 13
2.3859377 3.5870492 0.22577733 12
2.3808892 3.5753987 0.37581557 25
2.5420706 3.8116758 0.56254894 18
nan nan nan nan
4.2178454 6.3100705 1.4753352 21
4.1585126 6.2119155 1.7258246 46
6.6693029 9.9512167 3.2098739 22
1.3334516 1.9784147 -0.63928306 35
1.4442539 2.1403906 -0.5961203 25
1.5708393 2.3244872 -0.54533213 27
1.752226 2.5899744 -0.49527156 23
2.0316024 2.9995372 -0.44482315 13
2.2492034 3.3158243 -0.3505404 22
2.5459292 3.7490373 -0.23750059 16
2.5442545 3.7423534 -0.078989588 4
2.480202 3.6770511 0.077418879 17
2.3919206 3.5421665 0.22399792 27
2.3533468 3.4811118 0.36762294 16
2.5107474 3.7083595 0.54987448 23
6.367352 9.3939447 1.7974323 10
4.3874698 6.4656663 1.5188397 10
4.1502967 6.1069794 1.7046793 38
6.2050443 9.1201744 2.9557135 40
1.3450502 1.9658678 -0.63824779 35
1.45696 2.1270397 -0.59522051 33
1.5881385 2.3150837 -0.54571378 33
1.760199 2.563024 -0.49245578 26
2.0378716 2.9640169 -0.44165453 17
2.2824669 3.31481 -0.35210916 14
2.5573044 3.7097948 -0.23613985 14
2.6225657 3.8002076 -0.08059521 5
2.478698 3.6200466 0.076581158 15
2.38836 3.4841964 0.22138111 26
2.3956296 3.4908814 0.37041187 21
2.544446 3.7021925 0.55158067 12
6.5402718 9.5054893 1.8274676 3
4.2944007 6.2343969 1.471519 41
4.327836 6.2735515 1.7595673 34
6.1851339 8.9558201 2.9163733 22
1.3587418 1.9564295 -0.63824779 41
1.4684365 2.1120162 -0.59387082 41
1.5919226 2.2862165 -0.54151595 37
1.7859578 2.5620158 -0.49464583 23
2.0403397 2.9236708 -0.43775472 16
2.2810147 3.2648985 -0.34844866 9
2.5774148 3.68367 -0.23561651 24
2.5847838 3.6900876 -0.078640543 3
2.5004849 3.597729 0.076476447 18
2.3784027 3.4182556 0.21824095 26
2.3527517 3.3776164 0.36012751 23
2.553194 3.6599176 0.54792464 12
3.1115236 4.4552917 0.86070251 3
4.5538116 6.5131903 1.5447898 23
4.5514665 6.502584 1.8324515 38
6.2530465 8.9203348 2.9189613 20
1.3723661 1.9468967 -0.63824779 35
1.4865153 2.1064906 -0.59522051 33
1.6029155 2.2689147 -0.53998947 25
1.8010732 2.5465753 -0.4940201 23
2.0423427 2.8834367 -0.43385491 20
2.3025999 3.2472692 -0.34827435 11
2.5769958 3.6302094 -0.23331371 20
2.8885651 4.0631046 -0.087017693 3
2.4649928 3.4956439 0.074661396 33
2.3797312 3.3709846 0.21625218 16
2.360172 3.3383327 0.35768715 23
2.5505219 3.6035678 0.54207492 15
3.0264306 4.2712188 0.82910275 24
4.5457687 6.4059906 1.5268538 14
4.5177507 6.3594437 1.8009583 27
nan nan nan nan
1.3822162 1.9327955 -0.63669485 31
1.5030891 2.0994916 -0.5961203 38
1.6255803 2.2672422 -0.54227924 41
1.8176558 2.5323343 -0.49370724 25
2.0596044 2.8662448 -0.43336743 23
2.3037057 3.202409 -0.34513673 11
2.6022768 3.6121302 -0.23331371 22
2.5687428 3.5616498 -0.07665097 6
2.4253268 3.3889122 0.072741628 22
2.3717988 3.3104534 0.21342604 27
2.3840022 3.3238094 0.35786149 23
2.5860417 3.6001828 0.54426849 11
3.0457959 4.2355523 0.82628691 13
4.3174243 5.9972792 1.4364102 31
4.6327138 6.4281445 1.829302 8
6.3143911 8.748682 2.8910089 34
1.3797895 1.9012105 -0.62944794 40
1.5211449 2.0936773 -0.59747005 39
1.6479039 2.2656507 -0.5445689 24
1.829037 2.5119188 -0.49214289 22
2.0807352 2.8533993 -0.43361115 16
2.3154354 3.1717639 -0.34356794 17
2.643302 3.616909 -0.23477912 15
2.8179395 3.8502297 -0.083282888 10
2.5070796 3.4532347 0.074486867 11
2.3978002 3.2990794 0.21374007 34
2.3872159 3.2797 0.35489815 18
2.5532024 3.503885 0.53232533 11
2.9267054 4.0120468 0.78655261 15
4.6081848 6.307827 1.518458 33
7.6558328 10.468033 2.9940987 42
nan nan nan nan
1.3827183 1.8775314 -0.62478918 26
1.5230039 2.065753 -0.59252113 30
1.6617421 2.2506418 -0.54380566 24
1.838747 2.4876456 -0.4899528 20
2.0864356 2.8196547 -0.4306863 13
2.3304064 3.145916 -0.34252208 17
2.6512668 3.5738404 -0.23320904 22
2.8864818 3.8866501 -0.084504552 17
2.4652894 3.3450601 0.072532199 27
2.4035602 3.2577293 0.21216999 11
2.3946662 3.24212 0.35263211 35
2.6018202 3.5174439 0.53720009 13
2.855418 3.8560624 0.75995874 16
4.772531 6.4379516 1.5577648 20
nan nan nan nan
3.5630958 4.7942142 1.6005371 20
1.3726641 1.8368826 -0.61443645 48
1.5385559 2.0566304 -0.59297103 39
1.6829076 2.2471356 -0.54571378 34
1.8449715 2.4608483 -0.48713696 32
2.0953414 2.7907341 -0.42849267 20
2.3343539 3.1056812 -0.33990738 16
2.6238928 3.4870877 -0.22870816 18
2.583801 3.4288185 -0.074940629 8
2.5358932 3.392267 0.073928393 12
2.3766148 3.1757317 0.20787844 27
nan nan nan nan
2.5732853 3.429785 0.52647561 18
3.0488739 4.0592408 0.80407327 10
4.555367 6.0561681 1.4730455 16
4.6690211 6.2005062 1.7919602 17
nan nan nan nan
1.3874693 1.8305757 -0.61547172 50
1.5501634 2.0430052 -0.59207124 21
1.6854876 2.218138 -0.54151595 42
1.8489499 2.4306149 -0.48369545 26
2.0950449 2.7511389 -0.42459282 15
2.3397381 3.0691206 -0.33764133 13
2.6445374 3.463922 -0.22839414 22
2.5670071 3.3587224 -0.073788777 13
2.4084568 3.1753261 0.069565296 23
2.376987 3.1304305 0.20599434 21
2.4427571 3.2135532 0.35315505 32
2.5394506 3.3359215 0.51477611 22
3.1501734 4.133698 0.8231582 10
4.7024655 6.163939 1.5070095 20
nan nan nan nan
nan nan nan nan
1.3943272 1.8131876 -0.61288351 33
1.5596334 2.0259566 -0.59027159 42
1.6969528 2.2019479 -0.54037106 39
1.8678662 2.4211001 -0.48432118 26
2.1239109 2.7490115 -0.42654276 26
2.347698 3.0353763 -0.33572391 14
2.6986232 3.485321 -0.23101093 16
2.6001961 3.3533621 -0.074068017 13
2.5178027 3.2729766 0.072078437 23
2.4457662 3.1758924 0.21007656 15
2.4091606 3.1238482 0.34513673 25
2.5184252 3.2619936 0.50600159 23
2.9475105 3.8136337 0.76340026 28
5.0181618 6.4833851 1.5936368 39
4.7731657 6.1601877 1.7991586 2
7.2510929 9.3480568 3.1700156 1
1.432773 1.8371694 -0.62427157 23
1.5745859 2.0168302 -0.59072149 43
1.7171199 2.1962347 -0.54189759 32
1.8859406 2.4095566 -0.48463401 23
2.1320295 2.7200558 -0.42434907 16
2.3479228 2.9922657 -0.3327606 19
2.7130196 3.4538314 -0.23017356 16
2.5271075 3.2125354 -0.071345441 25
2.4962997 3.1985679 0.070821866 20
2.4518933 3.1382799 0.20871581 8
2.3910909 3.0571558 0.33955875 20
2.5558269 3.2630839 0.50892639 17
2.9740629 3.7929633 0.76340026 18
4.8996181 6.2397389 1.5421184 10
7.3752255 9.3823471 2.7552006 2
7.2433028 9.2045994 3.1384399 1
1.441087 1.8208103 -0.62220097 44
1.5853471 2.0009289 -0.5893718 31
1.7324108 2.1841934 -0.54189759 32
1.8576756 2.3387678 -0.4730579 20
2.1497316 2.7035513 -0.42410538 31
2.3699965 2.9773602 -0.33293492 17
2.6554978 3.3312521 -0.22326522 16
2.8787599 3.6074519 -0.080560312 19
2.4887767 3.1434364 0.069984153 16
2.5574257 3.2255108 0.21572883 4
2.3844171 3.0040743 0.33554959 13
2.5785453 3.2451615 0.50892639 22
2.9752977 3.7391257 0.75683004 12
4.9699683 6.2391672 1.550514 7
7.3542833 9.2224531 2.7232578 2
7.253531 9.0830917 3.1146286 5
1.4489257 1.8046798 -0.62013048 52
1.5931735 1.9822177 -0.58712232 33
1.746765 2.1702111 -0.54151595 38
1.896266 2.35343 -0.47868952 22
2.1511042 2.666847 -0.42069301 35
2.3962491 2.9665241 -0.33363217 16
2.7012947 3.3405867 -0.2251493 22
2.8472567 3.5173242 -0.078989588 11
2.4798968 3.0865741 0.069111533 13
2.5560982 3.1780078 0.21374007 9
2.4465656 3.0385666 0.34130189 21
2.5830109 3.2034473 0.50527036 23
2.9703124 3.6798339 0.7490083 13
5.1293955 6.347856 1.586386 9
7.3636961 9.0999098 2.7025623 2
7.342298 9.0637569 3.1254988 3
1.4749098 1.8109969 -0.62582451 41
1.606974 1.9710462 -0.58712232 34
1.7643569 2.1610053 -0.54227924 38
1.9088994 2.3355458 -0.47775093 23
2.1658986 2.6471553 -0.41996178 13
2.4042718 2.9343126 -0.33188906 16
2.7346821 3.3340023 -0.22598669 22
2.7308822 3.3258169 -0.075115159 19
2.524123 3.0970888 0.069739819 14
2.4355478 2.9852142 0.20191215 11
2.5307341 3.0985692 0.35001746 12
2.5927444 3.1699708 0.50283301 18
2.9108329 3.5550759 0.72773325 33
5.3353782 6.5092807 1.6359965 3
7.4505424 9.0768957 2.7111104 10
3.6229804 4.4091187 1.529103 13
1.4752123 1.7857627 -0.62064809 50
1.6107591 1.9477661 -0.58352309 30
1.7794015 2.1486342 -0.54227924 36
1.9365059 2.3358479 -0.48056671 26
2.1729181 2.6182213 -0.41776815 12
2.4000001 2.8887608 -0.32857716 16
2.7361755 3.2887282 -0.22420727 13
2.6798084 3.2175503 -0.07309068 19
2.5342162 3.0655203 0.069425672 13
2.4155815 2.9188998 0.19856264 17
2.5624731 3.0931001 0.35141194 10
2.6300201 3.1701269 0.50575781 15
2.8724756 3.4586871 0.71208972 16
7.5620828 9.0956507 2.2992485 6
7.5308495 9.0484419 2.7178588 18
7.4223738 8.905447 3.1063464 35
1.4789581 1.7650552 -0.6170246 26
1.6230655 1.9349803 -0.58307314 36
1.7838846 2.1244452 -0.53922629 42
1.937107 2.3044677 -0.4768123 21
2.1885858 2.5999513 -0.41728067 15
2.4111204 2.8612714 -0.32735696 16
2.7469075 3.2562876 -0.22326522 13
2.7847965 3.2965274 -0.07532458 24
2.5768619 3.0742524 0.070019051 21
2.4751918 2.9498196 0.20180747 12
2.5237625 3.0034432 0.34321931 7
2.6694288 3.1734176 0.50917011 12
3.0142856 3.5795774 0.74118662 16
7.6380544 9.0576448 2.3030648 48
7.6504025 9.0626554 2.7381046 42
7.3980241 8.754385 3.0711467 22
1.5084494 1.7755591 -0.62427157 22
1.6311488 1.9179497 -0.58127356 29
1.7744867 2.0835412 -0.53197551 22
1.9377687 2.2728496 -0.4730579 30
2.2113872 2.5910332 -0.41825563 5
2.4240696 2.837219 -0.32648543 15
2.7449031 3.2081966 -0.22127645 21
2.6341603 3.0755012 -0.07068225 16
2.4506032 2.8825059 0.066039905 28
2.4491246 2.877712 0.19803928 11
2.5325189 2.9725454 0.34165049 20
2.6580181 3.1154418 0.50283301 32
2.9955816 3.5073769 0.73054904 13
7.7531147 9.0681162 2.3190925 27
3.6912262 4.3127193 1.3105649 14
7.3948483 8.6277142 3.0447474 31
1.5182865 1.762058 -0.6232363 15
1.6394078 1.900613 -0.57947397 31
1.8001757 2.0847878 -0.53541011 23
1.9544866 2.2611015 -0.47337076 47
2.2177296 2.5620241 -0.416062 11
2.4294658 2.8036637 -0.32456797 16
2.7614422 3.1834037 -0.22085775 17
2.6149139 3.010237 -0.069600195 20
2.5041111 2.9051411 0.06694743 19
2.5260651 2.9275103 0.20264484 16
2.5063136 2.9005208 0.33537531 12
2.6778636 3.0957754 0.50258923 12
3.2405059 3.7422628 0.78404963 15
nan nan nan nan
3.650984 4.2059054 1.2858202 17
7.3811717 8.4940643 3.0152421 41
1.5149926 1.7342244 -0.6170246 14
1.6497401 1.8864765 -0.57857412 31
1.8004586 2.0559227 -0.53121227 29
1.9897573 2.2696824 -0.47806379 22
2.2233326 2.5334406 -0.41386834 12
2.4437187 2.7806482 -0.32387072 13
2.8020687 3.1850412 -0.22232316 17
2.680279 3.0433917 -0.07078696 13
2.4927459 2.8514545 0.066109717 24
2.567488 2.9338503 0.2043196 7
2.4774218 2.8279438 0.32892576 29
2.7439198 3.127743 0.51087636 6
3.1244707 3.5577664 0.74994689 16
7.9849973 9.0827379 2.3507669 2
3.8862908 4.4143414 1.3578047 11
2.8675458 3.2537379 1.1620976 26
1.5142518 1.7091457 -0.61184824 19
1.6732155 1.8865761 -0.58217335 27
1.8212852 2.0506437 -0.53312039 41
2.0094905 2.2601655 -0.47900239 17
2.2224874 2.4970987 -0.410456 12
2.4617462 2.7620327 -0.32369643 12
2.8455112 3.1892464 -0.22399792 22
2.5922298 2.9023087 -0.067924768 19
2.5019794 2.8220119 0.065830477 22
2.443398 2.7530324 0.19291034 11
2.5196006 2.8358996 0.33188906 12
2.6640878 2.9943125 0.49210843 23
3.0047138 3.3736019 0.71553135 9
3.7405899 4.1953969 1.0925723 3
8.6270304 9.6623869 2.9904995 2
2.9416857 3.291256 1.182803 4
1.5313127 1.70428 -0.61391884 20
1.6863453 1.8748487 -0.58217335 31
1.8289874 2.0305848 -0.53121227 27
1.9934734 2.2108722 -0.47149354 32
2.2252364 2.4653113 -0.40777487 19
2.4742873 2.73739 -0.32282487 16
2.8422444 3.141166 -0.22200914 19
2.5949755 2.8648748 -0.067471005 19
2.5924804 2.8832884 0.067680433 13
2.5093231 2.7878656 0.19657388 3
2.5246661 2.80196 0.32997164 12
2.7447698 3.0419629 0.50307667 16
3.1367681 3.4727478 0.74118662 18
8.7601814 9.6882839 2.5389047 2
3.0254059 3.3412426 1.0406237 9
7.5392766 8.3175812 3.0079951 30
1.5522807 1.7035441 -0.61754227 23
1.6928258 1.8558323 -0.57992387 51
1.8245827 1.997472 -0.52586961 28
2.0035284 2.1910689 -0.47024205 30
2.2504354 2.4585018 -0.4092373 13
2.4960303 2.7229867 -0.32317349 13
2.8533018 3.1094742 -0.22117178 10
2.5878584 2.817234 -0.066772908 27
2.5546095 2.8015811 0.066179529 19
2.4937158 2.731926 0.19385241 8
2.5347576 2.7739701 0.32875144 11
2.7163551 2.9685414 0.49405837 27
5.063632 5.5279255 1.1873378 1
3.0570858 3.333889 0.8792479 1
nan nan nan nan
3.2161443 3.4987562 1.2733897 4
1.5706915 1.69976 -0.62013048 28
1.7004476 1.8382468 -0.57812428 23
1.8584948 2.0062902 -0.53159386 42
2.0013142 2.1581995 -0.46617478 18
2.2486355 2.4223638 -0.40582496 13
2.5027721 2.6923602 -0.32160467 19
2.879024 3.0938637 -0.22148579 21
2.5979223 2.7888563 -0.066528574 31
2.6229813 2.8365328 0.067436099 11
2.6117711 2.821445 0.20149344 5
2.4809353 2.67729 0.31933865 31
2.7073071 2.9174931 0.48869613 16
3.1553707 3.3967741 0.73430347 13
3.2126422 3.4547977 0.91702807 5
3.2523742 3.4926324 1.1018103 26
3.3340185 3.5765479 1.310142 37
1.5745938 1.680295 -0.6170246 33
1.7065734 1.8192244 -0.57587475 22
1.8617027 1.9818194 -0.52854097 34
1.9892675 2.1153941 -0.45991737 9
2.2668526 2.4080515 -0.40606871 12
2.5242395 2.6777229 -0.32195333 31
2.8279018 2.9967012 -0.21593818 19
2.824683 2.9901524 -0.071799204 21
2.6016841 2.7743917 0.066388957 11
2.508378 2.6720867 0.19207297 11
2.5841568 2.7499242 0.33014596 12
2.6310205 2.7958806 0.47139066 12
5.0102892 5.3186522 1.1573023 14
nan nan nan nan
3.3315349 3.5279319 1.1202563 9
3.0178387 3.1923931 1.1771091 8
1.5716468 1.6538579 -0.61133063 41
1.7058008 1.7931466 -0.57137573 24
1.8646598 1.957402 -0.52548802 41
2.0080769 2.1057434 -0.46085599 12
2.2781258 2.3864236 -0.40509373 17
2.531858 2.6485133 -0.32055882 15
2.8901792 3.0201769 -0.21907835 33
2.703006 2.8216259 -0.068204008 15
2.558979 2.6909523 0.064818241 20
2.5104465 2.6371505 0.19081691 38
2.562057 2.6885457 0.3249166 19
2.6093614 2.7343609 0.46407849 18
4.951786 5.1835561 1.1354015 10
nan nan nan nan
3.2981267 3.4440663 1.1009105 13
nan nan nan nan
1.5898581 1.6498001 -0.61391884 25
1.7277486 1.7910118 -0.57452506 34
1.893283 1.9598694 -0.5296858 15
2.015862 2.0845742 -0.45929164 10
2.2864478 2.3619025 -0.4036313 15
2.5336449 2.6136067 -0.31846708 12
2.8472109 2.9339933 -0.21426344 42
2.9302504 3.0164025 -0.073404826 7
2.9094589 3.0170455 0.073160492 27
2.5565395 2.6482992 0.19291034 12
2.5613809 2.6505356 0.32247624 9
2.5883541 2.6747086 0.45701009 14
3.1749616 3.2774513 0.72272736 24
3.1735835 3.2725987 0.88611698 18
3.1999066 3.2951338 1.0604193 4
3.1469533 3.2372119 1.2097203 16
1.5918856 1.6289887 -0.6102953 28
1.7129555 1.7510456 -0.56552702 48
1.8643308 1.9031274 -0.51785564 32
2.0220683 2.0619864 -0.45741442 9
2.3042705 2.3473003 -0.40387502 9
2.5392578 2.5830686 -0.31689829 21
2.8578174 2.9040816 -0.21353073 31
2.7926607 2.8348942 -0.069460578 22
2.6004946 2.659251 0.064922951 28
2.5861418 2.6418056 0.19374773 21
2.8656936 2.92431 0.35821009 8
2.7696385 2.8223436 0.48552752 12
3.0814824 3.1368349 0.6964463 9
nan nan nan nan
3.2132602 3.2629962 1.0572701 39
3.0881021 3.1326187 1.1786621 12
1.5977793 1.6123476 -0.60822481 28
1.7429789 1.7570302 -0.57137573 27
1.8983259 1.9109577 -0.5235799 34
2.0252714 2.0366142 -0.4549115 9
2.3107984 2.3213084 -0.40216887 6
2.5459774 2.5539887 -0.31550378 18
2.8554504 2.8614378 -0.21185598 15
2.8533669 2.8563571 -0.070472814 16
2.6105478 2.6325119 0.064713523 13
2.5637167 2.5825808 0.19071224 22
2.6739762 2.69083 0.33188906 29
2.8144774 2.8282681 0.48991477 40
nan nan nan nan
nan nan nan nan
3.3681543 3.3728611 1.1004606 11
3.0812149 3.0822914 1.1677916 22
1.6240597 1.6161433 -0.61391884 24
1.7593489 1.7489407 -0.57272542 24
1.8990798 1.8852111 -0.52014536 27
2.0478549 2.030772 -0.45678869 9
2.3015618 2.2799735 -0.39778158 5
2.5736606 2.5459604 -0.31672394 9
2.8995082 2.865299 -0.2136354 42
2.7437365 2.7085271 -0.067296483 22
2.6175201 2.602941 0.064434282 13
2.6001055 2.582917 0.19207297 16
2.7591655 2.7380571 0.34008169 10
2.7354522 2.7107401 0.47285309 12
3.2723827 3.2394261 0.72929758 28
3.202337 3.1667647 0.87543172 22
nan nan nan nan
3.6500247 3.6006703 1.3738115 13
1.6215143 1.5912347 -0.60874242 40
1.7743001 1.7393432 -0.57362527 33
1.9135978 1.8732804 -0.52052695 29
2.0648069 2.0191879 -0.45741442 9
2.325943 2.2721732 -0.39924401 4
2.0380135 1.9881196 -0.2490911 11
2.9966822 2.9202578 -0.21928766 22
2.7038307 2.6321166 -0.065865383 19
2.659899 2.608407 0.065027662 9
2.6366205 2.5828726 0.1934337 11
2.6571724 2.600281 0.32526523 11
2.7713485 2.7082248 0.47577798 13
3.0517943 2.979161 0.67548412 12
3.2763734 3.1950462 0.88955158 15
nan nan nan nan
3.1170259 3.0322368 1.1652035 12
1.6295321 1.5774732 -0.60770714 40
1.7804941 1.7218076 -0.57182562 30
1.9432523 1.8765761 -0.52510637 34
2.0685527 1.9954852 -0.45522434 7
2.3199153 2.235625 -0.39558792 11
1.9912032 1.9161772 -0.24177003 9
2.9963326 2.8804147 -0.21782227 12
2.7433195 2.6344275 -0.066388957 16
2.6574707 2.5707762 0.064539 28
2.6469595 2.5579264 0.19291034 10
2.58307 2.493572 0.3141093 14
2.8111546 2.709965 0.47943404 12
3.4661388 3.3378732 0.7621488 33
3.3574684 3.2298379 0.90557957 9
3.5766046 3.4358363 1.1450009 29
3.6170847 3.4710836 1.3432709 28
1.6307236 1.556721 -0.60408366 30
1.7783682 1.6958867 -0.56732661 30
1.9392444 1.8467181 -0.52052695 19
2.0724139 1.9714659 -0.45303425 14
2.3469772 2.2303154 -0.39753783 15
2.5811784 2.4494457 -0.3113203 24
2.9236021 2.7714863 -0.21112327 22
2.9170053 2.7623341 -0.070123769 10
2.6739075 2.5507791 0.064504094 23
2.6618621 2.536628 0.19270101 22
2.6408229 2.5139415 0.31898999 31
2.7408032 2.6054757 0.46432224 15
3.3518453 3.1830087 0.73211342 18
3.2175612 3.0522864 0.86207509 6
3.7193406 3.5233612 1.1827928 14
3.0813625 2.9159403 1.1367333 2
1.6542108 1.5572164 -0.60874242 26
1.7901636 1.6834309 -0.56732661 33
1.954952 1.8358225 -0.52129018 21
2.0688386 1.9407318 -0.44927984 9
2.361042 2.2125187 -0.3972941 13
2.6021535 2.4359052 -0.31184325 25
2.9180744 2.7278225 -0.20934384 43
2.9888327 2.7910368 -0.07138034 28
2.7819533 2.6170008 0.06666819 6
2.6940596 2.5316613 0.19374773 3
2.7207711 2.5540814 0.32648543 19
2.7849958 2.610714 0.46870953 18
3.2499857 3.0434098 0.70520669 31
3.7147908 3.4750226 0.98877227 11
3.5823462 3.3476112 1.1319537 9
3.1058819 2.8983111 1.1382862 26
1.6593792 1.540372 -0.60667187 26
1.810447 1.6788416 -0.57002604 48
1.9357167 1.7931213 -0.51289463 41
1.9979088 1.8487892 -0.43113342 19
2.3793466 2.1986761 -0.39778158 15
2.6176322 2.4163282 -0.31166893 24
2.9541955 2.724143 -0.21059991 31
2.9038022 2.673928 -0.068902098 15
2.7909062 2.589844 0.066458762 38
2.7478471 2.5472107 0.19636452 8
2.7999442 2.5918696 0.33380648 6
2.8012431 2.5903499 0.46846578 14
3.3373723 3.0828764 0.71959865 12
3.5960963 3.3172219 0.95099211 17
3.1542082 2.9065464 0.99023467 9
3.4225996 3.1505523 1.2464726 10
1.6598517 1.5199096 -0.60304838 28
1.803139 1.6493815 -0.56417727 27
1.9583347 1.7888322 -0.51556593 29
2.1114511 1.9266689 -0.45272139 10
2.3942575 2.1824293 -0.39778158 12
2.6668522 2.4275002 -0.31550378 13
2.9716625 2.7021101 -0.21049525 35
3.1942945 2.9014938 -0.07532458 9
2.7912154 2.5540974 0.066039905 5
2.6859584 2.4551971 0.19071224 35
2.9028566 2.6506722 0.34391654 36
2.7855217 2.5399673 0.46285981 13
3.6552651 3.329536 0.78311098 13
3.6723199 3.3415549 0.96511191 28
3.8421912 3.491226 1.1985393 11
3.155561 2.8643012 1.1419097 20
1.653216 1.4927486 -0.59683669 30
1.8131627 1.6354477 -0.56372738 34
1.9605641 1.7659194 -0.51289463 24
2.1204453 1.9079176 -0.45178279 9
2.4123881 2.1683149 -0.39826906 12
2.7000444 2.4234624 -0.3174212 4
3.0053251 2.6946316 -0.21154197 19
2.9180503 2.6136246 -0.06837853 13
2.9381452 2.6510937 0.069076627 12
2.6822636 2.417665 0.18924683 25
2.6562574 2.3917046 0.31271479 12
2.779567 2.4992242 0.45896 20
3.1023359 2.7865002 0.66046637 15
3.5012097 3.1414564 0.91435677 28
3.2394755 2.9025364 1.0041816 28
nan nan nan nan
1.6520553 1.4708929 -0.59269565 30
1.8201684 1.6188633 -0.56237763 26
1.9566973 1.7378494 -0.50869679 30
2.1278019 1.8878247 -0.4505313 9
2.4170668 2.1422052 -0.39656287 19
2.7049615 2.3939898 -0.31602672 3
3.045012 2.6921048 -0.21300736 17
3.0021746 2.6514332 -0.069914341 19
2.8325815 2.5201924 0.066179529 7
2.7319193 2.4280703 0.19154961 7
2.7593045 2.4498246 0.32282487 14
2.8236847 2.5034614 0.46334729 14
3.3006465 2.9232473 0.69832355 24
3.3274937 2.9439178 0.86360151 37
3.861352 3.4114363 1.1895412 24
3.8093817 3.361969 1.3613882 1
1.681157 1.4758923 -0.59942496 40
1.8182397 1.5945529 -0.55832857 34
1.9717358 1.7267332 -0.50946003 16
2.1186292 1.8534132 -0.44583827 11
2.42748 2.1213586 -0.39583167 17
2.7456264 2.3960085 -0.31881571 9
3.0592146 2.6668453 -0.21269335 52
3.2241962 2.8076975 -0.07462649 13
3.2379363 2.8405952 0.075184964 11
2.805882 2.4589617 0.19552715 11
2.7613482 2.4173794 0.32108176 11
2.754411 2.4079094 0.44921044 12
3.3983445 2.9676993 0.71459275 37
nan nan nan nan
nan nan nan nan
1.9324105 1.6815963 0.68638813 6
1.6972613 1.4691778 -0.6014955 25
1.8366971 1.5881943 -0.56057805 35
1.9718558 1.7026602 -0.50640708 13
2.1195502 1.8282553 -0.44333532 12
2.4467423 2.1082473 -0.39656287 11
2.728652 2.3486683 -0.31498083 12
3.1080523 2.6714592 -0.21478678 17
3.1344836 2.6913257 -0.072113343 13
2.9673097 2.5667417 0.068483248 27
2.8471601 2.4602065 0.19720189 7
2.7751408 2.3954384 0.32073313 16
2.8628731 2.4676819 0.46407849 10
3.1630044 2.7234976 0.66109216 15
3.3221312 2.857486 0.85177141 1
1.9628791 1.6865565 0.59747005 10
1.9514339 1.6743543 0.68897635 5
1.6898438 1.4422435 -0.59528387 26
1.849223 1.5765973 -0.561028 31
1.9714417 1.6790161 -0.50335413 10
2.1214132 1.8048265 -0.44114524 13
2.4568615 2.0872598 -0.39583167 12
2.7282715 2.3153818 -0.31306344 12
3.2251887 2.7341933 -0.22159046 15
3.3546596 2.8399284 -0.076720782 9
3.0060098 2.5646548 0.06897191 11
2.7954364 2.3824708 0.19249167 3
2.7538652 2.3437219 0.31637534 40
3.1321757 2.6628623 0.50478286 11
nan nan nan nan
2.0049002 1.7002802 0.51098651 7
1.9865007 1.682889 0.60106927 5
1.9745823 1.6710172 0.69311744 9
1.6996217 1.4307076 -0.59528387 33
1.8688607 1.5714986 -0.56372738 56
1.9740946 1.6576372 -0.50106448 12
2.1475823 1.8013977 -0.44396105 11
2.1940882 1.8384506 -0.35147122 23
2.7336729 2.2873282 -0.31184325 21
3.192095 2.6680608 -0.21803163 21
2.9072735 2.427413 -0.066109717 12
2.8386767 2.3878491 0.064748429 9
2.8594031 2.4027283 0.1957365 30
2.7804363 2.3338909 0.31759554 21
nan nan nan nan
2.015873 1.6879247 0.4164286 8
2.0104034 1.6815554 0.50946003 5
2.0071757 1.676474 0.60376865 7
1.9773008 1.6497644 0.69001162 9
1.7155147 1.4237421 -0.59735435 27
1.8557829 1.5385134 -0.55652899 32
1.9765453 1.6363033 -0.49877474 10
2.1235716 1.7561475 -0.43645221 27
2.4716327 2.0418084 -0.39363801 9
2.7587965 2.275795 -0.3128891 19
3.216809 2.6507912 -0.21845031 17
2.9534836 2.4312043 -0.066772908 15
3.09232 2.5645597 0.070123769 18
2.8345807 2.3483045 0.19291034 32
nan nan nan nan
2.0259876 1.6742573 0.32271007 8
2.0367477 1.6813554 0.41830578 6
2.0281527 1.6724755 0.51098651 8
2.0173259 1.6611826 0.60331875 6
1.9828016 1.6310121 0.68794107 5
1.7164414 1.4043907 -0.59424853 38
1.8619517 1.5218203 -0.55517924 25
1.9955256 1.6286713 -0.50068283 9
2.1449661 1.7487687 -0.4383294 25
2.2441709 1.8276941 -0.35537103 13
2.6536725 2.1588898 -0.29929283 4
3.1964822 2.5967853 -0.2158335 19
2.9517529 2.3954034 -0.066354051 17
2.9259229 2.3922849 0.0659701 22
nan nan nan nan
2.0609341 1.6814575 0.23270583 7
2.0499384 1.6701028 0.32465994 6
2.0591609 1.6758236 0.4204959 7
2.0336859 1.6533215 0.50946003 5
2.0134592 1.6351277 0.59881973 6
1.9911387 1.614696 0.68690574 4
1.7216927 1.3887359 -0.59269565 30
1.8710124 1.5075625 -0.55472934 15
1.9928002 1.6039726 -0.49724829 10
2.1552796 1.7328911 -0.43801656 24
2.2197256 1.7821553 -0.34952128 17
2.8132267 2.2562392 -0.31550378 13
2.171299 1.7395389 -0.14580798 1
2.1189494 1.6951716 -0.047365833 6
2.0953016 1.6894876 0.046981879 8
2.0578566 1.6575178 0.13848096 5
2.0881486 1.6795146 0.23444894 7
2.0689967 1.6623273 0.32587865 9
2.0597363 1.6531132 0.41830578 5
2.0390501 1.6341735 0.50793356 5
2.0263474 1.6222481 0.59926963 5
3.3810635 2.7038999 1.160027 1
1.7235469 1.3709705 -0.5901075 26
1.8858087 1.498428 -0.55607903 38
1.9947225 1.5826985 -0.49495855 10
2.1781626 1.7263902 -0.44020665 43
2.1928961 1.7361993 -0.34342784 37
2.8492265 2.2526093 -0.31776983 4
2.1520417 1.699582 -0.14371455 10
2.1225886 1.6745175 -0.047191311 5
2.1039138 1.672331 0.04691207 4
2.0944037 1.6629832 0.1401557 6
2.1057758 1.6702158 0.23514619 9
2.0898883 1.6552376 0.32734108 6
2.0572846 1.6276624 0.41549 7
2.050127 1.6202552 0.50793356 8
3.5964344 2.8382554 1.0577199 9
nan nan nan nan
1.7193931 1.3481772 -0.58544868 20
1.8916204 1.4816221 -0.55472934 43
2.0196412 1.5796198 -0.49839315 10
2.165256 1.6916831 -0.43520072 31
2.1987042 1.7159625 -0.34245288 55
2.1624143 1.6852125 -0.23985259 7
2.1622794 1.6832886 -0.14360988 5
2.1484349 1.6707051 -0.04750545 8
2.1249819 1.6650021 0.047121495 7
2.1138268 1.6544762 0.14067906 6
2.0938406 1.637066 0.23253153 6
2.0826159 1.6259488 0.32441622 8
2.0795007 1.621765 0.41768005 7
nan nan nan nan
3.4115896 2.6539381 0.99788296 52
3.6900115 2.8674276 1.2521666 15
1.7409915 1.3455917 -0.58958983 21
1.8834081 1.4540892 -0.54933053 26
2.0321739 1.5666811 -0.49877474 10
2.1676223 1.669295 -0.43332353 27
nan nan nan nan
2.1848927 1.6789533 -0.24107277 5
2.18507 1.6766629 -0.14434259 8
2.1679819 1.6617481 -0.047679976 7
2.1333895 1.6476809 0.047051687 6
2.1142569 1.6311374 0.13994636 5
2.103641 1.6211913 0.2323572 9
2.0829043 1.6028954 0.32271007 1
3.1823585 2.4463265 0.63574976 51
3.952013 3.0346813 0.96854651 27
3.6151233 2.7729819 1.0518712 60
3.3648646 2.5772893 1.135698 41
1.7441962 1.3287218 -0.58751929 15
1.8873103 1.4361845 -0.54753089 31
2.039665 1.5504361 -0.4980115 15
2.207253 1.6760043 -0.43895519 6
2.2271931 1.6886953 -0.34318411 7
2.2060905 1.6708765 -0.24211864 6
2.1948385 1.6605468 -0.14423791 5
2.1635747 1.6345183 -0.047330927 5
2.1350093 1.6258529 0.046842258 6
2.1030552 1.5997804 0.13848096 4
nan nan nan nan
2.9746032 2.2570298 0.45847249 18
3.2020853 2.426995 0.63637549 34
3.591135 2.7179244 0.87543172 46
3.5908701 2.7147682 1.039274 37
3.4100792 2.5752816 1.1450155 22
1.7516553 1.3156583 -0.58700162 12
1.8986013 1.4244744 -0.54798079 37
2.0488679 1.5349816 -0.49762988 12
2.2220628 1.662921 -0.43958092 14
2.2338665 1.6699305 -0.34245288 8
2.2208948 1.657818 -0.24246727 3
2.1999733 1.640408 -0.14381923 5
2.1746504 1.6197534 -0.047330927 5
2.1495066 1.6133089 0.04691207 5
3.0314326 2.2727571 0.19856264 38
3.0076861 2.2524946 0.32875144 33
3.0363901 2.2706845 0.46554092 12
3.2316115 2.4140384 0.63887841 27
3.8613074 2.8812778 0.93649065 35
3.9597702 2.9504457 1.1400521 13
4.1114006 3.0600798 1.3732939 36
1.7468231 1.293053 -0.58234286 12
1.9116334 1.4135021 -0.54888058 32
2.04374 1.508979 -0.49381369 9
2.2447464 1.655575 -0.44177097 14
2.234283 1.6460526 -0.34074673 6
2.2003171 1.6186589 -0.23898104 3
2.2113729 1.6250081 -0.14381923 5
3.6979845 2.7144518 -0.080071643 29
3.1381836 2.3212886 0.068134196 27
3.048831 2.2527268 0.19866732 17
3.0089109 2.2207937 0.32718265 20
3.0649524 2.258853 0.46749085 12
3.2531581 2.394932 0.63981706 27
4.3083687 3.1682875 1.0395275 18
3.8373322 2.817771 1.099111 19
3.6918242 2.7079501 1.2268023 45
1.7464429 1.2739962 -0.57923704 12
1.9151546 1.3955323 -0.54708099 32
2.0653379 1.5027601 -0.49648505 10
2.2450645 1.6317339 -0.43958092 7
2.2457201 1.6304141 -0.34074673 6
2.2276943 1.6149535 -0.24072415 2
3.3436999 2.4213254 -0.21635687 26
3.7055018 2.6803663 -0.079827309 12
3.9493556 2.8788638 0.08530736 15
3.5472457 2.5829051 0.22996421 4
3.1371303 2.2817693 0.33938447 20
3.085465 2.2409017 0.46822205 19
3.2889845 2.3860836 0.6435715 25
3.8534698 2.7925212 0.92504203 38
4.0732007 2.9474235 1.1607475 16
3.8030136 2.7488799 1.2573429 12
1.7631376 1.2674105 -0.58182526 12
1.9137707 1.3741709 -0.54393172 30
2.078969 1.4905933 -0.49724829 10
2.2483709 1.6102706 -0.43801656 10
2.5799434 1.8456984 -0.38949445 8
2.9003749 2.0718744 -0.31184325 4
3.3588965 2.3967628 -0.21625218 36
3.6492181 2.6010416 -0.078221686 16
3.3050914 2.374074 0.071031295 10
3.1448984 2.256511 0.20285419 30
3.2533865 2.3317733 0.35019177 11
3.122021 2.2343235 0.47139066 12
3.2927072 2.3538721 0.64106852 39
4.0342393 2.880784 0.9635855 30
nan nan nan nan
3.7733321 2.68752 1.2412962 49
1.7703669 1.2539532 -0.58130759 15
1.9089999 1.3506467 -0.53988254 32
2.0925314 1.4783088 -0.4980115 10
2.2821534 1.6104802 -0.4423967 10
2.592767 1.8276407 -0.38949445 8
2.9571297 2.0813916 -0.31637534 9
3.3673782 2.3675115 -0.21572883 17
3.8751168 2.721458 -0.082654595 12
3.5403025 2.5057483 0.075708538 22
3.1670976 2.239114 0.20327288 38
3.4241946 2.4181917 0.36675134 37
3.0823848 2.1735775 0.46310353 25
3.2880661 2.3160393 0.63700122 24
4.0157175 2.8254364 0.95442665 19
9.5545835 6.7125845 2.6958134 1
