# .PCD v0.7 - Point Cloud Data file format
VERSION 0.7
FIELDS x y z intensity
SIZE 4 4 4 4
TYPE F F F F
COUNT 1 1 1 1
WIDTH 1443
HEIGHT 1
VIEWPOINT 0 0 0 1 0 0 0
POINTS 1443
DATA ascii
4.0893888 6.3968582 1.7528187 21
6.0234194 9.4113188 2.9940188 14
1.2986964 2.0175023 -0.64290655 33
1.401901 2.1753254 -0.59747005 41
1.5277908 2.3670373 -0.54762185 23
1.7046474 2.6380126 -0.49746165 22
1.9408517 3.0001018 -0.43872967 15
2.1954241 3.3897183 -0.35332939 21
2.5411916 3.9175801 -0.24472295 16
3.1072378 4.7847257 -0.099583432 4
2.5037985 3.8866255 0.080699928 13
2.423758 3.7580526 0.23436043 16
2.3257854 3.6020036 0.37511832 20
2.5687788 3.97225 0.58082932 13
4.2072525 6.4984517 1.2261335 12
nan nan nan nan
4.113739 6.3394513 1.7447206 46
5.7520986 8.8506975 2.8283746 38
1.3180344 2.0164719 -0.64549476 35
1.4074498 2.1508095 -0.59342092 19
1.5535501 2.3713634 -0.55105644 20
1.733398 2.6428661 -0.50059032 21
1.9770072 3.0097075 -0.44214204 20
2.2146564 3.3676498 -0.35263211 19
2.5458314 3.8668299 -0.24262951 14
2.6022754 3.9465606 -0.082514979 1
2.5301957 3.8694925 0.080699928 9
2.4306839 3.7130604 0.23258102 19
2.3377647 3.5656853 0.37302658 31
2.5783293 3.9281204 0.57692951 32
6.3179607 9.6145239 1.8221489 19
4.0970354 6.2252917 1.448622 16
4.1257343 6.2617574 1.7312235 21
5.7973228 8.7887602 2.8211277 19
1.3338655 2.010673 -0.64653003 35
1.4285263 2.1509194 -0.5961203 38
1.5515833 2.3326702 -0.5445689 27
1.764945 2.6504309 -0.50434476 18
2.0012748 3.0007865 -0.44287321 15
2.244751 3.3620486 -0.35367799 15
2.5561163 3.8240552 -0.24105945 16
2.5719182 3.841888 -0.080699928 19
2.3956673 3.6085019 0.075603828 12
2.3802631 3.5812285 0.22535865 12
2.3796411 3.5762293 0.37581557 22
2.5363369 3.8059552 0.56157398 18
nan nan nan nan
4.2145629 6.3075414 1.4745719 22
4.15201 6.2068877 1.724025 46
6.6658335 9.9535408 3.2098739 18
1.3352661 1.9818511 -0.64031839 35
1.4471505 2.145489 -0.59747005 27
1.5689293 2.3234084 -0.54495054 25
1.751774 2.5902803 -0.49527156 23
2.0266273 2.9933167 -0.44384819 13
2.2480459 3.3166091 -0.3505404 26
2.5396664 3.7412195 -0.23697723 14
2.5346093 3.7295663 -0.078710355 4
2.4643877 3.6563611 0.076965116 17
2.3890672 3.5392725 0.22378856 26
2.3538547 3.4831731 0.36779723 15
2.5116775 3.7125237 0.55036199 23
6.3701439 9.4015961 1.7986836 12
4.3400502 6.3981953 1.5028118 10
4.1459751 6.1052027 1.7037793 34
6.1991115 9.1148653 2.9536431 34
1.3403448 1.9597243 -0.63617724 36
1.4587905 2.1305096 -0.5961203 30
1.5788531 2.3024073 -0.54266083 31
1.7597526 2.5633304 -0.49245578 25
2.034498 2.95911 -0.44092333 19
2.2773683 3.3086448 -0.35141194 14
2.5657251 3.7233968 -0.23697723 14
2.604393 3.7738745 -0.080036737 5
2.4882295 3.6353319 0.076895304 15
2.3854926 3.4813197 0.22117178 26
2.3972728 3.4945867 0.37076053 25
2.5449243 3.704273 0.55182445 12
6.5285373 9.4919834 1.8246518 4
4.2921729 6.231163 1.4707558 33
4.2902308 6.2213678 1.7447206 29
6.1824694 8.9553127 2.9158556 22
1.3554358 1.9516695 -0.63669485 40
1.4684365 2.1120162 -0.59387082 39
1.5847943 2.2768264 -0.53922629 38
1.7814392 2.5555336 -0.49339435 23
2.0426116 2.9269266 -0.4382422 16
2.2730272 3.2534654 -0.34722847 11
2.5751245 3.6803968 -0.23540714 22
2.5893729 3.6966391 -0.078780167 3
2.4918699 3.5866694 0.076232105 17
2.3841064 3.4264529 0.21876432 23
2.34478 3.3661721 0.35890734 22
2.5582309 3.6685057 0.54914331 12
3.1567655 4.520072 0.87321728 3
4.5526862 6.5115814 1.5444082 24
4.5492315 6.4993911 1.8315516 40
6.2519379 8.9187536 2.9184437 18
1.36835 1.9426368 -0.63669485 33
1.4801657 2.0990455 -0.59297103 29
1.6059171 2.2740054 -0.54113436 27
1.801769 2.5485024 -0.49433297 25
2.0424819 2.8857708 -0.43409866 19
2.3043358 3.2509227 -0.34862295 10
2.5694256 3.6208875 -0.23268569 18
2.877882 4.0510712 -0.08673846 3
2.4666848 3.4993434 0.074731201 33
2.3768387 3.3681376 0.21604285 16
2.3555579 3.3342745 0.3571642 20
2.5498946 3.6040113 0.54207492 13
3.0051334 4.2427316 0.82347113 24
4.5321794 6.3915601 1.5230374 14
4.5155125 6.3586431 1.8005084 29
nan nan nan nan
1.384125 1.9361805 -0.63773018 31
1.498185 2.0934157 -0.59432071 34
1.6228982 2.2643335 -0.54151595 42
1.814912 2.5294409 -0.49308151 25
2.0533149 2.8585422 -0.43214872 22
2.316504 3.2202001 -0.34705415 11
2.6004775 3.610965 -0.23320904 22
2.5727975 3.5685878 -0.076790586 6
2.4235718 3.3877089 0.072706729 23
2.3735471 3.3141153 0.2136354 27
2.3903875 3.3339403 0.35890734 21
2.584254 3.5990229 0.54402483 12
3.0496669 4.2425013 0.82753843 13
4.3003225 5.9757237 1.4310676 37
7.6748557 10.649283 3.0305409 8
6.3015614 8.7341166 2.8858325 14
1.3794576 1.9014513 -0.62944794 38
1.517344 2.0892124 -0.5961203 38
1.6455942 2.2624753 -0.54380566 24
1.8360137 2.5215003 -0.4940201 22
2.082576 2.8569708 -0.43409866 19
2.3160565 3.1737773 -0.34374225 17
2.6385882 3.6104589 -0.23436043 16
2.7983775 3.8248978 -0.082724407 10
2.5141284 3.4629438 0.074696302 11
2.395452 3.2958486 0.21353073 34
2.393677 3.289783 0.35594404 17
2.5602167 3.5135109 0.53378779 11
2.9208844 4.0040669 0.78498822 13
4.616344 6.3213177 1.5215111 25
7.6528502 10.467799 2.9936488 39
nan nan nan nan
1.3823906 1.8777727 -0.62478918 25
1.5318925 2.0785685 -0.5961203 30
1.6574599 2.2464824 -0.54266083 25
1.8402247 2.4914663 -0.49057853 20
2.0930252 2.8295953 -0.43214872 13
2.3251131 3.139919 -0.34182483 17
2.6547751 3.5811846 -0.23362774 22
2.8822277 3.8823376 -0.084399842 17
2.4664929 3.3491404 0.072602011 27
2.3941264 3.2473149 0.21143727 12
2.3869998 3.2329214 0.35158628 35
2.6064937 3.5263324 0.53841883 13
2.8458488 3.8459423 0.75776863 16
4.7620559 6.4261656 1.5547118 23
nan nan nan nan
3.5533593 4.7846012 1.5969136 15
1.3673993 1.83117 -0.6123659 48
1.5448387 2.0665324 -0.59567046 39
1.6766336 2.2395704 -0.54380566 32
1.8421737 2.4580081 -0.48651123 31
2.099134 2.7978156 -0.42946759 19
2.3344681 3.1080878 -0.34008169 14
2.629287 3.4955261 -0.22923151 18
2.5753846 3.4201362 -0.074731201 7
2.5400898 3.3991175 0.074068017 13
2.3784535 3.1793449 0.20808777 27
2.4101446 3.2181931 0.35176057 6
2.5750675 3.4334118 0.52696311 20
3.0386751 4.0471368 0.8015703 10
4.5497141 6.0530496 1.4719007 12
4.6645131 6.1990213 1.7910604 12
3.5750492 4.7442489 1.5917372 7
1.38015 1.8215791 -0.6123659 50
1.545096 2.0370653 -0.59027159 21
1.6894635 2.2249796 -0.54304242 41
1.8516886 2.435977 -0.48463401 26
2.0969706 2.7546625 -0.4250803 15
2.342824 3.0742838 -0.33816427 13
2.6384823 3.458493 -0.22797546 22
2.5773487 3.3734703 -0.074102923 12
2.3976853 3.1634171 0.069286056 20
2.3758943 3.1312599 0.20599434 21
2.4361677 3.206049 0.35228351 35
2.5322754 3.3289092 0.51355743 23
3.1439416 4.1285129 0.82190675 10
4.6644835 6.1163659 1.4951794 33
4.7017646 6.1585612 1.7888108 2
nan nan nan nan
1.4019332 1.8243977 -0.61650699 29
1.5553616 2.021867 -0.5889219 46
1.6989639 2.2053554 -0.54113436 38
1.8602042 2.4120417 -0.48244393 26
2.1168845 2.7418976 -0.42532405 27
2.3508244 3.0405147 -0.33624685 14
2.6980147 3.4857922 -0.23101093 15
2.592901 3.3463655 -0.073893487 15
2.5123556 3.2670755 0.07193882 21
2.4415572 3.1715715 0.20976254 16
2.4129362 3.1310005 0.34583399 23
2.5166447 3.2608604 0.50575781 25
2.9540915 3.8235273 0.7652775 27
5.0291109 6.5022187 1.5978346 27
4.7625446 6.1486959 1.7955594 4
7.2695861 9.3752756 3.1788156 1
1.4300777 1.8343718 -0.6232363 24
1.5658422 2.0063505 -0.58757222 41
1.7094828 2.1872532 -0.53960788 33
1.890388 2.4161098 -0.4858855 23
2.1286318 2.717674 -0.42386162 16
2.3510897 2.9973783 -0.33328354 19
2.7099497 3.4511628 -0.22996421 16
2.525986 3.2134173 -0.071345441 25
2.5006597 3.2053111 0.070961483 20
2.4513443 3.1387088 0.20871581 10
2.3942375 3.062283 0.34008169 21
2.5552576 3.2635303 0.50892639 21
2.9746199 3.7950375 0.76371318 19
4.9144068 6.2630725 1.547461 11
7.3759966 9.3866987 2.7561007 2
7.2524462 9.2195282 3.1430988 1
1.4368562 1.8167675 -0.62064809 42
1.5882775 2.0060656 -0.59072149 30
1.7320306 2.1844947 -0.54189759 29
1.8617715 2.3456049 -0.47430936 21
2.1455529 2.6992655 -0.42337415 30
2.3657539 2.9730978 -0.332412 17
2.6692665 3.3509269 -0.22452128 15
2.8706481 3.5985749 -0.080350876 19
2.4857464 3.1407351 0.069914341 16
2.552577 3.2217081 0.21541482 4
2.3833671 3.0049076 0.33554959 14
2.5903256 3.2611561 0.5113638 22
2.9764528 3.7432547 0.75745571 12
4.9725509 6.2446389 1.5516587 10
7.347815 9.2176399 2.721458 2
7.2539749 9.0901527 3.1161816 3
1.4461932 1.8019186 -0.61909521 52
1.5977105 1.9885714 -0.5889219 38
1.7423172 2.1662304 -0.54037106 39
1.8958563 2.35376 -0.47868952 18
2.1568701 2.674948 -0.42191169 37
2.3902078 2.961159 -0.33293492 14
2.7082431 3.350379 -0.22577733 22
2.847899 3.5193772 -0.079024501 13
2.4775658 3.085881 0.069076627 11
2.5580451 3.1815684 0.21394941 9
2.442286 3.0343385 0.34077895 19
2.5868728 3.2105329 0.50624532 23
2.9783533 3.6911132 0.75119835 15
5.1319895 6.3533335 1.587531 10
7.3691006 9.1130819 2.7057116 2
7.3395052 9.0635338 3.1249812 1
1.4660549 1.8007679 -0.62220097 39
1.6017046 1.9652851 -0.58532268 33
1.7664635 2.1643543 -0.54304242 37
1.9059933 2.3328185 -0.4771252 25
2.1604109 2.641386 -0.41898686 15
2.3994625 2.930526 -0.33136615 16
2.7328351 3.3329329 -0.22588199 22
2.708735 3.3000154 -0.074521773 18
2.519793 3.0928781 0.069635101 15
2.4463875 2.9995692 0.20285419 11
2.5289335 3.0974677 0.34984317 12
2.5921896 3.1704245 0.50283301 20
2.9177172 3.5647566 0.72961038 57
5.3379726 6.514771 1.6371413 5
7.4436607 9.0749788 2.7097607 6
7.4295774 9.0449152 3.1363695 15
1.4810513 1.7934684 -0.6232363 49
1.611661 1.9495492 -0.58397299 29
1.776147 2.1462307 -0.54151595 36
1.9306486 2.3304398 -0.47931525 26
2.1623201 2.606379 -0.41581824 12
2.4096782 2.9014425 -0.32997164 16
2.7363043 3.2912185 -0.22431193 15
2.6792483 3.2180164 -0.07309068 19
2.5305991 3.0633214 0.069355868 13
2.4107437 2.9151254 0.19824862 20
2.5695596 3.1027529 0.35245782 10
2.6301818 3.1725719 0.50600159 15
2.8687468 3.4566483 0.71146405 15
7.5554762 9.0909309 2.2977221 6
7.5230379 9.0422659 2.7156093 18
7.4242058 8.9139786 3.1084168 33
1.4808224 1.7685336 -0.61805987 25
1.6211382 1.9340533 -0.5826233 33
1.7809894 2.1217489 -0.538463 42
1.9430587 2.3123677 -0.47837666 22
2.1851237 2.5976756 -0.41679317 15
2.4119046 2.8632157 -0.32753128 16
2.741189 3.2506597 -0.22284654 11
2.7875137 3.3020849 -0.075429298 22
2.5904527 3.0915627 0.07040301 23
2.469543 2.9441307 0.20138879 10
2.5252762 3.0073755 0.34356794 7
2.6599302 3.1632495 0.50746399 12
3.0098426 3.5755713 0.74024802 16
7.6424828 9.0693178 2.3053544 46
7.6412849 9.0550508 2.735405 38
7.4077201 8.7689543 3.0758057 24
1.5056385 1.7728775 -0.6232363 23
1.6333387 1.9212037 -0.58217335 31
1.7741228 2.0838509 -0.53197551 21
1.9437788 2.280705 -0.47462222 31
2.2135117 2.5944395 -0.4187431 6
2.4124215 2.8235857 -0.3249166 13
2.7521324 3.2177832 -0.22190447 19
2.6362259 3.0789974 -0.070752062 16
2.4539852 2.8875048 0.066144623 27
2.4434457 2.8720546 0.1976206 10
2.5358756 2.9775376 0.34217343 18
2.6626267 3.1219471 0.5038079 32
2.9949694 3.5078995 0.73054904 15
7.7579103 9.076932 2.3210008 21
3.6874249 4.3082781 1.3092152 14
7.3845401 8.6187391 3.0411241 28
1.5129356 1.7564678 -0.62116575 15
1.6365309 1.8979473 -0.57857412 31
1.7950433 2.0788441 -0.53388357 23
1.9570704 2.2640905 -0.47399649 45
2.2250757 2.5714176 -0.4175244 11
2.4229422 2.7961352 -0.32369643 18
2.7614422 3.1834037 -0.22085775 17
2.6078327 3.003144 -0.069425672 19
2.4923606 2.8915088 0.066633284 19
2.532589 2.9350708 0.2031682 17
2.4992957 2.8934195 0.33450374 15
2.6830583 3.1017807 0.50356412 12
3.2456787 3.7482367 0.78530115 15
nan nan nan nan
3.650984 4.2059054 1.2858202 17
7.3862405 8.499898 3.0173128 45
1.5137216 1.7327695 -0.61650699 12
1.6458917 1.8820759 -0.57722449 34
1.8082193 2.0647848 -0.53350198 29
1.9819441 2.2607701 -0.47618657 20
2.2194045 2.5289645 -0.41313711 11
2.4463491 2.7836416 -0.32421938 13
2.798111 3.1805425 -0.22200914 19
2.6895304 3.0538964 -0.071031295 13
2.4953783 2.8544657 0.066179529 24
2.5635419 2.9293411 0.20400558 8
2.4695446 2.8189518 0.32787988 24
2.7491562 3.1337118 0.51185131 6
3.1270781 3.560735 0.75057268 15
7.9849973 9.0827379 2.3507669 2
3.8901539 4.4187293 1.3591543 11
2.8611593 3.2464912 1.1595093 22
1.5245006 1.7207135 -0.61598933 20
1.6732155 1.8865761 -0.58217335 28
1.8186779 2.0477078 -0.53235716 38
1.9989904 2.2483554 -0.47649944 15
2.2145686 2.4882016 -0.40899354 12
2.4643974 2.7650075 -0.32404503 12
2.8348739 3.1773243 -0.22316055 22
2.5922298 2.9023087 -0.067924768 17
2.5046325 2.8250046 0.065900289 22
2.4420724 2.7515388 0.19280569 11
2.524894 2.8418574 0.33258632 12
2.6588101 2.9883804 0.49113351 23
3.0020859 3.3706515 0.71490556 7
3.7392833 4.1939316 1.0921907 3
8.6166477 9.6507578 2.9869003 2
2.966146 3.3186231 1.1926383 2
1.5390595 1.7129019 -0.6170246 20
1.6863453 1.8748487 -0.58217335 31
1.8250456 2.0262086 -0.53006744 27
2.0080245 2.22701 -0.47493511 40
2.2212462 2.4608905 -0.40704364 16
2.4796314 2.7433023 -0.32352212 16
2.8422444 3.141166 -0.22200914 17
2.5842357 2.8530183 -0.067191765 19
2.5978284 2.8892362 0.06782005 13
2.5053146 2.783412 0.19625986 3
2.5326679 2.8108408 0.33101749 12
2.74211 3.0390151 0.50258923 16
3.1301475 3.4654181 0.73962224 19
8.7759819 9.7057581 2.543484 2
3.021482 3.3369091 1.039274 7
7.5392766 8.3175812 3.0079951 30
1.5483772 1.6992602 -0.61598933 21
1.7007056 1.8644708 -0.5826233 48
1.8259069 1.9989218 -0.52625126 25
2.0075274 2.1954424 -0.47118065 27
2.2450738 2.4526446 -0.40826234 13
2.4955561 2.7234211 -0.32317349 13
2.8546519 3.1109457 -0.22127645 10
2.5851531 2.8142889 -0.066703096 26
2.5505674 2.7971482 0.066074811 21
2.4789042 2.7156997 0.19270101 8
2.5347576 2.7739701 0.32875144 10
2.7217152 2.9743993 0.49503332 26
5.1116667 5.5803642 1.198601 3
3.0597394 3.3367829 0.88001108 1
nan nan nan nan
3.2148371 3.497334 1.2728721 4
1.5615137 1.689828 -0.61650699 26
1.7057408 1.8439689 -0.57992387 23
1.8608127 2.0094957 -0.53235716 41
1.9901941 2.1469593 -0.46367183 19
2.2499859 2.4238186 -0.40606871 12
2.507726 2.6986363 -0.32230192 18
2.8852839 3.1016791 -0.22200914 19
2.5924702 2.7830033 -0.066388957 33
2.6129847 2.8267117 0.067191765 10
2.6112788 2.8219008 0.20149344 5
2.4782269 2.6743672 0.31898999 31
2.7148995 2.9266963 0.49015856 18
3.152091 3.3944278 0.73367769 13
3.196599 3.4375453 0.91244864 8
3.2597315 3.5017583 1.1045097 26
3.3281243 3.5714779 1.3080715 40
1.5676968 1.6735204 -0.61443645 36
1.7049227 1.8181006 -0.57542485 24
1.8653885 1.9864377 -0.5296858 37
1.9929571 2.120059 -0.46085599 10
2.26141 2.4022698 -0.40509373 12
2.523772 2.6781633 -0.32195333 33
2.8164132 2.9855733 -0.2151008 19
2.824683 2.9901524 -0.071799204 21
2.6011999 2.7748458 0.066388957 11
2.5106454 2.6754375 0.19228233 10
2.5891335 2.7561839 0.33084321 13
2.6250918 2.7905562 0.47041571 12
4.9998817 5.3094597 1.1551123 14
nan nan nan nan
3.3416226 3.5398483 1.1238556 8
3.0252438 3.2013428 1.180215 9
1.5796313 1.6622602 -0.61443645 41
1.708487 1.7959704 -0.57227552 24
1.865672 1.959149 -0.52586961 45
2.0067139 2.1043141 -0.46054313 13
2.2726431 2.3806801 -0.40411878 17
2.5382783 2.6561575 -0.32143039 15
2.8846552 3.0144048 -0.21865964 33
2.6781061 2.7956336 -0.067575715 13
2.5516205 2.6841521 0.064643718 19
2.5132008 2.6400437 0.19102626 36
2.5689297 2.6957576 0.32578817 21
2.6088841 2.7348161 0.46407849 18
4.954515 5.1864133 1.1360272 10
nan nan nan nan
3.3002226 3.4474559 1.1018103 13
nan nan nan nan
1.5871767 1.6470177 -0.61288351 26
1.7250427 1.7882068 -0.57362527 34
1.8878268 1.9542214 -0.52815932 15
2.0254743 2.0945141 -0.46148172 10
2.2840967 2.3586526 -0.40314382 15
2.5405788 2.6207595 -0.31933865 13
2.8402562 2.9268267 -0.21374007 38
2.9363511 3.0216272 -0.073544443 9
2.9108472 3.0184851 0.07319539 30
2.5620883 2.654047 0.19332905 12
2.5641499 2.6534011 0.32282487 9
2.5938759 2.6804147 0.45798501 13
3.1790853 3.281708 0.72366595 21
3.1714225 3.2692251 0.8853538 21
3.1917608 3.2867458 1.0577199 4
3.1523395 3.2427526 1.2117908 16
1.5867682 1.6231853 -0.60822481 28
1.7200758 1.7577105 -0.5677765 46
1.8657045 1.9045298 -0.51823723 31
2.0224271 2.0616345 -0.45741442 9
2.3018975 2.3440664 -0.40338758 9
2.5364642 2.5802269 -0.31654966 21
2.8751388 2.920661 -0.21478678 36
2.7889433 2.8301349 -0.069355868 20
2.6032906 2.6621103 0.064992763 27
2.5907962 2.6456339 0.19406174 20
2.8480735 2.9053123 0.35594404 8
2.777981 2.8308446 0.48698995 12
3.091722 3.1461599 0.69863641 9
nan nan nan nan
3.2132602 3.2629962 1.0572701 39
3.0859375 3.1293273 1.1776267 13
1.5974978 1.6126264 -0.60822481 28
1.7536498 1.7684042 -0.57497495 28
1.8952247 1.9085038 -0.52281672 29
2.0221295 2.0341666 -0.45428574 10
2.3047912 2.3160841 -0.40119389 6
2.5483441 2.5572555 -0.3158524 18
2.8605933 2.8675921 -0.21227466 17
2.8514555 2.8554404 -0.070437916 15
2.6114972 2.6343863 0.064748429 13
2.563267 2.5830269 0.19071224 21
2.6678901 2.6856427 0.33119181 27
2.827985 2.8428311 0.49235216 50
nan nan nan nan
3.2696874 3.2799759 0.9002369 56
3.3785799 3.3844821 1.1040599 13
3.0820427 3.0841959 1.1683092 20
1.6210399 1.6136998 -0.61288351 24
1.7535173 1.7437505 -0.57092583 25
1.9112885 1.897993 -0.5235799 29
2.0517077 2.0353029 -0.45772728 7
2.3096242 2.288759 -0.39924401 5
2.5802972 2.553417 -0.31759554 10
2.891906 2.8587842 -0.21311203 36
2.7603381 2.725867 -0.067715339 22
2.6156468 2.6019886 0.064399377 14
2.6024868 2.5861878 0.19228233 16
2.7629282 2.7427509 0.34060463 10
2.7321608 2.7084212 0.47236562 12
3.2704155 3.238606 0.72898471 28
3.1906185 3.1562781 0.87237877 20
nan nan nan nan
3.6425211 3.594523 1.3712233 15
1.6336442 1.6036979 -0.61340117 42
1.7726043 1.7382892 -0.57317531 31
1.9202852 1.8804815 -0.52243507 30
2.0573955 2.0126405 -0.45585006 7
2.3070908 2.2545419 -0.3960754 4
1.9859943 1.9387273 -0.24281588 11
2.9904506 2.9152057 -0.21886899 22
2.711966 2.6409605 -0.066074811 19
2.6565886 2.6060705 0.064957857 9
2.6261842 2.5735476 0.19270101 13
2.6638374 2.6077135 0.32613677 11
2.772295 2.7100961 0.47602168 12
3.0625806 2.9907346 0.67798704 12
3.2645731 3.1846511 0.88649869 15
nan nan nan nan
3.1192665 3.0354733 1.1662387 12
1.6309201 1.5788169 -0.60822481 41
1.7734897 1.7150342 -0.56957608 27
1.9372759 1.8714602 -0.5235799 34
2.0738895 2.0013342 -0.45647582 7
2.3227742 2.2383802 -0.3960754 11
1.9994808 1.9248151 -0.24281588 9
2.9871922 2.8726308 -0.21719423 12
2.7433195 2.6344275 -0.066388957 17
2.66277 2.5768023 0.064678617 28
2.6436412 2.5556121 0.19270101 11
2.5902374 2.5004909 0.31498083 13
2.8049657 2.7049439 0.47845906 12
3.4655581 3.3384764 0.7621488 33
3.3334157 3.2066996 0.89909208 4
3.5830293 3.4432142 1.1472505 27
3.6276267 3.4824195 1.347412 39
1.6304519 1.5570055 -0.60408366 28
1.7851232 1.7029217 -0.56957608 31
1.936079 1.8443483 -0.51976377 19
2.0763628 1.9759128 -0.45397288 14
2.3437104 2.2279897 -0.39705035 13
2.5764146 2.4457824 -0.31079736 25
2.934711 2.7829921 -0.21196064 21
2.9165218 2.7628446 -0.070123769 10
2.6734612 2.5512471 0.064504094 24
2.649853 2.5260687 0.19186363 22
2.6360545 2.5102816 0.31846708 33
2.7446651 2.6100566 0.46505347 16
3.3527236 3.1849525 0.73242623 18
3.2141821 3.0501437 0.86131191 5
3.7413576 3.5454576 1.1899912 14
nan nan nan nan
1.6455014 1.549558 -0.6056366 26
1.7983871 1.691754 -0.57002604 33
1.9503379 1.8321319 -0.52014536 20
2.0742624 1.9464988 -0.4505313 9
2.3707945 2.2224329 -0.39900026 13
2.5948811 2.4290974 -0.31097168 22
2.9263511 2.736517 -0.20997187 49
2.9781163 2.7820029 -0.071136013 24
2.772759 2.6092639 0.066458762 6
2.6965282 2.5348673 0.19395708 3
2.7159681 2.5504644 0.32596248 18
2.7946751 2.6207063 0.47041571 15
3.2451282 3.0399272 0.70426804 33
3.722784 3.4837215 0.99106199 11
3.5780747 3.3436193 1.130604 9
3.108202 2.9014885 1.1393216 26
1.6548635 1.5367179 -0.60511893 26
1.8015817 1.6712058 -0.56732661 51
1.9486791 1.8051288 -0.51632917 45
1.9863101 1.8380561 -0.4286305 22
2.3804207 2.2004387 -0.39802533 13
2.6172104 2.4167852 -0.31166893 24
2.9541955 2.724143 -0.21059991 31
2.9077492 2.6784978 -0.069006816 15
2.7938378 2.5925643 0.066528574 38
2.7624943 2.5607886 0.19741124 8
2.7863338 2.5801761 0.33223769 6
2.7954133 2.584959 0.46749085 15
3.3591375 3.1029818 0.72429162 13
3.5955176 3.3178494 0.95099211 20
3.1565666 2.9097383 0.99113441 9
3.4282846 3.1557856 1.2485431 9
1.6641262 1.5238237 -0.60460132 26
1.803139 1.6493815 -0.56417727 28
1.9565732 1.7878498 -0.51518428 31
2.1125741 1.9283693 -0.45303425 10
2.3942575 2.1824293 -0.39778158 12
2.6752675 2.4360144 -0.31654966 13
2.9697132 2.7012846 -0.21039055 31
3.1350858 2.8477125 -0.073928393 9
nan nan nan nan
2.6884778 2.4583614 0.19092159 32
2.9072704 2.6547027 0.34443948 41
2.7748122 2.5310891 0.46115363 15
3.6503036 3.3261826 0.78217238 15
3.6650596 3.3349485 0.96320391 23
3.8343713 3.4853423 1.1962898 13
3.1593518 2.8687479 1.1434625 19
1.6644253 1.5033957 -0.60097784 28
1.8070909 1.6305414 -0.5619278 34
1.9558796 1.76232 -0.51174974 23
2.1259842 1.9135747 -0.45303425 9
2.4035296 2.1603529 -0.3968066 12
2.7025864 2.4265957 -0.31776983 4
3.0018806 2.6924882 -0.2113326 19
2.9150712 2.6109562 -0.068308719 15
2.939167 2.6529465 0.069111533 12
2.6744251 2.4114456 0.18872347 25
2.6750851 2.4095027 0.31498083 12
2.7702765 2.4917428 0.45749757 18
3.0900946 2.77648 0.65796345 16
3.5055938 3.1453898 0.91550165 31
3.2346153 2.8991992 1.0028318 27
3.1764235 2.8440442 1.1424273 4
1.6520553 1.4708929 -0.59269565 30
1.8259931 1.6240438 -0.56417727 31
1.9505241 1.7329739 -0.50717038 30
2.1278019 1.8878247 -0.4505313 9
2.4244947 2.1487885 -0.39778158 17
2.7134933 2.4023874 -0.3170726 3
3.068953 2.7132714 -0.21468212 15
2.9931817 2.6434908 -0.069704913 16
2.8366215 2.5246761 0.066284239 9
2.7140052 2.4121485 0.19029355 7
2.7518549 2.4432106 0.32195333 13
2.8291883 2.5092227 0.46432224 14
3.2888162 2.91277 0.69582063 24
3.3333757 2.9491217 0.86512804 37
3.8607581 3.4121087 1.1895412 22
3.7804129 3.3364024 1.3510355 1
1.6724463 1.4682451 -0.59631914 40
1.8226352 1.5984075 -0.55967826 32
1.9702592 1.72544 -0.50907844 18
2.1126823 1.8482108 -0.44458681 11
2.4379432 2.1305025 -0.39753783 19
2.7181926 2.3729017 -0.31567809 9
3.0682478 2.6747198 -0.21332137 52
3.1638746 2.7551682 -0.073230296 12
3.2244074 2.8287268 0.074870825 10
2.807384 2.460278 0.19563182 11
2.7673445 2.4226286 0.32177898 12
2.7618835 2.4144421 0.45042911 12
3.4028082 2.9715974 0.71553135 42
nan nan nan nan
nan nan nan nan
1.9338677 1.6828643 0.68690574 7
1.6958007 1.4679134 -0.60097784 26
1.8293267 1.5818211 -0.55832857 34
1.9760151 1.7068553 -0.50755197 12
2.1192305 1.8286262 -0.44333532 11
2.4467423 2.1082473 -0.39656287 12
2.7226119 2.3434691 -0.31428361 12
3.1060715 2.6706996 -0.21468212 15
3.1405528 2.6965368 -0.072252966 16
2.9623263 2.5633323 0.06837853 28
2.8512647 2.4646201 0.19751592 7
2.7751408 2.3954384 0.32073313 15
2.8714626 2.4759591 0.46554092 10
3.1909664 2.7485442 0.66703665 15
3.2953396 2.8344414 0.84490222 1
1.9658352 1.6890965 0.59836984 10
1.945277 1.6696628 0.68690574 5
1.7042834 1.4550829 -0.60046023 26
1.8400514 1.5693326 -0.55832857 30
1.9729365 1.6802891 -0.50373578 10
2.1184039 1.8022664 -0.44051951 13
2.4504466 2.0825467 -0.39485672 12
2.732424 2.3197262 -0.31358635 12
3.213001 2.723861 -0.2207531 15
3.3785784 2.8611922 -0.077279255 9
2.990797 2.5516758 0.068622865 12
2.793916 2.3811753 0.19238698 2
2.7625577 2.3519535 0.3174212 42
3.1730103 2.6975787 0.5113638 12
nan nan nan nan
1.9941245 1.6917385 0.50831515 6
1.9787745 1.6769352 0.59881973 6
1.980481 1.6760089 0.69518799 9
1.6996217 1.4307076 -0.59528387 33
1.8599118 1.5639737 -0.561028 50
1.972302 1.6567189 -0.50068283 12
2.1624 1.8144698 -0.44708973 11
2.19561 1.8397257 -0.35171497 25
2.7516086 2.3031499 -0.31393498 19
3.1809053 2.6596484 -0.21729892 21
2.9026687 2.4235682 -0.066004999 11
2.8459103 2.3947821 0.064922951 7
2.8559258 2.4006569 0.19552715 30
2.7819622 2.3351717 0.31776983 21
nan nan nan nan
2.0095208 1.6832027 0.41517711 7
2.0134151 1.6840745 0.51022327 5
2.0038915 1.6743262 0.60286885 7
1.9844277 1.6562998 0.69259977 7
1.7122935 1.4215735 -0.59631914 26
1.8630143 1.5450573 -0.55877846 33
1.982308 1.6416571 -0.50030124 10
2.1323974 1.7640729 -0.4383294 30
2.4636254 2.035917 -0.39241934 8
2.7583995 2.2762766 -0.3128891 19
3.2163465 2.6513524 -0.21845031 17
2.9484284 2.427906 -0.06666819 16
3.0964892 2.5689297 0.070228487 21
2.8280196 2.3437016 0.19249167 32
nan nan nan nan
2.0318153 1.67967 0.32368499 8
2.0303617 1.6766795 0.41705433 6
2.0384619 1.6815745 0.51365787 8
2.0230525 1.6664908 0.60511833 6
1.9765499 1.626448 0.68587047 4
1.711711 1.4010204 -0.59269565 36
1.863194 1.5233794 -0.55562913 27
1.9922 1.6265364 -0.49991959 10
2.1431303 1.7478945 -0.43801656 27
2.2515466 1.8343548 -0.35658973 12
2.693856 2.191581 -0.3038249 4
3.2053289 2.6049008 -0.21646154 19
2.9497814 2.3946595 -0.066319145 17
2.9255061 2.3927941 0.0659701 25
nan nan nan nan
2.0498366 1.6729978 0.23148565 7
2.0527248 1.6729689 0.32514745 6
2.0665281 1.6824188 0.42206025 7
2.0333972 1.6536764 0.50946003 5
2.0240483 1.6437272 0.60196906 5
1.9893569 1.6138265 0.68638813 6
1.7169405 1.3853959 -0.59114271 31
1.8677156 1.5054423 -0.55382955 14
1.9973885 1.6076657 -0.49839315 9
2.1568191 1.7341288 -0.4383294 28
2.2225094 1.7850301 -0.35000879 15
2.8050613 2.2504976 -0.31463224 13
2.2024736 1.7645144 -0.14790143 1
2.1280212 1.7030383 -0.047575258 6
2.0890749 1.6844668 0.046842258 8
2.0640783 1.6625291 0.13889964 5
2.0894077 1.6811281 0.23462325 7
2.0659018 1.6598407 0.32539117 9
2.0689797 1.6605319 0.42018303 6
2.0326383 1.629616 0.50640708 5
2.0245423 1.6213846 0.59881973 6
3.3689933 2.6942472 1.1558858 1
1.7280824 1.3745782 -0.59166032 26
1.8797058 1.4935788 -0.55427945 35
2.008286 1.5940316 -0.49839315 10
2.1685739 1.7194065 -0.4383294 40
2.1928961 1.7361993 -0.34342784 37
2.8332071 2.2407455 -0.31602672 4
2.1454771 1.695004 -0.14329587 10
2.1210184 1.6732789 -0.047156405 6
2.1067522 1.6751872 0.046981879 5
2.087858 1.6583797 0.13973701 6
2.1135807 1.6764064 0.23601775 9
2.0771513 1.6457411 0.32539117 6
2.0569997 1.6280224 0.41549 7
2.0532076 1.6226898 0.50869679 8
3.5745256 2.8219776 1.0514213 9
nan nan nan nan
1.7145976 1.3449003 -0.5838958 20
1.8821584 1.4747409 -0.55202997 46
2.0085411 1.5715047 -0.49572179 10
2.1618474 1.6896291 -0.43457499 31
2.1921449 1.7114607 -0.34147793 55
2.1589775 1.6831399 -0.23950398 7
2.1682887 1.6885746 -0.14402856 5
2.1402516 1.664941 -0.047330927 8
2.124692 1.6653719 0.047121495 7
2.1182563 1.6585377 0.14099309 6
2.1014028 1.6435678 0.23340309 6
2.0823321 1.6263123 0.32441622 7
2.0714302 1.6160525 0.41611573 7
nan nan nan nan
3.404973 2.6497476 0.99608326 46
3.6910348 2.8692589 1.2526842 15
1.7377 1.3435322 -0.58855456 21
1.8893239 1.4591817 -0.55113012 28
2.028791 1.5646379 -0.4980115 10
2.167331 1.6696733 -0.43332353 27
nan nan nan nan
2.1754141 1.6716695 -0.24002692 5
2.2006197 1.6892065 -0.1453893 8
2.1534097 1.6511754 -0.047365833 6
2.1299362 1.6456088 0.046981879 5
2.1060658 1.6254061 0.139423 4
2.09389 1.6142604 0.23131134 9
2.1030738 1.6189997 0.32587865 1
3.1788011 2.4444723 0.63512403 51
3.9514849 3.0353692 0.96854651 28
3.6042995 2.7646794 1.0487219 52
3.3644137 2.577878 1.135698 38
1.740891 1.3266841 -0.58648396 15
1.8917115 1.4400551 -0.54888058 32
2.0427909 1.5528123 -0.49877474 15
2.1978133 1.6688366 -0.43707794 6
2.2268994 1.689083 -0.34318411 7
2.1933844 1.661253 -0.24072415 6
2.191653 1.6581367 -0.14402856 5
2.1616931 1.6336911 -0.047296021 5
2.1318274 1.6234299 0.04677245 6
2.1125932 1.6070358 0.13910899 6
nan nan nan nan
2.9793475 2.2606294 0.45920372 19
3.1957881 2.4222219 0.63512403 34
3.5828333 2.7126274 0.87352359 41
3.5893152 2.7135928 1.038824 37
3.4054544 2.571789 1.1434625 27
1.7470214 1.3121778 -0.58544868 12
1.893925 1.4209658 -0.5466311 39
2.0520105 1.537336 -0.49839315 13
2.2252259 1.6652882 -0.44020665 14
2.2434058 1.6770618 -0.34391531 8
2.2145085 1.6530509 -0.24177003 3
2.1903663 1.6332446 -0.14319119 5
2.1730466 1.6185588 -0.047296021 5
2.1431091 1.6085073 0.04677245 5
3.0410209 2.2799456 0.19919068 36
3.0092809 2.2536888 0.32892576 33
3.0332108 2.268307 0.46505347 12
3.2395241 2.4199493 0.64044279 28
3.8550131 2.876581 0.93496412 34
3.9613326 2.9516098 1.1405019 13
4.103652 3.0543127 1.3707057 34
1.7592449 1.302248 -0.58648396 12
1.900665 1.4053919 -0.54573131 30
2.0532167 1.515976 -0.49610341 9
2.2367978 1.6497126 -0.44020665 14
2.2374792 1.6484073 -0.34123421 6
2.206737 1.6233816 -0.23967829 3
2.1920595 1.610816 -0.14256316 5
3.6963723 2.7132683 -0.080036737 33
3.1317527 2.3165317 0.067994572 24
3.0472245 2.2515397 0.19856264 17
3.01372 2.2243433 0.32770559 19
3.0633543 2.2576752 0.4672471 12
3.2531581 2.394932 0.63981706 28
4.3083687 3.1682875 1.0395275 18
3.8326201 2.814311 1.0977612 21
3.698055 2.7125204 1.2288729 51
1.7464429 1.2739962 -0.57923704 12
1.9135796 1.3943846 -0.5466311 34
2.0526378 1.4935193 -0.4934321 10
2.251456 1.6363794 -0.44083238 7
2.2392945 1.6257491 -0.33977175 6
2.2373731 1.6219701 -0.24177003 2
3.3420823 2.4201539 -0.21625218 31
3.7152233 2.6873984 -0.080036737 12
3.9638991 2.8894653 0.085621506 16
3.5101101 2.555865 0.22755675 4
3.1435752 2.2864571 0.34008169 16
3.0742214 2.2327356 0.46651587 16
3.2777922 2.377964 0.64138144 28
3.8677771 2.8028893 0.92847663 39
4.0653067 2.9417112 1.1584979 14
3.8186703 2.7601969 1.2625194 12
1.7537256 1.2606449 -0.57871938 12
1.9201024 1.3787173 -0.54573131 31
2.0741825 1.4871615 -0.49610341 10
2.2564008 1.6160216 -0.43958092 10
2.5702565 1.8387685 -0.38803205 8
2.9003749 2.0718744 -0.31184325 4
3.3621483 2.3990831 -0.21646154 36
3.6378193 2.592917 -0.077977359 16
3.3115878 2.3787405 0.071170911 10
3.1448984 2.256511 0.20285419 30
3.2614839 2.3375771 0.35106334 11
3.1284781 2.2389445 0.47236562 12
3.2830653 2.3469794 0.63919127 36
4.0406303 2.8853476 0.96511191 33
nan nan nan nan
3.7796264 2.692003 1.2433668 49
1.7656375 1.2506034 -0.57975465 13
1.9201357 1.3585255 -0.54303187 31
2.0829108 1.471512 -0.49572179 10
2.2627857 1.5968127 -0.43864229 10
2.599257 1.8322155 -0.39046943 8
2.9571297 2.0813916 -0.31637534 9
3.3755472 2.373255 -0.21625218 17
3.8898451 2.7318017 -0.082968742 14
3.5354056 2.5022821 0.075603828 23
3.160574 2.2345021 0.20285419 33
nan nan nan nan
3.0872517 2.1770096 0.46383476 27
3.2832208 2.3126264 0.63606256 21
4.0157175 2.8254364 0.95442665 20
9.5864744 6.7349896 2.7048116 2
4.1177545 2.8897145 1.3479296 9
1.7743248 1.2382473 -0.57975465 12
1.9247768 1.3417451 -0.54168218 41
2.0915225 1.4558122 -0.4953402 10
2.2819886 1.5866139 -0.44020665 10
2.6087239 1.8117598 -0.38998193 8
2.9715877 2.0606976 -0.31637534 9
3.3871069 2.3462212 -0.21593818 21
3.6934009 2.5555253 -0.078396209 21
3.4281294 2.3906083 0.072951064 12
3.1842909 2.2180903 0.20337754 6
3.2807188 2.2827091 0.34966883 15
3.1072657 2.1588016 0.46456599 41
3.3171375 2.3020377 0.63950419 22
4.2208967 2.9259582 0.99831271 13
3.9705956 2.7483456 1.1148576 27
4.1584854 2.8751791 1.354659 13
1.7940695 1.2334915 -0.5833782 15
1.9244586 1.3216556 -0.53898275 15
2.101635 1.4411751 -0.4953402 9
2.3044176 1.578458 -0.4423967 9
2.6016488 1.7800522 -0.38705707 8
2.9891927 2.0421484 -0.31672394 9
3.4149535 2.3303964 -0.21667089 7
4.106061 2.7988648 -0.08673846 9
3.7595415 2.5828967 0.07961788 17
5.5496569 3.8084741 0.35274437 2
3.2407022 2.2214475 0.34374225 20
3.158299 2.1617243 0.46992823 28
3.3266046 2.2743659 0.63825274 24
nan nan nan nan
3.9558747 2.6975031 1.1054095 53
9.7587805 6.6470098 3.1638043 1
1.7770451 1.2036027 -0.57509595 12
1.9271823 1.3038201 -0.53718311 17
2.1002562 1.4187758 -0.49266884 10
2.3219302 1.5667523 -0.44364822 9
2.6173041 1.7640661 -0.38754454 8
2.9831903 2.0084033 -0.31463224 6
3.4410851 2.3131845 -0.21729892 7
3.6274521 2.4357088 -0.076267019 16
3.5621946 2.4108791 0.075080253 5
3.4035797 2.3009317 0.21531016 12
3.2693412 2.2076888 0.34513673 29
3.2128155 2.1662569 0.47577798 25
3.3374863 2.247776 0.63731414 21
20.703979 13.928233 4.8503652 8
4.0663409 2.7324672 1.131054 22
4.1693473 2.7974644 1.3453414 21
1.78219 1.189024 -0.57406068 12
1.9329952 1.2881719 -0.53628331 9
2.1213057 1.4120611 -0.4953402 10
2.3160923 1.5399728 -0.44051951 10
2.6328635 1.7479467 -0.38803205 8
2.615232 1.7342693 -0.27454057 5
3.468405 2.29743 -0.21803163 3
3.6527064 2.4158423 -0.076441541 16
3.4470928 2.2989256 0.072322771 11
3.4274724 2.2832487 0.2158335 8
3.3012624 2.1958468 0.34687987 24
3.2456739 2.1564219 0.47845906 22
3.3889189 2.2490366 0.64419717 12
20.807259 13.78769 4.8518915 8
4.0414424 2.6749713 1.1189066 16
4.1931281 2.7722142 1.3468944 21
1.7918568 1.1779256 -0.57457829 12
1.9335732 1.2696375 -0.53403383 10
2.1327531 1.3982947 -0.49572179 10
2.3267863 1.5237669 -0.44051951 9
2.6513453 1.7343317 -0.38900697 8
3.0039265 1.9627215 -0.31393498 9
3.4726517 2.2655199 -0.21729892 7
3.7545116 2.4466007 -0.078221686 13
5.6040688 3.6811895 0.11703584 11
3.8190548 2.5057919 0.2393847 16
3.3644583 2.2049966 0.35193488 25
3.2506833 2.1271884 0.47699666 32
3.4772913 2.272877 0.65796345 16
20.966375 13.688681 4.867156 8
3.9599845 2.5824678 1.0914626 17
4.1751437 2.7186298 1.3349887 15
1.8016578 1.1664381 -0.57509595 12
1.9309347 1.248701 -0.5308845 11
2.1422217 1.383745 -0.49572179 10
2.3404241 1.5100355 -0.44114524 9
2.636688 1.6985787 -0.38510716 8
3.0175557 1.9417022 -0.31393498 7
3.5148733 2.259109 -0.21897365 7
4.1535296 2.6654963 -0.086145081 18
3.6748812 2.3782971 0.076406635 10
3.8360243 2.4797366 0.2393847 13
3.3965096 2.1922591 0.35367799 23
3.3685286 2.1717012 0.49210843 16
3.4511614 2.2224176 0.65014172 19
7.0034122 4.5030203 1.6184419 2
6.9293804 4.4502931 1.9012865 6
6.835865 4.3851762 2.1761506 8
1.8030412 1.1499914 -0.57302535 12
1.9492515 1.2418101 -0.53358394 9
2.1485162 1.3666494 -0.49495855 10
2.3575783 1.4978969 -0.4423967 9
2.6414845 1.6763374 -0.38413221 8
3.0377698 1.9248543 -0.31463224 7
2.629355 1.6641374 -0.16307886 18
4.124249 2.6072428 -0.085167743 11
5.5716629 3.5509074 0.1153255 14
3.8161755 2.4292994 0.2370819 4
3.4500232 2.1936767 0.35768715 23
3.3702011 2.1396203 0.49015856 16
3.5082986 2.2247169 0.65796345 18
7.0073647 4.4384365 1.6123362 4
6.920752 4.3768101 1.8904887 12
6.8467126 4.3249698 2.169939 6
1.806118 1.1342936 -0.57147247 12
1.9578735 1.2281713 -0.53358394 9
2.1530139 1.3484893 -0.49381369 10
2.3663034 1.4803538 -0.44208387 7
2.6564901 1.6599593 -0.38461968 8
3.0376098 1.895164 -0.31323773 7
2.6205683 1.6330647 -0.1618228 7
3.7179294 2.314208 -0.076441541 22
5.5997028 3.5140519 0.11539531 11
5.6556396 3.5450289 0.34981358 20
5.6437011 3.5334313 0.58254898 8
3.4725866 2.1707559 0.50283301 7
3.5404999 2.2106321 0.66109216 13
7.0048637 4.3686299 1.6047038 4
4.6203074 2.8770077 1.2565767 3
6.8291659 4.2474756 2.1549275 12
1.8074195 1.1175935 -0.56940192 12
1.9630833 1.2124258 -0.53268409 9
2.1640468 1.334456 -0.49419534 10
2.3799446 1.4658695 -0.44270959 9
2.6716824 1.6429871 -0.38510716 8
3.0371857 1.8655673 -0.31184325 7
3.5546043 2.1808252 -0.21855497 8
4.1641045 2.55077 -0.085237555 11
5.6496167 3.4906392 0.11591888 9
5.7431397 3.5442655 0.35368642 18
5.7123313 3.5211241 0.58708107 44
5.8595319 3.606221 0.84479833 15
5.6997871 3.5037937 1.0596871 11
6.9890947 4.2896371 1.5940183 5
4.6369572 2.8426445 1.2556769 15
6.8224077 4.1775022 2.1435394 12
1.8219721 1.1086483 -0.57147247 12
1.9750397 1.2003716 -0.53358394 10
2.1699533 1.3172792 -0.4934321 10
2.3768585 1.4406105 -0.44020665 7
2.6898799 1.6284074 -0.38608211 8
3.0603657 1.8505039 -0.3128891 7
3.6179943 2.1842365 -0.22148579 5
4.1835246 2.5226676 -0.085272454 3
5.6020942 3.4074643 0.11445288 14
5.9578438 3.6181567 0.36530501 2
5.9809799 3.6279221 0.61200762 18
5.5976372 3.3913879 0.80360651 27
5.6469646 3.4158864 1.0452952 22
6.9684587 4.2102847 1.58257 5
6.9107857 4.1705022 1.8634946 10
6.8488169 4.1265812 2.1425042 9
1.8197236 1.0899456 -0.56836665 12
1.980027 1.1845529 -0.53268409 8
2.1877513 1.3067513 -0.4953402 12
2.3936429 1.4280312 -0.44145811 7
2.6858344 1.6004446 -0.38388845 9
3.06668 1.8244824 -0.31219187 7
3.5679088 2.1201539 -0.21750826 8
2.6843283 1.5932038 -0.054486416 11
5.5045075 3.2943778 0.11197464 11
5.9503875 3.5570011 0.36331624 21
5.8179898 3.4737234 0.59283334 19
5.6302876 3.3563273 0.80482519 13
5.6503072 3.364253 1.0415409 24
6.9673085 4.1434703 1.5757008 7
6.9488306 4.1259174 1.8657442 6
6.9405985 4.1161165 2.1621742 9
1.8322812 1.0801581 -0.56991959 13
1.9882483 1.1707009 -0.53268409 11
2.1782036 1.2805015 -0.49114239 11
2.4052577 1.4122858 -0.44177097 9
2.6918051 1.5786422 -0.38315722 8
3.0896578 1.8090702 -0.31323773 6
3.6412408 2.1294765 -0.22106709 5
4.2252445 2.4680464 -0.085412078 3
5.5790606 3.286319 0.11302178 6
7.099165 4.176724 0.431667 8
5.8249202 3.4229305 0.59109026 27
5.663857 3.3229632 0.80628765 25
5.8372717 3.420598 1.0715762 14
7.0604539 4.1324096 1.5902023 4
6.9959731 4.08812 1.870693 42
nan nan nan nan
1.8247384 1.0586151 -0.56526077 12
1.9963731 1.1567917 -0.53268409 11
2.1836915 1.2632974 -0.49037915 11
2.4184794 1.3974361 -0.4423967 9
2.7165151 1.5677495 -0.38510716 4
3.0711381 1.7695519 -0.31010011 6
3.6490943 2.1000192 -0.22064841 7
4.2128987 2.4215477 -0.084818691 18
5.5759163 3.2322462 0.11249821 13
7.0866685 4.1030436 0.4291549 5
5.838326 3.3761971 0.59004438 31
5.9207196 3.4183304 0.83943611 22
5.7395101 3.3097036 1.0493625 24
7.1078429 4.0937991 1.5943999 43
7.0699582 4.0654049 1.8828405 100
7.0091209 4.0255399 2.1657977 49
1.8270515 1.0429772 -0.56370795 12
2.0060933 1.1437914 -0.53313404 10
2.1992824 1.2519064 -0.4919056 12
2.4144385 1.3727072 -0.43989375 9
2.7239416 1.546786 -0.38461968 8
3.0903502 1.7519987 -0.31079736 7
3.6462865 2.0646513 -0.21960169 8
4.2488489 2.4029055 -0.085202649 5
5.5271292 3.1526189 0.11106712 13
7.1290231 4.061378 0.42999226 11
5.8149986 3.3087516 0.585338 22
5.7821922 3.2847435 0.81652468 11
5.7779388 3.2783267 1.0521784 14
nan nan nan nan
7.0812063 4.0063515 1.8783414 100
nan nan nan nan
1.8326038 1.0292505 -0.56319028 12
2.0055315 1.1249915 -0.5308845 11
2.2045429 1.2346034 -0.49114239 11
2.4136188 1.3500321 -0.43801656 9
2.7312078 1.5257953 -0.38413221 9
3.0952446 1.7270395 -0.31010011 6
3.6501439 2.0333118 -0.21897365 7
4.2550368 2.3673491 -0.084993221 15
5.5612097 3.1208086 0.11131145 13
7.0770578 3.966593 0.42517737 8
5.8640323 3.2826755 0.58795261 13
5.8673654 3.2791603 0.82529926 18
5.8265576 3.2523513 1.0568714 19
7.147161 3.9845982 1.5905839 55
nan nan nan nan
nan nan nan nan
1.8397442 1.0164323 -0.56319028 11
2.0082173 1.1081394 -0.52953482 11
2.2077367 1.2167273 -0.48999751 9
2.4227517 1.3335729 -0.43801656 9
2.720917 1.4952185 -0.38120735 8
3.1072261 1.7053884 -0.31010011 7
3.6568933 2.0045805 -0.21855497 7
4.2872467 2.3462274 -0.08530736 7
5.5315609 3.0548446 0.11029921 13
7.0846577 3.9077146 0.42402595 11
7.0753398 3.8961358 0.70665878 1
5.8965073 3.2429729 0.82627422 12
5.8502922 3.213567 1.0571842 21
7.1438179 3.9176161 1.5837147 69
nan nan nan nan
10.199549 5.5794587 3.1151462 1
1.8534095 1.0075758 -0.56526077 12
2.0140016 1.0935133 -0.52908486 10
2.2161775 1.2012846 -0.48999751 9
2.4354777 1.3185062 -0.43864229 9
2.7415082 1.4823279 -0.38266978 9
3.1365879 1.6931199 -0.31184325 6
3.6813459 1.9846902 -0.21918301 7
4.2714243 2.2999282 -0.084679075 10
5.5246358 3.0008836 0.10974073 11
7.155653 3.8819726 0.42664275 17
7.0666595 3.8289056 0.70317256 2
5.9294796 3.2073951 0.82773668 2
5.956007 3.2177145 1.072202 16
7.1357656 3.8502502 1.5760823 70
10.130974 5.4572496 2.656672 2
10.258665 5.5191054 3.1213577 1
1.8535837 0.99096978 -0.56319028 12
2.0233052 1.0803452 -0.52953482 11
2.2193129 1.183012 -0.48885265 9
2.4481103 1.3033278 -0.43926802 9
2.7430265 1.4584928 -0.38145107 9
3.1272137 1.6599714 -0.30975151 3
3.6774669 1.9495845 -0.2181363 7
4.248498 2.249464 -0.083911166 22
5.541924 2.960357 0.10967092 11
7.1720066 3.8262811 0.42601472 31
7.0580511 3.7607396 0.69968635 2
7.0330615 3.7411232 0.97812337 2
6.9691873 3.7024662 1.2499115 10
7.1329875 3.7847002 1.569595 57
10.223932 5.4155784 2.6710689 2
10.211566 5.4021831 3.0954759 1
1.8450668 0.96991491 -0.55853152 12
2.0273473 1.0643818 -0.52863503 11
2.2153451 1.1611108 -0.48618135 9
2.4466488 1.2807096 -0.43739083 9
2.7531409 1.4393085 -0.38145107 9
3.1349089 1.6368009 -0.30940288 7
3.6839037 1.9201708 -0.2177176 7
4.265873 2.2206726 -0.083946079 21
5.502264 2.8899798 0.10848416 14
7.1454859 3.7482808 0.42287454 23
7.0541325 3.6956515 0.69672298 2
7.0343809 3.6790521 0.97471106 3
6.9703526 3.640918 1.2455313 10
7.1192007 3.7139246 1.5608176 68
10.200068 5.3143506 2.6553226 2
10.57124 5.4983501 3.1927919 1
1.8517931 0.95701027 -0.55853152 12
2.0208752 1.043052 -0.5250358 10
2.2319224 1.1505021 -0.48808944 11
2.4553094 1.2640262 -0.43739083 9
2.7701845 1.4236826 -0.38242605 9
3.1356237 1.6094179 -0.308357 7
3.7004421 1.8968744 -0.21792693 7
4.2955132 2.1981246 -0.084225312 14
5.5502343 2.8671446 0.10904264 11
7.1371088 3.6821609 0.42088583 25
7.0478764 3.6298966 0.6935854 2
7.0098357 3.6056581 0.96788639 3
6.9598341 3.5753319 1.239274 10
7.1047778 3.6435244 1.5520406 73
10.393026 5.322957 2.6958134 1
10.694418 5.4702539 3.2186739 2
1.8685976 0.94963479 -0.56163734 12
2.0209775 1.0257442 -0.52323622 9
2.2328956 1.1313421 -0.48656297 12
2.4623122 1.245961 -0.43707794 10
2.7620947 1.3958387 -0.37998864 9
3.1571786 1.5934218 -0.30940288 7
3.702893 1.8656026 -0.21729892 7
4.3443151 2.1859148 -0.08488851 16
5.3311925 2.7070093 0.10436539 8
7.1181078 3.6096616 0.41826901 19
7.0457597 3.5683367 0.69097072 3
6.9958606 3.5369313 0.96252412 3
6.9599366 3.5141945 1.2348938 10
7.1048694 3.5827067 1.5466977 76
10.293257 5.1837273 2.6607213 2
nan nan nan nan
1.8751819 0.93656635 -0.56163734 12
2.0333207 1.0142195 -0.52458584 10
2.2352722 1.1134918 -0.48541811 12
2.4725041 1.2300527 -0.43739083 10
2.7717714 1.3765229 -0.37998864 9
3.1682253 1.5713433 -0.30940288 6
3.7011876 1.8332626 -0.21646154 7
4.3379598 2.1448944 -0.084469646 19
5.5391426 2.765337 0.1080653 11
7.1014032 3.5406294 0.41586155 11
7.0437422 3.5057478 0.68835604 3
7.0019994 3.4803908 0.96008676 3
6.9306169 3.4403853 1.2255077 5
7.1050811 3.5208142 1.5413551 64
10.737891 5.3139973 2.7659984 2
nan nan nan nan
1.8696949 0.91716832 -0.55801392 12
2.0335262 0.99621421 -0.52278626 10
2.2327924 1.0919017 -0.4831284 13
2.4796793 1.2110283 -0.43707794 10
2.7815509 1.3566533 -0.37998864 9
3.165328 1.5410997 -0.3080084 4
3.7306933 1.8139406 -0.21740359 7
4.3567953 2.1155446 -0.084539458 17
5.5538764 2.7220213 0.10796059 11
7.1074309 3.4788232 0.41471016 22
7.038219 3.4403799 0.68539274 7
7.0041299 3.4176567 0.95691812 3
6.934339 3.3791084 1.2217534 10
7.1036143 3.456995 1.5356308 67
20.585537 10.000245 5.2836509 9
nan nan nan nan
1.8725715 0.90241659 -0.55697864 10
2.0474548 0.98537451 -0.52458584 10
2.2474394 1.0796878 -0.4846549 12
2.4880736 1.1936874 -0.43707794 10
2.8016956 1.3423477 -0.38145107 9
3.1652253 1.5138061 -0.30696252 7
3.7414632 1.7869924 -0.21729892 7
4.3804817 2.0893834 -0.084713981 12
5.475451 2.6363366 0.10607573 11
7.1261468 3.4265196 0.41439614 30
7.0351272 3.3782201 0.68277812 8
7.0117087 3.3609533 0.95472455 1
6.936379 3.3203802 1.2179989 10
7.0886078 3.38869 1.5272354 68
20.816654 9.9334993 5.3250418 9
nan nan nan nan
1.8770796 0.88849503 -0.55646098 10
2.0437133 0.9660598 -0.52188647 10
2.2513711 1.0622959 -0.48389161 10
2.4856248 1.1712362 -0.43520072 10
2.8074064 1.3210652 -0.38096359 9
3.1937499 1.5001423 -0.30870563 4
3.7393816 1.7540429 -0.21646154 7
4.402205 2.062144 -0.084853604 18
5.4756465 2.5894947 0.10572667 13
7.0921035 3.3493931 0.41104665 16
7.0369158 3.3188243 0.68068635 11
6.9811196 3.2865577 0.94741231 2
6.9254246 3.2559054 1.2120544 12
7.0747719 3.3215978 1.5192213 76
21.076071 9.8772421 5.373631 10
nan nan nan nan
1.8849893 0.87618238 -0.55697864 10
2.0433378 0.94848549 -0.52008688 10
2.2605135 1.0473789 -0.48427325 10
2.4991188 1.1563444 -0.43613935 9
2.805748 1.2964389 -0.37950116 9
3.1932898 1.4728026 -0.30765978 6
3.7442799 1.7245523 -0.21604285 7
4.4055939 2.0263472 -0.084644176 8
5.4881501 2.5486779 0.10562197 13
7.1116896 3.2981186 0.41083729 33
7.0346036 3.2578945 0.67824602 12
6.9498391 3.2127481 0.94010019 2
6.9282589 3.1983705 1.2086128 12
7.0746112 3.2614405 1.5142603 81
21.279051 9.7917833 5.4078236 10
nan nan nan nan
1.89809 0.86620939 -0.55904913 10
2.0481365 0.93338913 -0.51963699 10
2.2534742 1.0250688 -0.4812203 11
2.5071311 1.138868 -0.43613935 9
2.8147309 1.2768183 -0.37950116 9
3.2068708 1.4526765 -0.3080084 9
3.7671468 1.7033091 -0.21667089 7
4.3941164 1.9840221 -0.0841555 12
5.4275699 2.474632 0.10412105 9
7.0636487 3.2161155 0.40675509 22
7.0354095 3.1988118 0.67615426 13
6.9612522 3.1592283 0.93863773 2
6.9072371 3.1303542 1.2011039 10
7.0721674 3.2006383 1.5089177 83
nan nan nan nan
nan nan nan nan
1.8864603 0.8450405 -0.55387276 9
2.0563812 0.9198643 -0.52008688 10
2.2550216 1.007304 -0.48007545 10
2.5130205 1.1209724 -0.43582645 10
2.8253899 1.257944 -0.37974492 8
3.2096517 1.4270153 -0.30731115 9
3.758574 1.6687105 -0.21551949 5
4.3950634 1.9476237 -0.083911166 1
5.3530345 2.396769 0.10237581 24
7.0835547 3.1671417 0.40665042 27
7.0230007 3.1341901 0.67284232 18
6.946331 3.095614 0.93376297 2
6.8634129 3.0543559 1.1898407 1
nan nan nan nan
nan nan nan nan
6.9152184 3.0629628 2.0265532 43
1.8939366 0.83295888 -0.55439043 12
2.064379 0.90663028 -0.52053678 10
2.260201 0.99074823 -0.47969386 11
2.5063086 1.0970643 -0.43332353 10
2.8266103 1.235504 -0.37876993 6
3.204926 1.398201 -0.30591667 7
3.7811182 1.6472181 -0.21614751 5
4.3293691 1.8833636 -0.082410261 5
5.3366818 2.3448625 0.10174754 13
7.0469651 3.0919361 0.40330091 15
6.9912491 3.0631258 0.66778725 6
4.3414454 1.8985344 0.58180428 1
4.2940316 1.8751227 0.74212521 6
7.0544381 3.0761437 1.4959426 12
nan nan nan nan
6.9009981 2.9992104 2.0162005 41
1.8961581 0.81818461 -0.5533551 12
2.0617101 0.88833946 -0.51828724 10
2.2760804 0.97882295 -0.48160195 10
2.508461 1.0772017 -0.43238491 10
2.8351669 1.2157406 -0.37876993 8
3.2255993 1.3804958 -0.30696252 9
3.7741597 1.6129318 -0.2151008 7
4.4214983 1.8868426 -0.083911166 1
5.3859758 2.3217974 0.10237581 9
nan nan nan nan
4.3601384 1.8741655 0.41520998 3
4.3181071 1.8525285 0.57692951 1
6.894495 2.953562 1.1879635 8
7.0360298 3.0098355 1.487547 24
4.2404079 1.8104359 1.0644685 1
nan nan nan nan
1.9036032 0.80568004 -0.55387276 12
2.0642717 0.8724072 -0.51738745 11
2.2882853 0.96519804 -0.48274681 10
2.5195613 1.0611967 -0.43301064 10
2.8454154 1.1966873 -0.37901369 9
3.2278099 1.3548588 -0.30626526 9
3.7798026 1.5842279 -0.21478678 7
4.4124279 1.8466647 -0.083492316 1
4.4424663 1.8783991 0.084190413 1
6.9514499 2.9349782 0.39545053 2
7.0094695 2.9551516 0.6655212 10
nan nan nan nan
4.2797275 1.7981536 0.73524207 1
7.0496292 2.9576032 1.4860206 58
19.388096 8.1181746 4.8526444 8
nan nan nan nan
1.9145343 0.79459238 -0.5554257 12
2.0685115 0.85722846 -0.51693755 10
2.2822683 0.94394678 -0.48007545 10
2.5287342 1.044335 -0.43332353 10
2.84636 1.1737664 -0.37803873 9
3.23719 1.3322915 -0.30626526 9
3.7796857 1.5532463 -0.21415874 5
4.447412 1.8249245 -0.083911166 1
5.4437284 2.2570956 0.10286448 4
nan nan nan nan
nan nan nan nan
nan nan nan nan
6.8766141 2.8329329 1.1779517 10
7.0392394 2.8956187 1.479533 76
19.364979 7.9500585 4.832849 8
nan nan nan nan
1.9128767 0.77829558 -0.5533551 12
2.0762508 0.84350115 -0.51738745 10
2.272428 0.92135149 -0.47664091 9
2.5377941 1.0273969 -0.43363637 9
2.8508039 1.1523784 -0.37755126 9
3.242717 1.3081683 -0.30591667 9
3.7904375 1.5268213 -0.21415874 5
4.343163 1.7468216 -0.081712164 7
nan nan nan nan
4.3194146 1.753054 0.24430427 1
4.2303972 1.7143468 0.3993476 2
4.2087331 1.7021502 0.55743045 1
6.8705797 2.7745039 1.1735715 12
7.0410733 2.8390665 1.4757168 85
19.405544 7.8088517 4.8292494 8
nan nan nan nan
1.9057026 0.75991338 -0.54973167 12
2.0820889 0.82898563 -0.51738745 11
2.2861025 0.90836543 -0.47816736 10
2.5357239 1.0060136 -0.43207204 10
2.8661616 1.1353737 -0.37852621 9
3.2369478 1.2796382 -0.30452216 6
3.7917159 1.4966555 -0.2136354 5
4.3347878 1.7083926 -0.081328213 7
4.3099198 1.7168677 0.080979168 1
nan nan nan nan
4.2422624 1.6847712 0.3993476 1
4.1282425 1.6361537 0.54524344 1
6.860395 2.7148376 1.1685656 10
7.026032 2.7761307 1.4684662 83
19.524851 7.6989293 4.8454461 8
nan nan nan nan
1.9163601 0.74869877 -0.55128461 10
