# .PCD v0.7 - Point Cloud Data file format
VERSION 0.7
FIELDS x y z intensity
SIZE 4 4 4 4
TYPE F F F F
COUNT 1 1 1 1
WIDTH 1429
HEIGHT 1
VIEWPOINT 0 0 0 1 0 0 0
POINTS 1429
DATA ascii
1.0285499 2.5689576 -0.63886106 28
1.1286607 2.8133061 -0.5892182 31
1.2696766 3.1600144 -0.53938609 15
1.4406164 3.5800359 -0.47382805 26
1.716646 4.2574053 -0.40161365 17
2.0005329 4.9539852 -0.27999741 4
2.5761263 6.3697391 -0.11993293 21
3.927958 9.815629 0.18454175 1
4.6505127 11.603614 0.65514159 8
4.640039 11.559949 1.0897954 19
13.999917 34.80835 4.6066618 15
4.466064 11.087317 1.8931701 22
nan nan nan nan
4.1409469 10.244063 2.550945 42
4.1807003 10.326827 2.985219 28
0.95580244 2.3432913 -0.67810595 50
1.0405639 2.547282 -0.63526183 27
1.1423228 2.790823 -0.58616525 21
1.2909573 3.1492455 -0.53907323 16
1.4565295 3.5478542 -0.47090316 27
1.7053968 4.1458173 -0.39220083 29
2.0868022 5.0654731 -0.28711507 14
2.6289222 6.3719335 -0.12031689 18
4.3229327 10.587741 0.19962063 7
4.7624011 11.64666 0.65943313 6
4.7289352 11.547556 1.0917128 19
8.900485 21.690847 2.878798 32
4.5441103 11.057695 1.893483 12
4.2380466 10.297577 2.1645374 28
4.1967669 10.17707 2.5414972 44
4.2239337 10.227752 2.9650311 42
0.96694386 2.3240762 -0.67448246 74
1.0448306 2.5075765 -0.62716359 29
1.1527034 2.761039 -0.58158582 30
1.2984339 3.1055288 -0.53312874 17
1.4827945 3.5412621 -0.47139066 28
1.717339 4.0933919 -0.38836598 22
2.1012287 5.0010638 -0.28428894 23
2.6516302 6.3018146 -0.11933956 10
4.0338678 9.6859903 0.18314555 5
4.9358473 11.834332 0.67199373 3
4.8777752 11.677884 1.1072265 17
8.9965191 21.496336 2.8612487 72
4.4738255 10.674088 1.8330992 18
4.3235111 10.300323 2.1714065 30
4.2087812 10.00741 2.5064046 12
4.5936761 10.906609 3.171051 15
0.98088062 2.311934 -0.67292953 40
1.060786 2.4966345 -0.6262638 29
1.1704131 2.7493117 -0.58082259 30
1.3138853 3.0818512 -0.53062576 17
1.5144961 3.5472546 -0.47358429 16
1.7450926 4.0794702 -0.38819164 22
2.1242921 4.9587359 -0.28271887 23
2.671905 6.2280188 -0.11829241 10
4.3405795 10.220816 0.19382644 14
5.1840672 12.189228 0.69418418 9
4.9334249 11.583054 1.1014743 17
9.1370115 21.411097 2.8583238 24
4.5280476 10.59537 1.8249646 18
4.4486103 10.394428 2.1977382 28
4.5880494 10.699566 2.6877155 26
4.072844 9.4843683 2.7657404 38
1.0015986 2.3156686 -0.6760354 50
1.0642478 2.4569805 -0.61816555 31
1.1911403 2.7446761 -0.58158582 28
1.3322178 3.0653572 -0.5293743 17
1.5281314 3.5111136 -0.47017199 13
1.8006824 4.1314225 -0.39429256 17
2.1276867 4.8724008 -0.27863666 28
2.686476 6.1432552 -0.11703584 7
4.3228502 9.9847307 0.1899171 10
5.2602983 12.132581 0.6930328 3
5.1212931 11.79505 1.1250063 13
9.3211107 21.426884 2.8690484 8
4.6224241 10.610583 1.8330992 19
4.3161769 9.8934555 2.0981357 15
4.5242414 10.355581 2.6089826 22
4.0839577 9.3300514 2.7289882 24
1.0107282 2.2927098 -0.67137665 38
1.0868852 2.4619694 -0.62131482 24
1.2042396 2.7239349 -0.57891452 26
1.3442572 3.0363488 -0.52593273 17
1.5413381 3.4749553 -0.46675962 22
1.8246266 4.1078267 -0.39324668 21
2.1583655 4.8523312 -0.27832264 35
2.699995 6.0585957 -0.11577927 10
4.3221169 9.7995567 0.18695019 12
5.213644 11.804179 0.67628533 24
5.2341452 11.828246 1.1316301 13
4.6831117 10.568038 1.4192905 35
4.6753116 10.535541 1.8255905 21
4.4114614 9.9222813 2.1107292 11
4.5147867 10.140376 2.5626426 16
4.5155363 10.127787 2.9712427 16
1.027101 2.2875397 -0.67189431 34
1.1020187 2.4509599 -0.62041503 28
1.2216142 2.7118812 -0.57815129 30
1.3451154 2.9818738 -0.51811105 21
1.5682262 3.4716189 -0.46773461 16
1.8483332 4.0840964 -0.39220083 21
2.1789997 4.8080373 -0.2766479 23
2.7122483 5.9763441 -0.11455759 17
4.2076278 9.362401 0.17916641 10
5.3459258 11.878593 0.6826703 9
5.2736053 11.701523 1.1229146 13
4.6955037 10.399396 1.40101 27
4.8146653 10.648441 1.8509328 18
4.7040129 10.389222 2.216819 44
4.6965642 10.353517 2.6247289 74
4.5821366 10.08722 2.9686544 22
1.0325996 2.2574751 -0.66516501 48
1.1215374 2.4485219 -0.62176478 42
1.2413344 2.7050714 -0.57853287 27
1.3832198 3.0101047 -0.52468127 26
1.5874438 3.4497666 -0.46627215 22
1.8717959 4.0602374 -0.39115497 23
2.1957705 4.7564406 -0.27455446 27
2.7220192 5.888288 -0.11323121 15
4.2329297 9.2455244 0.17749096 5
5.4753428 11.94265 0.68853194 9
5.3809443 11.720551 1.1283183 4
4.7207093 10.263565 1.387117 40
4.6872501 10.176781 1.7745929 15
4.6966705 10.183199 2.1798022 31
nan nan nan nan
7.7675915 16.787535 4.9563851 13
1.0450701 2.243207 -0.6630944 46
1.1344835 2.431803 -0.61951524 43
1.2527078 2.6803322 -0.57509834 31
1.3941526 2.978905 -0.52092683 25
1.617988 3.4509001 -0.46797833 19
1.8848526 4.0146084 -0.38801736 22
2.2119257 4.7048469 -0.27246103 27
2.7555647 5.8505683 -0.11288217 15
4.2999077 9.2211847 0.17759569 7
5.5239325 11.82994 0.68424034 9
4.9537544 10.594384 1.0232084 20
4.8596182 10.374166 1.4066161 40
4.696949 10.013254 1.7517534 9
4.7001157 10.001851 2.1481278 11
4.7236686 10.038314 2.5612929 78
5.3574119 11.369633 3.3677537 6
1.0668937 2.2478883 -0.66671789 43
1.160221 2.4412231 -0.62401426 43
1.2756066 2.6803858 -0.57700646 42
1.4145834 2.9670691 -0.52061397 26
1.6428958 3.4413118 -0.46822205 13
1.9085376 3.9923642 -0.38714582 18
2.2403605 4.6780906 -0.27183297 20
2.7116017 5.6544871 -0.10946149 16
4.2852669 9.0247517 0.17438444 12
5.6496263 11.876681 0.68926466 18
5.1031246 10.713358 1.0381992 11
4.8977365 10.268321 1.3968666 11
4.7258987 9.8902693 1.7361099 7
3.4123495 7.1316981 1.5367758 7
4.8214254 10.063085 2.5761397 30
4.4522228 9.2758884 2.7569406 31
1.0775191 2.229948 -0.66361207 42
1.1636565 2.4049962 -0.61681581 31
1.2904739 2.6623552 -0.57509834 36
1.4344006 2.9553444 -0.5203011 32
1.6399814 3.3744109 -0.46066615 19
1.9250289 3.955653 -0.38487977 22
2.2458329 4.6066823 -0.26858816 24
2.7185538 5.5689297 -0.10817002 7
4.0136685 8.298975 0.16091119 6
5.1012731 10.533716 0.61337745 2
5.0552158 10.424695 1.0136212 5
4.9077687 10.102665 1.3790736 13
4.9322157 10.139479 1.785856 16
3.6546266 7.5030656 1.6222582 22
4.8514061 9.9468603 2.5549943 26
7.6997228 15.758829 4.6996365 20
1.0896503 2.2154372 -0.66154152 45
1.1838622 2.4038067 -0.61861545 33
1.3016195 2.6394231 -0.57204539 24
1.4466121 2.9295712 -0.51748526 27
1.6714206 3.3788929 -0.46285981 24
1.940217 3.9171219 -0.38243937 20
2.2851243 4.6073918 -0.26953021 20
2.6959727 5.4262466 -0.10576159 14
4.5600576 9.2672691 0.18028337 15
5.098701 10.348258 0.60458505 20
5.1455078 10.424882 1.0171075 15
5.2657895 10.654516 1.4592637 10
4.7812028 9.6612921 1.7073259 13
3.6572142 7.3771081 1.6005059 13
4.777761 9.6247406 2.4807606 22
4.4859676 9.0250587 2.7005181 20
1.1029752 2.204514 -0.66050619 58
1.1940857 2.383497 -0.61546612 31
1.3120891 2.6144798 -0.56861085 36
1.468803 2.9229307 -0.51811105 36
1.679213 3.3372922 -0.45871624 27
1.9515953 3.8735759 -0.3794761 30
2.3055358 4.5681467 -0.26816946 27
2.7806478 5.5023613 -0.10761154 19
4.4160247 8.818594 0.17215054 14
5.1600833 10.290983 0.603329 2
5.2002573 10.357566 1.0139699 15
5.0144811 9.9701967 1.370299 9
4.8343143 9.5994511 1.7023201 18
4.9325128 9.7816896 2.1294286 5
4.7526951 9.4128189 2.4344206 32
7.6494522 15.123663 4.5412393 11
1.1183387 2.1967602 -0.66050619 67
1.2045015 2.3629491 -0.61231679 38
1.3316401 2.6089854 -0.56937408 25
1.4688879 2.8741677 -0.51122791 26
1.7051831 3.3307896 -0.45944747 16
1.9667733 3.8368084 -0.37721002 26
2.3210704 4.5221419 -0.26639003 22
2.8162506 5.4774795 -0.10750683 16
4.4686842 8.7740774 0.1718713 11
5.1773806 10.152427 0.59725797 23
5.208993 10.196809 1.0017681 3
4.9529638 9.6831036 1.3354443 3
4.8896432 9.5469799 1.6988785 15
nan nan nan nan
3.6241827 7.0549254 1.8311017 12
4.9325066 9.589386 2.889456 17
1.1190555 2.1616476 -0.65222406 37
1.2277322 2.3685367 -0.61591601 33
1.3416793 2.5839436 -0.56593949 32
1.5044081 2.8936379 -0.51654667 22
1.7177345 3.2997358 -0.45676634 23
1.9870647 3.8106172 -0.37598985 24
2.3387208 4.47927 -0.26481998 15
2.8228965 5.3997021 -0.10635497 16
4.4212761 8.5331545 0.16775253 11
5.2435331 10.10717 0.59673464 8
5.1597958 9.9330368 0.97928184 1
5.0488443 9.7028818 1.3430003 14
5.0593095 9.7105732 1.7342327 4
3.8019998 7.2880449 1.5978346 11
3.6489785 6.9828191 1.8189543 34
nan nan nan nan
1.1359196 2.1572008 -0.65325934 34
1.2406023 2.3530123 -0.61411637 38
1.3578511 2.5710428 -0.56517625 34
1.5079499 2.8516331 -0.51091504 18
1.7323676 3.2718751 -0.45457271 37
2.0080183 3.7860909 -0.37494397 20
2.3689981 4.4610691 -0.26471528 13
2.8201563 5.3039412 -0.10485406 21
4.4359932 8.4171638 0.16607711 11
5.0623012 9.5933838 0.56847322 14
5.2467051 9.9302406 0.98259377 14
3.5954514 6.7934966 0.94375628 8
5.4571848 10.298141 1.8459269 10
3.7350042 7.0393395 1.5489874 23
3.6766 6.9175973 1.8086065 31
nan nan nan nan
1.1454798 2.1389999 -0.65015346 37
1.2487112 2.3288372 -0.61006731 41
1.3571883 2.5269089 -0.55754393 29
1.5296925 2.8445156 -0.51154077 23
1.7448151 3.2404749 -0.45189157 20
2.0356321 3.7758436 -0.37529263 13
2.3953371 4.435636 -0.26419193 9
2.8228738 5.2207999 -0.10359748 22
4.4729171 8.3454542 0.16527429 13
5.5352483 10.31455 0.61348212 8
5.6346455 10.486588 1.0415112 5
3.6688843 6.8195624 0.95082474 13
4.1738896 7.7452712 1.3935183 3
3.7299898 6.9128799 1.5268538 24
5.4112687 10.016283 2.6283283 6
5.19034 9.5953264 2.9231024 2
1.1655545 2.1413341 -0.65325934 30
1.2636017 2.3185725 -0.60961735 33
1.3856455 2.538291 -0.5621233 29
1.5253339 2.7907035 -0.50371903 27
1.7754087 3.2441957 -0.4540852 19
2.0325644 3.7094817 -0.37006328 16
2.4100988 4.3912144 -0.26251718 15
2.8766458 5.2347608 -0.10426068 22
4.0675697 7.4666514 0.14841527 11
5.5020404 10.087268 0.60217756 14
3.7854674 6.9315214 0.69097072 6
3.7085521 6.782239 0.94911855 3
3.9124155 7.1432166 1.2899587 1
nan nan nan nan
3.6456873 6.6397171 1.7487695 46
4.9176931 8.9452572 2.7351999 27
1.1810372 2.1350415 -0.65377688 29
1.2755767 2.3030994 -0.60781777 34
1.3867002 2.4996154 -0.55563581 30
1.5347022 2.7629871 -0.50059032 25
1.8009096 3.2369263 -0.45481643 23
2.0496857 3.6795363 -0.36849448 24
2.4175572 4.334589 -0.26010972 12
2.9248219 5.2355003 -0.10467953 22
3.8761604 7.001421 0.13968907 1
5.5734801 10.054824 0.60249156 8
5.4201159 9.7660847 0.9771902 14
5.2305498 9.4090347 1.321795 10
4.4547448 8.0035992 1.4507734 3
3.6547775 6.5555673 1.4589256 10
3.664408 6.5647578 1.7357225 31
5.1883097 9.283391 2.8495977 4
1.1953379 2.1248522 -0.65325934 37
1.2757667 2.2650478 -0.60016948 31
1.3973652 2.4779034 -0.55296451 28
1.5690074 2.7777343 -0.50528342 22
1.8078285 3.1966281 -0.45091662 27
2.0792506 3.6720719 -0.36919171 18
2.4435861 4.3084917 -0.25958636 8
2.9524145 5.1993041 -0.10436539 20
4.0916724 7.2704453 0.14562289 11
5.5599613 9.8633146 0.5933851 8
5.4908409 9.7287846 0.97736448 15
3.7726114 6.6762218 0.94156259 22
5.2387462 9.2556944 1.6844865 10
3.609468 6.3693347 1.4230535 10
3.7101526 6.5390134 1.7357225 23
5.2641521 9.2628222 2.8547742 34
1.2130198 2.1214864 -0.65481222 46
1.2934861 2.2594678 -0.60106927 27
1.4326392 2.498497 -0.55983365 19
1.5913105 2.7718527 -0.50622195 26
1.8202072 3.1667194 -0.44847921 27
2.1064684 3.6588261 -0.36936605 16
2.4446807 4.2411466 -0.25655088 21
2.9596541 5.1283388 -0.10335316 22
4.0840015 7.1368418 0.14352858 17
5.6842866 9.9213057 0.59924674 14
5.5715141 9.7126808 0.97963053 38
2.591032 4.5095844 0.6385954 3
nan nan nan nan
3.6538463 6.3439808 1.4230535 3
3.7587907 6.5156765 1.7366222 27
5.3364153 9.2392311 2.8589153 17
1.227802 2.1129658 -0.65481222 49
1.3239281 2.2756486 -0.60781777 30
1.425336 2.4460275 -0.55029315 33
1.6235636 2.7828567 -0.51028925 15
1.8432735 3.1556482 -0.44872296 33
2.0967443 3.5838423 -0.36326513 24
2.4651425 4.208467 -0.25560883 14
2.9832425 5.086853 -0.10293429 20
4.1226649 7.0891433 0.14314464 29
4.190691 7.197444 0.43648189 5
5.5227852 9.4738836 0.95941037 7
2.5663993 4.3953867 0.62494606 15
3.8860331 6.6474838 1.2195632 40
nan nan nan nan
3.8800771 6.6187239 1.7712648 27
5.4535975 9.2917166 2.8868678 17
1.2346644 2.0910349 -0.65067112 39
1.3516821 2.2864814 -0.61321658 23
1.4553825 2.457978 -0.55525422 19
1.6026602 2.7034838 -0.49777454 22
1.8713384 3.1529453 -0.45018539 33
2.1176407 3.5622668 -0.3625679 24
2.4648399 4.1413822 -0.25257334 2
3.0074227 5.0470061 -0.10255034 20
4.1201725 6.9723887 0.1413645 32
4.1808338 7.0665932 0.43030626 17
2.5486674 4.3027058 0.43752185 11
2.5625825 4.3193178 0.61665893 13
5.4808669 9.2271709 1.6998171 10
4.07623 6.8542552 1.5501324 12
3.8424203 6.4508381 1.7334729 53
3.8461108 6.4493508 2.0120592 23
1.2502264 2.0840211 -0.65118873 45
1.3435307 2.2368956 -0.60241896 10
1.485662 2.4696283 -0.56021523 39
1.6265895 2.7006912 -0.49933887 27
1.8758767 3.1109059 -0.44604182 19
2.13113 3.5286345 -0.36065045 33
2.4895604 4.1172357 -0.25215468 6
3.0363729 5.0156221 -0.10234091 20
4.1388984 6.8937364 0.14035226 27
2.6022472 4.3291569 0.26471528 3
2.4389243 4.0526428 0.41381544 11
2.5578322 4.2435179 0.60837179 20
5.9421821 9.8465881 1.8215232 48
3.8366642 6.3500886 1.4421345 16
3.9458797 6.5205555 1.7595673 27
4.1803422 6.8998461 2.1616566 6
1.2607237 2.0686436 -0.64911819 42
1.3611444 2.2307887 -0.60331875 30
1.4895585 2.4374187 -0.55525422 24
1.6454045 2.6892695 -0.49933887 26
1.875774 3.0621862 -0.44092333 30
2.151545 3.5068779 -0.35995319 31
2.4962909 4.0640163 -0.24995655 21
3.066077 4.985785 -0.10216638 22
4.1994195 6.885159 0.14077111 26
2.6282434 4.3040662 0.26429659 13
2.390254 3.9097259 0.40091643 27
2.5480039 4.1612263 0.59910977 13
4.472465 7.2955456 1.3553483 28
4.0708914 6.6326966 1.5127338 21
3.9484396 6.4231248 1.7406714 48
4.2375202 6.8853035 2.1663156 15
1.2700496 2.0515792 -0.64653003 30
1.384897 2.2344835 -0.60691798 38
1.4951488 2.408612 -0.55105644 25
1.6662242 2.6810725 -0.49996459 26
1.9149343 3.0776691 -0.44506687 27
2.1749198 3.4900818 -0.35977891 22
2.5023992 4.0109067 -0.24775843 18
3.0827978 4.9354272 -0.10157301 20
4.2252693 6.8199763 0.1400381 16
2.4529386 3.9546447 0.24388559 16
2.3449662 3.7761552 0.38888893 17
2.5308642 4.0691657 0.58838522 11
4.268518 6.8549891 1.2790084 43
4.1939583 6.7273984 1.5409735 46
3.9931855 6.3954029 1.7406714 34
5.4712906 8.7525015 2.7657404 18
1.2812574 2.0377557 -0.64497709 33
1.3952731 2.2165141 -0.6046685 14
1.4920326 2.3665617 -0.54380566 15
1.6870085 2.6727164 -0.50059032 30
1.9353118 3.0625479 -0.44482315 22
2.1896422 3.459661 -0.35821009 28
2.5249951 3.9849036 -0.24723509 16
3.1043241 4.8935223 -0.10115415 24
2.7157488 4.3158765 0.089007273 10
2.4432271 3.8782775 0.24022207 15
2.3787112 3.7714884 0.39010909 27
2.6047955 4.1235662 0.59886599 25
4.3226023 6.8350415 1.2808856 31
3.9152484 6.1837511 1.4226719 31
4.0773969 6.4299059 1.7577677 34
5.7517743 9.0598469 2.8754797 10
1.2944126 2.0271327 -0.64445943 30
1.405465 2.1985097 -0.60241896 34
1.5243984 2.380888 -0.54952991 18
1.7024298 2.655884 -0.49965176 22
1.9448533 3.0305841 -0.44214204 16
2.186811 3.4023888 -0.35385233 19
2.5473492 3.9587803 -0.24671172 6
3.136246 4.8683686 -0.10108434 15
2.5035338 3.9176824 0.081153691 13
2.3712161 3.7063458 0.23059224 15
2.3405051 3.6541266 0.37965041 13
2.5885026 4.0351052 0.58862901 13
nan nan nan nan
4.0390191 6.2817698 1.4516749 20
4.1612215 6.4619069 1.7744141 23
5.9739904 9.2662706 2.9541607 18
1.3092309 2.019897 -0.64497709 31
1.4140315 2.1790843 -0.59971952 31
1.5437777 2.3753955 -0.5506748 29
1.706462 2.6227102 -0.49558446 25
1.9459343 2.9873359 -0.43775472 16
2.2088306 3.3857558 -0.35367799 15
2.536011 3.882823 -0.24304819 14
2.6582377 4.0653105 -0.084783792 9
2.5410268 3.9173262 0.081502736 11
2.4040055 3.7018433 0.23132494 16
2.3370893 3.5946794 0.37511832 23
2.5227542 3.8743296 0.56766742 22
6.5383468 10.029804 1.8962989 16
nan nan nan nan
4.035583 6.1740723 1.7028795 19
5.7671843 8.8131838 2.8221629 36
1.3264875 2.015548 -0.64653003 35
1.4281389 2.1675313 -0.59926963 31
1.5484291 2.3465352 -0.54647696 21
1.7475961 2.645345 -0.50215465 16
1.9623606 2.967056 -0.43677977 17
2.2357147 3.375236 -0.35420093 21
2.5211115 3.8017719 -0.23907068 14
2.6080258 3.9283693 -0.082305551 29
2.540813 3.8577416 0.080630124 13
2.4473803 3.7116497 0.2329997 13
2.3731027 3.5949047 0.37686142 36
2.5530248 3.8615909 0.56839865 13
6.3399992 9.5786924 1.819333 7
4.1436825 6.253305 1.4581624 11
4.1949654 6.3211088 1.751469 31
6.8195996 10.264324 3.3020134 16
1.338379 2.0030265 -0.64549476 35
1.4204816 2.1234941 -0.5898217 24
1.5614961 2.3307738 -0.54533213 31
1.7539195 2.6150331 -0.49871314 20
2.0051601 2.9862435 -0.44165453 12
2.2475224 3.3434048 -0.35245782 21
2.5330896 3.7625415 -0.23770994 14
2.5426219 3.7724357 -0.079408452 14
2.3809428 3.5606434 0.074766114 27
2.3676815 3.5368028 0.22305585 27
2.3681927 3.5335624 0.37215498 16
2.5046926 3.7315938 0.55182445 23
6.313067 9.3948336 1.7927393 7
4.2014837 6.2454004 1.4631234 21
4.2683754 6.3376656 1.7640663 46
6.2278013 9.2330952 2.9841838 8
1.338232 1.9728504 -0.63876545 40
1.4560727 2.1441565 -0.59836984 29
1.5718051 2.311974 -0.54342401 31
1.7650086 2.5932364 -0.49683592 25
2.0304315 2.9787333 -0.44262949 12
2.2719319 3.3292782 -0.35263211 14
2.5811765 3.778194 -0.23980337 14
2.5677691 3.7529414 -0.079373546 9
2.4275827 3.5774469 0.075464211 13
2.3961918 3.5272114 0.22347455 23
2.3782344 3.4955292 0.36988899 30
2.484215 3.6471922 0.54183114 18
6.6272659 9.7188578 1.8631347 3
4.3623424 6.387773 1.503575 13
4.2058282 6.1516709 1.7204257 46
6.340693 9.2638254 3.0079951 30
1.3428662 1.9509655 -0.6346243 47
1.4617889 2.1213577 -0.59477061 36
1.5789865 2.2880177 -0.54037106 37
1.7684728 2.5597234 -0.49276862 31
2.0461419 2.9583137 -0.44165453 15
2.2792344 3.2904074 -0.35019177 7
2.5619628 3.6944335 -0.23561651 22
2.6479921 3.8142242 -0.081048973 1
2.4853938 3.6081707 0.076476447 12
2.3799384 3.4512067 0.21970637 31
2.3634865 3.4235127 0.36396238 18
2.5559049 3.6967049 0.55182445 16
3.2063851 4.6323333 0.89230233 3
4.2502937 6.133626 1.4505301 20
4.4886599 6.4679704 1.8176045 17
6.2112155 8.9401035 2.9168906 40
1.354242 1.9383752 -0.63358909 30
1.4732113 2.1063106 -0.59342092 38
1.6016785 2.2865875 -0.54266083 38
1.7828976 2.5424628 -0.49182999 33
2.0473564 2.9163363 -0.43751097 16
2.2815239 3.2450776 -0.34705415 8
2.5727477 3.655225 -0.23425576 22
3.2723572 4.6440253 -0.099164575 8
2.4990644 3.5743427 0.076127395 7
2.3799231 3.400146 0.21750826 27
2.3770394 3.3922439 0.36239356 16
2.5269141 3.6007774 0.54012495 15
2.9763281 4.2364597 0.82002956 7
4.2354069 6.0219083 1.4310676 23
4.5337086 6.4364743 1.8176045 78
7.5537844 10.712137 3.5121746 6
1.3744459 1.9383287 -0.63669485 40
1.479984 2.084851 -0.59027159 31
1.619879 2.2785492 -0.54342401 31
1.8097672 2.542829 -0.49433297 21
2.0492344 2.8761058 -0.43361115 19
2.3110669 3.2388015 -0.34810004 9
2.5819502 3.6144223 -0.23279037 22
2.5730374 3.5979574 -0.07720945 9
2.4626215 3.470377 0.074277438 23
2.3816254 3.3525119 0.21551949 20
2.3983543 3.3723195 0.36204496 21
2.5450807 3.5733466 0.53866255 13
3.0299149 4.2493539 0.82659984 15
4.471251 6.2638388 1.4959426 13
4.4946661 6.2873549 1.7843119 17
6.319694 8.8305159 2.9096439 22
1.3856877 1.9255501 -0.63565958 40
1.5036159 2.0871172 -0.59387082 31
1.6345983 2.2655928 -0.54304242 28
1.815909 2.5141189 -0.49120426 26
2.0657742 2.8569036 -0.43287995 19
2.3114188 3.1919274 -0.3447881 17
2.6211879 3.6157131 -0.23404641 22
2.8529675 3.9311008 -0.084783792 16
2.4774404 3.4401186 0.073998205 28
2.3897862 3.3147428 0.21415874 15
2.376364 3.2924871 0.35524681 18
2.6118293 3.6134093 0.54743713 18
2.9599168 4.0904684 0.79969311 12
4.5724592 6.3119669 1.5150236 11
7.6499104 10.544675 3.0075958 27
6.3301024 8.7158413 2.8863502 19
1.3922598 1.9064691 -0.63255376 40
1.5169988 2.0749965 -0.59342092 30
1.6526946 2.2572939 -0.54380566 27
1.8380878 2.5077531 -0.49245578 33
2.0833199 2.839211 -0.43239245 12
2.324208 3.1628692 -0.34339362 17
2.6735876 3.6343286 -0.23645388 18
2.8447678 3.862783 -0.083736651 12
2.5179169 3.4453406 0.074486867 10
2.4081538 3.2915297 0.21374007 28
2.4181287 3.3015347 0.3580358 28
2.5935488 3.5358636 0.53841883 23
2.8726518 3.9120765 0.76871902 16
4.687346 6.3763833 1.5383022 37
4.5600624 6.194169 1.7757638 19
3.5403824 4.8038144 1.5989841 1
1.3825316 1.8656602 -0.62220097 27
1.529127 2.0612245 -0.59252113 30
1.6684122 2.2457018 -0.54380566 27
1.840224 2.4742553 -0.48838848 25
2.0793791 2.7927544 -0.42751768 15
2.3283675 3.122607 -0.34077895 17
2.6558845 3.557956 -0.23268569 45
2.9315171 3.9229209 -0.08548189 18
2.5252326 3.4051914 0.073998205 13
2.3822625 3.2088883 0.20944853 17
2.4018993 3.231802 0.35228351 22
2.6229131 3.5240395 0.53939372 20
2.8727491 3.8554924 0.76152301 18
4.79983 6.4347773 1.560436 15
4.9425716 6.6165037 1.9066854 2
3.5599473 4.7604175 1.5927725 15
1.3711427 1.823537 -0.61133063 61
1.5423079 2.0489421 -0.59207124 27
1.681686 2.230864 -0.54304242 51
1.8431736 2.4424262 -0.48463401 32
2.1036134 2.7845042 -0.42849267 17
2.3351467 3.0876169 -0.33868721 16
2.6505105 3.4995255 -0.23006889 16
2.6000016 3.429106 -0.075115159 9
2.3830202 3.1669743 0.069181338 15
2.4190254 3.211323 0.21070457 17
2.4040082 3.1879129 0.34932023 28
2.6091697 3.454951 0.5315941 12
2.926995 3.8715849 0.76871902 15
4.7889509 6.3275352 1.5425 55
4.6873999 6.1866245 1.7919602 6
nan nan nan nan
1.3908696 1.8231362 -0.61443645 34
1.5423799 2.0195408 -0.58667237 27
1.6992168 2.2224846 -0.54380566 41
1.8477498 2.4141371 -0.48150533 23
2.1133404 2.7571461 -0.42654276 26
2.3408778 3.0506904 -0.33642116 14
2.6633213 3.4671466 -0.22912684 22
2.5714509 3.342716 -0.073614255 15
2.4251478 3.1777029 0.069774717 25
2.3814156 3.1170151 0.20557566 15
2.4298375 3.1757994 0.34984317 15
2.5493369 3.3283725 0.51477611 25
2.9424608 3.8374648 0.76590323 22
4.7636552 6.2036362 1.5203662 22
4.7387872 6.164567 1.7951095 2
7.2575579 9.4309473 3.1886508 1
1.4138868 1.8273779 -0.61909521 25
1.5560908 2.0089951 -0.58667237 28
1.6894221 2.1779909 -0.5357917 22
1.8803087 2.4214613 -0.48557264 26
2.1174376 2.723891 -0.42361787 20
2.3584456 3.0295584 -0.33589822 13
2.6960537 3.4594977 -0.22985955 7
2.5461714 3.2636473 -0.072252966 1
2.492569 3.2191982 0.071066193 25
2.4838736 3.2045009 0.21248402 12
2.4123125 3.1088154 0.34426519 20
2.5274451 3.2524962 0.50575781 27
2.9606912 3.8059139 0.76371318 30
4.8359313 6.2097888 1.5299066 7
7.365509 9.4444046 2.7650986 2
7.2495141 9.2856417 3.1565573 1
1.4289955 1.8205018 -0.62013048 47
1.5821187 2.0134053 -0.59117138 28
1.7167271 2.1815717 -0.53960788 28
1.8996127 2.4113789 -0.48619837 21
2.1290271 2.6996899 -0.42215544 27
2.3622506 2.9911294 -0.33345786 34
2.7114694 3.4296238 -0.22912684 20
2.5242178 3.1893437 -0.070996389 13
2.4754541 3.1513968 0.069949247 25
2.4148262 3.0709026 0.20473827 15
2.3945208 3.0418017 0.33868721 19
2.593102 3.2893357 0.51428866 20
2.9871876 3.7851529 0.76371318 18
5.0130382 6.3453336 1.5718845 46
7.3708124 9.3163376 2.7426033 2
7.2374034 9.1378784 3.1234283 1
1.4368565 1.8044361 -0.61805987 47
1.593707 1.9992634 -0.59027159 41
1.7392647 2.1787395 -0.54189759 39
1.8843377 2.3579364 -0.47806379 22
2.1441023 2.6801105 -0.42142424 22
2.3930411 2.9870045 -0.33485237 19
2.7103546 3.3794496 -0.22703341 20
2.8506405 3.5505567 -0.079478264 13
2.5023794 3.1402934 0.070088863 10
2.4486611 3.0695822 0.20578501 18
2.3883464 2.9907596 0.33485237 14
2.5738492 3.2184417 0.50600159 22
3.0011945 3.7487853 0.76058447 13
nan nan nan nan
7.3502893 9.158267 2.7111104 2
7.2925515 9.0765877 3.1198049 5
1.4579164 1.8048807 -0.62168342 37
1.605175 1.985058 -0.5893718 27
1.7519617 2.1634927 -0.54113436 45
1.9082168 2.3539307 -0.47994098 25
2.1627607 2.6650765 -0.42142424 16
2.3887062 2.9393003 -0.33136615 21
2.7200181 3.3434012 -0.22588199 26
2.6733148 3.2824819 -0.073893487 7
2.5003555 3.0932002 0.069425672 20
2.6647677 3.293067 0.22200914 9
2.4869215 3.0699997 0.34565967 9
2.5925038 3.1957698 0.50527036 23
2.9675188 3.6541376 0.74556679 15
5.1135302 6.2899561 1.5757008 18
3.5987513 4.4203773 1.3159637 10
3.6333213 4.4580703 1.5410087 6
1.4766022 1.8021308 -0.62427157 40
1.6066345 1.958737 -0.58487278 39
1.7807305 2.1678967 -0.54533213 43
1.9158216 2.3298712 -0.47775093 28
2.1552768 2.6173513 -0.41630572 15
2.4015629 2.9133291 -0.33032027 13
2.7229524 3.2996845 -0.22420727 15
2.8228462 3.4158723 -0.077349067 22
2.4344041 2.9689703 0.067017242 22
2.4367921 2.9687111 0.20128411 27
2.495646 3.037168 0.34391654 13
2.6021366 3.1622655 0.50283301 23
2.8824308 3.4991598 0.71803427 12
5.2770939 6.3970766 1.6119545 9
7.4712348 9.0472374 2.7088609 20
7.4161043 8.9709072 3.1187694 35
1.4869902 1.7885474 -0.6232363 40
1.6181166 1.9441944 -0.58397299 41
1.7744571 2.1297712 -0.53884465 46
1.9400378 2.3252029 -0.47962815 23
2.1722248 2.6007173 -0.416062 11
2.410341 2.8827357 -0.32875144 17
2.7452123 3.2785838 -0.22410259 15
2.7836788 3.3209894 -0.075638726 13
2.699301 3.2455556 0.073684059 15
2.4413555 2.9312482 0.19992337 15
2.5760062 3.0896246 0.35193488 12
2.6470473 3.171453 0.50722027 23
3.099956 3.7088249 0.76559031 18
7.5868392 9.0673342 2.2981036 31
7.5492263 9.0127888 2.7142596 14
7.4167919 8.842124 3.0923703 24
1.4932133 1.7707382 -0.62064809 28
1.6241078 1.9239157 -0.58127356 31
1.7807797 2.106524 -0.53617334 29
1.9600506 2.3161266 -0.48056671 20
2.2005916 2.5976069 -0.41801187 13
2.4175196 2.8506436 -0.32700834 14
2.7499342 3.2380257 -0.22263718 22
2.6422997 3.1079876 -0.071205825 30
2.4864502 2.9464853 0.067296483 18
2.4578943 2.9095542 0.19960935 10
2.5010231 2.9574659 0.33886153 10
2.6671066 3.1494014 0.50673276 26
3.023582 3.5665503 0.74056083 13
7.6652045 9.0321054 2.3026831 21
7.695241 9.0578804 2.7439532 18
7.4032326 8.7018461 3.061312 11
1.509306 1.7646749 -0.62220097 14
1.6463724 1.9228916 -0.58442289 43
1.7963557 2.0958433 -0.53655493 27
1.9487593 2.2712479 -0.47399649 45
2.214792 2.5776639 -0.41728067 8
2.4191728 2.8125501 -0.32456797 18
2.753665 3.1980448 -0.22117178 19
2.5398774 2.9455926 -0.067889862 17
2.4622462 2.8778319 0.066109717 24
2.4659479 2.8791058 0.19866732 12
2.5293903 2.9490082 0.33990738 7
2.7221045 3.1703324 0.51306999 12
3.1817029 3.7016826 0.77309924 13
7.7139854 8.9620037 2.2984853 19
3.6215527 4.2030182 1.2808714 15
7.3891082 8.5664072 3.0312889 33
1.513689 1.7456033 -0.61909521 11
1.6619772 1.9145848 -0.58532268 31
1.8070787 2.0788071 -0.53541011 25
1.9593799 2.2516279 -0.472745 38
2.2205524 2.5490561 -0.41508701 11
2.4304056 2.7870071 -0.32352212 16
2.7811806 3.1847589 -0.22159046 15
2.6335719 3.0125453 -0.069844536 13
2.4980047 2.8786964 0.066528574 24
2.4820583 2.8572965 0.19835329 25
2.4605029 2.8294885 0.32805422 11
2.7180982 3.1213107 0.50819516 12
3.2100618 3.6823592 0.77372491 15
7.8664556 9.0143166 2.3255801 4
7.8950357 9.0375118 2.7704976 2
nan nan nan nan
1.524563 1.7335424 -0.61857754 12
1.6572752 1.8824579 -0.57902408 25
1.8159945 2.0605669 -0.53388357 31
1.9903432 2.2560141 -0.47649944 22
2.2120063 2.5037396 -0.41021225 12
2.4537618 2.7744503 -0.32404503 15
2.8160319 3.1807091 -0.22263718 22
2.5921886 2.9237602 -0.068204008 28
2.4937663 2.8346014 0.065900289 28
2.4354484 2.7653925 0.19311969 11
2.5197332 2.8570693 0.33328354 21
2.6630821 3.0164244 0.49405837 25
3.1657224 3.581974 0.7571429 15
3.1175504 3.5225129 0.91435677 2
8.5472221 9.6473036 2.9756527 2
2.875191 3.2418218 1.1610622 5
1.5350419 1.721683 -0.61805987 22
1.6856217 1.8885798 -0.58442289 24
1.8329513 2.0507672 -0.53464681 37
1.9981428 2.2332301 -0.47462222 23
2.2197278 2.4782729 -0.4085061 15
2.4765816 2.7621329 -0.32456797 10
2.8194883 3.1401665 -0.22117178 19
2.5518742 2.8391235 -0.066633284 35
2.5095007 2.8126464 0.065795571 21
2.4759827 2.772156 0.19479445 5
2.528497 2.8279705 0.33188906 16
2.6575913 2.9681823 0.4891836 26
3.1168175 3.4774122 0.73962224 16
9.0913401 10.132469 2.6461394 2
8.6908236 9.6758881 3.0026469 2
nan nan nan nan
1.547024 1.7109245 -0.61805987 14
1.6896112 1.8666526 -0.58127356 31
1.836323 2.0266035 -0.53159386 36
1.9933892 2.1976314 -0.46992919 26
2.2409782 2.4671252 -0.4092373 13
2.4837396 2.7315099 -0.32299918 18
2.851553 3.1327181 -0.22200914 15
2.5662458 2.8153262 -0.066493668 22
2.5674889 2.8385072 0.066807814 9
2.5470769 2.8129787 0.19887665 7
2.4825993 2.7379284 0.32334781 31
2.77246 3.0543857 0.50648904 10
5.0135026 5.5175076 1.1807675 5
8.7654676 9.6331263 2.5316539 2
2.9447584 3.2328463 1.0095805 30
7.4038177 8.1195946 2.9443254 20
1.5550132 1.6958116 -0.61650699 26
1.6999654 1.851941 -0.58037376 27
1.8467923 2.0090752 -0.53044903 32
2.0077262 2.1818569 -0.46961632 17
2.2527676 2.4455798 -0.40826234 11
2.5054502 2.7170331 -0.32334781 15
2.8454428 3.0814188 -0.21981104 17
2.5736203 2.7841275 -0.066179529 33
2.5904377 2.82301 0.066877626 7
2.6144302 2.8461609 0.20254017 16
2.4773793 2.6941299 0.32021019 16
2.7041538 2.9366279 0.49015856 27
3.071346 3.3318851 0.7177214 4
3.1234641 3.3848662 0.89527589 11
nan nan nan nan
3.2363024 3.4985626 1.2770132 27
1.5681299 1.686329 -0.6170246 33
1.7075416 1.8343223 -0.57857412 22
1.8537316 1.9892772 -0.52854097 42
1.998276 2.1421409 -0.46398467 22
2.2630105 2.4225397 -0.40704364 17
2.5093884 2.6834679 -0.32143039 22
2.8294985 3.0226107 -0.21698491 21
2.788563 2.9747164 -0.071170911 13
2.5986974 2.7935989 0.066598386 15
2.6473525 2.8429167 0.20358689 11
2.5586326 2.7437973 0.32822853 18
2.6617689 2.8514028 0.47894657 22
4.9403462 5.2867622 1.146039 10
3.2972598 3.5235293 0.93801707 15
7.4460444 7.9486718 2.514503 20
nan nan nan nan
1.5755965 1.6713989 -0.61547172 25
1.7052767 1.8070658 -0.57362527 31
1.8716204 1.9805671 -0.5296858 40
2.0104685 2.1252673 -0.46335894 10
2.2644336 2.3912249 -0.4043625 13
2.5253181 2.6629934 -0.32108176 21
2.8271532 2.9781597 -0.21520546 24
2.8707333 3.0208983 -0.072741628 15
2.557761 2.7113857 0.065062575 14
2.5080674 2.6559203 0.19144495 21
2.5252383 2.6713002 0.32160467 20
2.6229291 2.7707617 0.46846578 15
4.9635468 5.2378054 1.1429104 3
nan nan nan nan
3.3607795 3.5378108 1.126555 30
3.8686581 4.0681748 1.5042564 24
1.5898967 1.6631513 -0.61650699 24
1.7084186 1.7852619 -0.57047588 28
1.8731766 1.9546952 -0.52625126 24
2.0197866 2.1054778 -0.46210748 11
2.2769475 2.3710625 -0.4036313 23
2.5410867 2.6424248 -0.32073313 30
2.9199054 3.0331705 -0.22064841 36
2.9153435 3.0252602 -0.073335014 12
2.5586574 2.6746781 0.064608812 28
2.5196412 2.6311333 0.19092159 26
2.5465834 2.6564822 0.32195333 10
2.6023405 2.7108545 0.46139738 16
4.9534531 5.1546011 1.1322728 1
nan nan nan nan
3.8694103 4.0167003 1.2876199 14
3.1473422 3.2637253 1.2148967 18
1.5853332 1.6353663 -0.6102953 36
1.727626 1.7802837 -0.57272542 30
1.8826716 1.9373473 -0.52510637 10
2.0220387 2.0785832 -0.45929164 9
2.290674 2.3522654 -0.40314382 12
2.5511265 2.6160619 -0.31968728 12
2.8782272 2.9483988 -0.21593818 28
2.7924385 2.8575239 -0.069739819 28
2.6120782 2.6926315 0.065481432 15
2.5546467 2.6306715 0.19217765 43
2.7983828 2.878644 0.35123762 11
2.7070527 2.7808104 0.47650915 16
3.1584773 3.2411377 0.71678281 15
3.2490833 3.3306246 0.90443468 26
3.2532434 3.3302348 1.0748162 13
3.1052165 3.1753767 1.19005 16
1.598065 1.6256372 -0.61081296 25
1.7345444 1.7626243 -0.57092583 38
1.8823711 1.9101729 -0.52129018 27
2.0184662 2.0461342 -0.45522434 10
2.2944865 2.323504 -0.40095019 9
2.532902 2.5613556 -0.31515515 24
2.9156005 2.9452672 -0.21719423 22
2.8137257 2.839381 -0.069774717 28
2.6069715 2.6500971 0.064888045 30
2.5393152 2.57862 0.18966553 27
2.6323807 2.6703279 0.32805422 9
2.7264018 2.7618425 0.47650915 28
3.1393745 3.1768548 0.70739675 33
nan nan nan nan
3.2544701 3.2852907 1.0676178 9
3.1871617 3.2139773 1.2128261 46
1.6093761 1.6144402 -0.61081296 27
1.753691 1.7573681 -0.57317531 36
1.9095379 1.910872 -0.52510637 36
2.0313048 2.0305965 -0.4549115 9
2.3036287 2.3004153 -0.39973149 5
2.556365 2.5492375 -0.3158524 16
2.8441174 2.8332193 -0.21039055 50
2.7753646 2.7618363 -0.068343624 16
2.5999882 2.6063495 0.06425976 12
2.5854814 2.5890946 0.19175896 48
2.7227969 2.7237482 0.3369441 22
2.7470195 2.7441454 0.47675291 16
3.4523137 3.4450924 0.77247345 21
3.4204063 3.4096792 0.93878025 20
3.0825946 3.0686364 1.0041816 28
3.0547318 3.0377173 1.154333 28
1.6233544 1.6058824 -0.61184824 13
1.7659171 1.7450823 -0.57317531 27
1.9172423 1.8919785 -0.5235799 34
2.0496516 2.0205259 -0.45585006 7
2.3097317 2.2745271 -0.39802533 4
2.5669968 2.5243437 -0.31498083 12
2.9250941 2.8734798 -0.21489146 15
2.7089424 2.6583567 -0.066249333 33
2.6280754 2.5979753 0.064504094 15
2.6063359 2.5737882 0.19196831 36
2.6935205 2.6571 0.33101749 15
2.7250998 2.6845009 0.46968448 30
3.1411841 3.0911474 0.69801068 10
3.2145183 3.1600027 0.87619489 26
3.2471783 3.1876543 1.0505215 53
nan nan nan nan
1.6372917 1.597208 -0.61288351 38
1.7766613 1.7313511 -0.57272542 18
1.9289969 1.8771782 -0.52319831 31
2.0622914 2.0047908 -0.45553723 9
2.3127375 2.2459002 -0.39583167 5
1.9977952 1.938028 -0.24351314 6
2.8905711 2.8001809 -0.21091393 47
2.7748563 2.6852698 -0.067401193 13
2.651875 2.5851495 0.064643718 23
2.6986456 2.6279888 0.19741124 17
2.6248884 2.5534863 0.3203845 18
2.7565894 2.6778595 0.47187814 25
3.1485114 3.0553856 0.69488198 66
3.2421401 3.1429503 0.87772143 15
3.7713704 3.6521616 1.2120364 12
nan nan nan nan
1.6330874 1.5710074 -0.60718954 28
1.7788686 1.7094545 -0.56957608 32
1.9388965 1.8612862 -0.52243507 24
2.0758889 1.9907076 -0.45553723 9
2.3240595 2.2255805 -0.39510044 13
2.0098367 1.9226562 -0.24333882 2
3.0279686 2.89359 -0.21949703 12
2.7212017 2.5968051 -0.065655954 11
2.6593218 2.5573347 0.064399377 31
2.6300523 2.5265386 0.19113094 21
2.6843481 2.5750964 0.32543954 10
2.8206167 2.7029848 0.47967777 13
3.5473752 3.3958731 0.77779222 37
3.8103666 3.6425421 1.0246444 12
3.6093321 3.4467437 1.1521994 13
3.5980141 3.4323325 1.3324004 27
1.6353359 1.5518751 -0.60408366 36
1.7918783 1.6986463 -0.57002604 30
1.9461414 1.8423051 -0.52090853 18
2.0782547 1.9653076 -0.45303425 13
2.353585 2.2233412 -0.39753783 13
2.5880079 2.4422288 -0.3113203 24
3.0161161 2.842247 -0.21719423 22
2.9863403 2.8112369 -0.071589775 19
2.7206397 2.579988 0.065446526 10
2.6940243 2.5520711 0.19448043 3
2.6670814 2.5238998 0.32125604 36
2.7903636 2.6368709 0.47139066 22
3.384259 3.1947448 0.73711932 27
3.3323011 3.1423984 0.89031488 23
3.1419182 2.959759 0.99653327 4
3.1040728 2.9200206 1.1419097 31
1.6404872 1.5351415 -0.60201317 30
1.8008456 1.6834346 -0.56912625 43
1.9356774 1.8075776 -0.51480269 23
1.981804 1.8487101 -0.42925623 18
2.3806696 2.2176802 -0.39948773 13
2.6035361 2.422744 -0.31114599 25
2.947624 2.7400599 -0.21091393 38
3.046931 2.8284116 -0.072567105 27
2.8841734 2.6980166 0.068937011 10
2.6879861 2.5118544 0.19280569 20
2.7123134 2.5310452 0.32456797 23
2.8198628 2.6286464 0.47334057 20
3.1572752 2.9400907 0.6833058 15
3.7092683 3.4492817 0.9845745 15
3.5465727 3.2945287 1.1175569 27
3.0828092 2.8607178 1.1268982 12
1.6565765 1.5291808 -0.60408366 26
1.795072 1.6552839 -0.56372738 31
1.9540261 1.7993393 -0.51632917 45
2.0978844 1.9297806 -0.45146993 7
2.3854768 2.1920235 -0.39778158 15
2.6350656 2.4179809 -0.3128891 21
2.9342895 2.6897254 -0.20861115 45
2.9156818 2.6698606 -0.069006816 12
2.7162676 2.5056231 0.064504094 10
2.7127993 2.4997959 0.19332905 30
2.9288392 2.6960387 0.34827435 11
2.7826111 2.5578451 0.46407849 10
3.1820903 2.9219837 0.68424439 7
3.3839917 3.1041176 0.89260459 12
nan nan nan nan
7.1603088 6.5520296 2.6006138 11
1.6657829 1.5162778 -0.60356599 31
1.8036999 1.6400906 -0.56282759 23
1.9578197 1.7777354 -0.51403946 30
2.1127689 1.9164147 -0.45178279 10
2.3889546 2.1646519 -0.39583167 12
2.6932485 2.4369557 -0.31776983 9
2.9470692 2.6638174 -0.20819245 34
3.0188489 2.7258279 -0.070996389 19
2.8342845 2.5780971 0.066877626 4
2.6814055 2.4364724 0.18987487 22
2.726299 2.4746604 0.32212761 13
2.751863 2.4943631 0.45603511 19
3.0647671 2.7750664 0.65483475 18
3.6196098 3.2740147 0.94870234 16
3.843857 3.4719722 1.1958399 6
3.1583097 2.8497486 1.1398392 28
1.6619514 1.4917076 -0.59838963 38
1.8267133 1.6378659 -0.56642681 38
1.9555562 1.7509277 -0.51022327 27
2.1290412 1.9042519 -0.45240852 9
2.4099286 2.1532125 -0.3968066 12
2.710196 2.4180939 -0.31776983 4
3.0043602 2.6777296 -0.21091393 15
2.9974818 2.6687815 -0.070053965 25
2.9266453 2.6250072 0.068622865 5
2.6953745 2.4150274 0.18966553 31
2.6677952 2.3877997 0.31323773 10
2.7825303 2.4869967 0.45822877 13
3.1238508 2.7891245 0.66328222 24
3.333231 2.972934 0.86818099 11
3.2451637 2.8903186 1.0032817 31
3.2748277 2.9136658 1.1745209 5
1.6737716 1.4813491 -0.59890729 36
1.8337233 1.6212007 -0.56507707 39
1.9633174 1.7333348 -0.50907844 33
2.1289496 1.8775826 -0.44959271 10
2.4234128 2.1350234 -0.39656287 13
2.7165411 2.3899007 -0.31654966 3
3.0619888 2.6909685 -0.2136354 21
3.0085263 2.6411934 -0.069879435 22
2.7891157 2.4667361 0.064992763 12
2.7690458 2.446403 0.19364306 15
2.7844863 2.4574478 0.3249166 16
2.9591768 2.6079483 0.48430881 20
3.3982644 2.9917605 0.71709567 19
3.3553789 2.9508877 0.86856258 18
3.883172 3.4102511 1.1931405 6
1.9604975 1.7199165 0.69881141 1
1.6797053 1.4658178 -0.59735435 40
1.8273687 1.5929937 -0.55967826 35
1.9679664 1.7131407 -0.50717038 11
2.1121938 1.8367496 -0.44333532 12
2.4397576 2.1193545 -0.3968066 12
2.73124 2.37005 -0.31637534 4
3.0791903 2.6682198 -0.21353073 29
3.1448214 2.7222099 -0.072602011 13
3.0338461 2.6456599 0.070263386 6
2.8131661 2.4506249 0.19552715 7
2.7384493 2.3830163 0.31759554 25
2.8109884 2.4426966 0.45725381 14
3.3892319 2.9420664 0.71083826 18
3.2780042 2.8425 0.8433758 43
2.0326884 1.7607688 0.62086499 1
1.9300857 1.6695364 0.68379998 10
1.6957554 1.4590957 -0.59942496 26
1.8369681 1.5789263 -0.55922836 34
1.9751133 1.6958687 -0.50602549 14
2.1156507 1.8146132 -0.44145811 12
2.4469547 2.0958147 -0.39558792 11
2.7250099 2.3314967 -0.31376067 13
3.0729871 2.6264377 -0.21185598 26
3.2884743 2.8066387 -0.075464211 14
2.9911413 2.5727897 0.068867192 9
2.8661377 2.4626596 0.19803928 3
2.7822363 2.3871932 0.32073313 12
3.1395473 2.6909175 0.50770777 12
3.1946065 2.7352092 0.66609806 13
nan nan nan nan
1.9604659 1.6743965 0.59522051 10
1.9605106 1.6726602 0.69052929 6
1.6864997 1.4312692 -0.59269565 35
1.8506451 1.5689071 -0.56012815 46
1.9749172 1.6718905 -0.50297254 11
2.1448593 1.8138301 -0.44489968 11
2.4190612 2.0428183 -0.38876322 11
2.7412214 2.3124142 -0.31376067 13
3.1248496 2.6332328 -0.21415874 24
3.2161844 2.7063611 -0.073369913 18
3.0685093 2.6022868 0.070228487 5
2.8512578 2.4154787 0.19584116 6
2.7786489 2.3514693 0.31846708 40
2.9111137 2.4600842 0.46797833 10
2.0196464 1.7049234 0.41861868 4
1.9979281 1.6842005 0.50793356 7
1.9870139 1.6732212 0.59971952 6
1.9898806 1.6738553 0.69674093 10
1.7115169 1.4315587 -0.59787202 28
1.8573384 1.5518756 -0.55877846 37
1.9759896 1.6492569 -0.50030124 11
2.1517141 1.7933766 -0.44364822 21
2.2624013 1.8836241 -0.3614645 18
2.7557666 2.2919469 -0.31358635 21
3.191242 2.6503637 -0.21740359 19
2.9318151 2.4323115 -0.066493668 19
3.0605235 2.5589936 0.069635101 23
2.8255424 2.3591719 0.19291034 21
nan nan nan nan
2.0360262 1.6963545 0.32539117 8
2.0211661 1.6815828 0.4164286 6
2.0217164 1.6802502 0.51098651 7
2.0046442 1.6642877 0.60151911 10
1.9824736 1.6435448 0.69001162 5
1.7125266 1.4122007 -0.5947662 24
1.8756479 1.5450662 -0.561028 27
1.981676 1.6300862 -0.49877474 10
2.1397624 1.7582455 -0.43864229 23
2.4458137 2.0075839 -0.3885195 8
2.7639968 2.2663355 -0.31271479 21
3.1911244 2.6128349 -0.21614751 14
2.9549158 2.4168487 -0.066633284 15
2.9537535 2.4340219 0.066807814 9
2.8249815 2.3254259 0.19175896 7
2.0544636 1.689357 0.23270583 10
2.0419765 1.6767026 0.32441622 6
2.0404923 1.673696 0.41799295 7
2.0440266 1.6748059 0.51365787 9
2.0177214 1.6514872 0.60196906 5
1.9729581 1.6125486 0.68276465 5
1.708853 1.3892428 -0.5901075 40
1.8742869 1.5221062 -0.55742878 21
1.9988244 1.6215069 -0.50030124 10
2.15168 1.7436409 -0.43864229 23
2.2483578 1.8193864 -0.35512727 10
2.7177715 2.1968853 -0.30574232 16
3.2057264 2.5885451 -0.21593818 22
2.9530365 2.3810983 -0.066214427 6
2.9345603 2.3848531 0.066004999 3
2.0731854 1.683031 0.13994636 6
2.0615642 1.671209 0.23218289 6
2.0610564 1.6690097 0.32563493 8
2.0671961 1.6721904 0.42112163 8
2.035816 1.6444566 0.50869679 5
2.0216198 1.631241 0.59971952 6
1.9929132 1.6063559 0.68587047 4
1.7227913 1.381204 -0.59166032 26
1.8739567 1.5007858 -0.55427945 29
2.00703 1.6050596 -0.49953794 10
2.1576278 1.7236441 -0.43739083 30
2.1955237 1.7520354 -0.34489027 12
2.833931 2.2590587 -0.3170726 15
2.1408126 1.7041007 -0.14340053 3
2.1145782 1.6814101 -0.047156405 8
2.0881135 1.6728948 0.046702638 7
2.0848846 1.6685164 0.13994636 4
2.0900099 1.6708238 0.23410031 7
2.0711057 1.6533426 0.32539117 6
2.0633748 1.645403 0.41799295 5
2.0531039 1.6354549 0.51022327 12
2.0372503 1.6210837 0.60106927 4
4.2350349 3.3650792 1.4493867 13
1.7248137 1.3631537 -0.58907217 26
1.8843886 1.4876665 -0.55427945 37
2.0102003 1.5852833 -0.49762988 11
2.1786196 1.716253 -0.43926802 38
2.1998997 1.7305293 -0.34367159 46
2.2120287 1.7381966 -0.24612781 7
2.142936 1.6820899 -0.14277251 8
2.135709 1.6740073 -0.047365833 6
2.1198506 1.6747581 0.047156405 6
2.1040328 1.660473 0.14046971 7
2.1063173 1.6598927 0.23462325 6
2.0791914 1.636752 0.3249037 6
2.0636582 1.6227717 0.41580287 8
nan nan nan nan
3.4484406 2.7048962 1.0118299 9
nan nan nan nan
1.7327638 1.3498927 -0.58855456 22
1.8870381 1.4684917 -0.55202997 39
2.0106413 1.5624256 -0.49495855 10
2.1674387 1.6824503 -0.43457499 28
2.2025149 1.7078305 -0.34220913 8
2.153228 1.6678089 -0.2382838 3
2.1801956 1.6862632 -0.14444725 6
2.1520901 1.6627252 -0.047470544 8
2.145982 1.6706012 0.047470544 8
2.1079776 1.6392441 0.13994636 4
2.1021209 1.632924 0.23288015 6
2.0908513 1.6218308 0.3249037 6
nan nan nan nan
3.7245302 2.8828006 0.91550165 15
3.4549069 2.6712198 1.0082307 13
nan nan nan nan
1.7375487 1.334233 -0.58700162 18
1.8941514 1.4529096 -0.55113012 34
2.029021 1.5546746 -0.49686664 12
2.1882524 1.6748617 -0.43645221 23
2.2080753 1.6875907 -0.34123421 6
2.1790719 1.6636173 -0.23985259 6
2.20274 1.6798619 -0.14517996 9
2.1636457 1.6476603 -0.047470544 5
2.144613 1.6462156 0.047191311 5
2.1064074 1.6151352 0.13910899 5
2.1103055 1.6157861 0.23253153 7
2.9958744 2.2913475 0.46310353 16
3.1739068 2.42488 0.63262105 36
3.5791113 2.7305036 0.87505013 18
3.5432196 2.7001882 1.0284762 55
nan nan nan nan
1.7358091 1.3142122 -0.5833782 13
1.899335 1.4364555 -0.54978037 48
2.0445261 1.5440201 -0.4980115 19
2.2093537 1.6666816 -0.4383294 6
2.2385359 1.6868576 -0.34415907 7
2.2097363 1.6627402 -0.24194433 6
2.1936586 1.6488426 -0.14381923 5
2.1604187 1.6220887 -0.047156405 6
2.1353221 1.6155186 0.046737548 6
2.1287849 1.6088208 0.13984169 6
2.9942441 2.2604263 0.32822853 31
3.0022869 2.263207 0.4616411 24
3.2428329 2.4418757 0.64294571 22
3.8360953 2.8854604 0.93305606 33
3.7240343 2.797101 1.0752661 30
3.4088807 2.5576003 1.1419097 24
1.7495863 1.3055278 -0.58493102 12
1.8952545 1.41268 -0.54573131 27
2.0536804 1.5285367 -0.49762988 13
2.2304473 1.6582886 -0.44020665 16
2.2438831 1.6664544 -0.34318411 6
2.21489 1.6425244 -0.24124709 3
2.1858578 1.6192217 -0.14256316 6
2.1781204 1.6117244 -0.047296021 3
2.1545641 1.6065487 0.04691207 1
3.0657887 2.2835033 0.20034206 32
3.0083544 2.2382765 0.32805422 25
3.0275736 2.2492964 0.46310353 18
3.1868315 2.3650265 0.62855375 27
4.031209 2.9883883 0.97541571 24
3.843715 2.8452377 1.1040599 16
3.6845067 2.724402 1.2278377 31
1.7571018 1.2921371 -0.58441341 12
1.9066412 1.4005679 -0.5461812 32
2.0516365 1.5048738 -0.49457693 10
2.2499361 1.6485153 -0.44177097 10
2.2426465 1.6413703 -0.34123421 6
2.2131512 1.6180043 -0.23985259 4
3.3505104 2.4459219 -0.21740359 14
3.895534 2.840672 -0.0841555 17
nan nan nan nan
3.0832658 2.2632263 0.20044672 10
3.0190868 2.2136853 0.32753128 20
3.0544147 2.2363138 0.46480972 21
3.3085005 2.4196825 0.64920312 25
4.3230581 3.1582098 1.0406723 13
4.3147769 3.1486967 1.2331818 28
3.8142886 2.7793908 1.2645899 37
1.7551305 1.2719028 -0.58078998 12
1.9211087 1.39065 -0.54753089 43
2.0634241 1.4920232 -0.49495855 10
2.2498965 1.6250648 -0.43958092 7
2.2572708 1.627996 -0.34172165 6
2.9356813 2.1149459 -0.31654966 7
3.3524902 2.4125612 -0.21646154 31
nan nan nan nan
nan nan nan nan
3.1293421 2.2644346 0.20243551 25
3.1216736 2.2555668 0.3369441 18
3.1081972 2.2433534 0.47065943 16
3.3008575 2.3797793 0.64451009 18
3.9753492 2.8618412 0.95213693 19
3.8319502 2.755564 1.089663 14
3.7609453 2.7015176 1.2407786 21
1.7606027 1.2576814 -0.57975465 13
1.9257708 1.3741465 -0.5461812 26
2.067394 1.4730256 -0.4934321 10
2.2708421 1.6161914 -0.44145811 12
2.5854089 1.8380345 -0.38949445 8
2.4369845 1.7299544 -0.26146722 3
3.3692527 2.389096 -0.21646154 24
4.0632448 2.8780015 -0.086912982 13
5.5581775 3.9675386 0.11919994 3
3.1613367 2.2541277 0.20348223 31
3.1466913 2.2412009 0.33798996 20
3.0978999 2.2031915 0.46675962 23
3.3254428 2.3623972 0.64607441 4
4.0859985 2.8994784 0.97388911 15
3.8129318 2.7017069 1.0788653 14
3.7749815 2.6718488 1.2392256 43
1.7677605 1.2442476 -0.57923704 17
1.9273463 1.3550645 -0.54393172 34
2.0840542 1.4630686 -0.49495855 10
2.2788353 1.5980303 -0.44083238 10
2.6014295 1.8222181 -0.38998193 8
2.9583941 2.0691831 -0.3158524 10
3.3727505 2.3563666 -0.21562417 26
3.6322765 2.5348554 -0.077314161 13
3.6147838 2.5423982 0.077139638 21
3.1671906 2.2251136 0.20285419 32
3.2862077 2.3061602 0.35123762 7
3.1180825 2.1849282 0.46749085 25
3.2755029 2.292681 0.63324684 33
4.0659161 2.8427584 0.96434873 35
4.0761747 2.8456964 1.1477003 19
nan nan nan nan
1.7843406 1.2373811 -0.58182526 13
1.9175353 1.3282609 -0.53853285 22
2.1039057 1.4551843 -0.49724829 10
2.3013127 1.5899419 -0.44302243 9
2.6010175 1.7949922 -0.38803205 6
2.9694865 2.0462182 -0.31550378 9
3.3891189 2.3327632 -0.21562417 15
4.0124016 2.7586799 -0.084993221 5
5.547286 3.8439884 0.11780374 4
nan nan nan nan
3.2481463 2.2457702 0.34548536 20
3.1414282 2.1687458 0.46870953 27
3.3564773 2.3146148 0.64576155 22
4.2344098 2.9167635 0.9994576 6
3.9947882 2.7475967 1.1193565 39
4.116044 2.8278227 1.3380945 28
1.7833654 1.2183545 -0.57871938 14
1.923543 1.3126439 -0.53763306 18
2.1107681 1.438251 -0.49648505 10
2.3041906 1.5682807 -0.44145811 9
2.5970678 1.7656302 -0.38559461 8
2.996887 2.0343897 -0.31689829 9
3.4152398 2.3157709 -0.21625218 8
3.6209559 2.4524941 -0.076336823 21
3.7721441 2.5751119 0.079722598 19
3.3448112 2.2808201 0.21216999 8
3.295033 2.2443497 0.34879729 3
3.1433609 2.1378305 0.46675962 34
3.352946 2.2778049 0.64200711 18
20.647898 14.011237 4.8503652 8
4.0396857 2.7371304 1.126555 34
nan nan nan nan
1.7838143 1.2004817 -0.57613122 12
1.9213392 1.2915728 -0.53448373 20
2.1126075 1.4180081 -0.49457693 11
2.3298507 1.5620556 -0.44427395 9
2.6241767 1.7573965 -0.3877883 9
2.5006077 1.6727473 -0.26321036 3
3.4462705 2.3018572 -0.21719423 3
3.6280074 2.4204981 -0.076127395 13
3.5543966 2.3902586 0.074766114 11
3.529762 2.3710096 0.22284654 4
3.2841485 2.2035315 0.3460083 31
3.225826 2.1611335 0.47675291 31
3.3277242 2.2268765 0.63418543 28
nan nan nan nan
4.0825329 2.725801 1.1333034 19
4.2049556 2.8032973 1.3541414 25
1.7857105 1.1837304 -0.57406068 13
1.9416823 1.2856598 -0.53763306 8
2.1254852 1.4057623 -0.4953402 10
2.3305395 1.5396286 -0.4423967 9
2.6181538 1.72701 -0.38510716 8
2.9913774 1.970952 -0.31341204 6
3.4785438 2.289324 -0.21824095 5
3.7400749 2.4577048 -0.078116976 21
3.6622667 2.426759 0.076685868 22
3.7823193 2.5034618 0.23770994 30
3.3426685 2.2091115 0.3505404 11
3.2454319 2.1424067 0.47748414 34
3.4499991 2.2748551 0.65452182 15
20.851345 13.728065 4.8526545 8
3.9826028 2.6190701 1.1004606 16
4.188416 2.7512782 1.3427533 18
1.7921095 1.1704906 -0.57354301 12
1.921011 1.2532464 -0.52953482 15
2.1336021 1.3898177 -0.49495855 10
2.3279853 1.5147023 -0.43989375 9
2.6365058 1.7134769 -0.38608211 8
3.0100772 1.9532753 -0.31393498 10
3.4726527 2.2508628 -0.21688022 7
4.1679745 2.6984506 -0.086668648 13
nan nan nan nan
3.7863181 2.468271 0.23687255 13
3.4077172 2.2189229 0.35576975 40
3.2669666 2.1240251 0.47845906 27
3.4160957 2.2184379 0.64513582 16
28.24748 18.323105 6.5447493 15
4.0662174 2.633575 1.1184567 13
3.8977165 2.5215459 1.2438843 4
1.8034863 1.1600418 -0.57457829 12
1.9362711 1.2440192 -0.53133446 9
2.1449063 1.3759475 -0.4953402 10
2.3484831 1.5048063 -0.44177097 9
2.6417167 1.6907471 -0.38510716 9
3.0219615 1.9311404 -0.31376067 7
