# .PCD v0.7 - Point Cloud Data file format
VERSION 0.7
FIELDS x y z intensity
SIZE 4 4 4 4
TYPE F F F F
COUNT 1 1 1 1
WIDTH 1434
HEIGHT 1
VIEWPOINT 0 0 0 1 0 0 0
POINTS 1434
DATA ascii
3.7914701 7.2802496 1.5955449 10
4.9843855 9.5545568 2.4879589 16
nan nan nan nan
1.1281201 2.146024 -0.64963585 33
1.2444042 2.3642254 -0.61681581 34
1.3578871 2.5754631 -0.56593949 36
1.5041144 2.8491912 -0.51028925 20
1.7300831 3.2730839 -0.45457271 31
1.99605 3.7698851 -0.37320086 18
2.3640101 4.4591942 -0.26450595 13
2.8164506 5.3059101 -0.10485406 21
4.3993864 8.3618612 0.16492525 13
5.1673036 9.8089647 0.58103383 17
5.2881026 10.025541 0.99165797 56
3.5962753 6.8065343 0.94521874 28
5.0749655 9.5930328 1.7189021 1
3.8973451 7.3576951 1.6184419 13
3.6745102 6.9253268 1.8099563 19
nan nan nan nan
1.1448972 2.1415029 -0.65067112 33
1.2470852 2.3297083 -0.61006731 41
1.3628459 2.5416975 -0.56059688 30
1.5230346 2.8368807 -0.50997645 22
1.7528914 3.2609258 -0.45457271 23
2.0449898 3.7979603 -0.37738436 16
2.3903444 4.4337912 -0.26398259 9
2.8249278 5.2333274 -0.10380692 20
4.3982205 8.2198639 0.16272624 11
5.5761495 10.408198 0.61882037 5
nan nan nan nan
5.3434086 9.9445705 1.386142 9
5.7248716 10.641143 1.9138194 12
3.7102623 6.8878284 1.5207478 15
3.7209213 6.8960733 1.8090566 6
5.2652025 9.7459145 2.9681368 2
1.1635106 2.1402466 -0.65274167 31
1.2567978 2.308964 -0.60691798 34
1.3908949 2.5510819 -0.56479466 34
1.5333375 2.8088403 -0.50684774 28
1.7756143 3.2486088 -0.45457271 17
2.0293558 3.7066956 -0.36971465 16
2.3981991 4.3749623 -0.26147047 14
2.8729401 5.2345142 -0.10422577 20
4.0665264 7.4740491 0.14851998 4
5.5282884 10.148026 0.60563177 8
3.768481 6.9090152 0.68853039 8
3.7090397 6.7887588 0.94984972 8
3.9162591 7.1591272 1.2924616 15
4.2062306 7.6796589 1.7020162 7
3.6574297 6.6666174 1.7555182 42
5.2800941 9.6124077 2.9386315 28
1.1840311 2.1422162 -0.65584749 29
1.2738303 2.3018386 -0.60736787 39
1.3877312 2.5035331 -0.55639905 32
1.545241 2.7842495 -0.50434476 23
1.7924652 3.2257223 -0.45311025 20
2.0555084 3.6945376 -0.36988899 22
2.4238222 4.3493896 -0.26094711 12
2.9142854 5.2230611 -0.1044003 22
3.8862965 7.0255237 0.14014283 1
5.5806093 10.07599 0.603643 11
5.4186339 9.7714634 0.97753882 19
5.2291927 9.4143295 1.3222824 10
4.4548316 8.0103321 1.451712 5
3.6246018 6.5094519 1.4482403 5
3.6808977 6.6024194 1.7451704 38
5.1869526 9.2885752 2.8506331 6
1.1932789 2.1237931 -0.65274167 31
1.2822243 2.2793028 -0.60376865 31
1.3854694 2.4598184 -0.54876673 29
1.5670666 2.7788296 -0.50528342 20
1.8149413 3.21313 -0.45311025 27
2.0763469 3.6714261 -0.36901742 18
2.4484508 4.3241005 -0.26042375 8
2.9378538 5.179976 -0.10394654 20
4.0976624 7.2900171 0.14597192 8
5.5863791 9.9263725 0.59694397 2
5.7009883 10.113495 1.015713 15
3.8081434 6.7473469 0.95131218 11
5.2352033 9.2645054 1.685425 7
3.6651196 6.4754481 1.4463322 1
3.6971176 6.524003 1.7312235 21
5.2452955 9.2446489 2.8480449 38
1.205793 2.1122656 -0.6517064 48
1.2899746 2.2569866 -0.60016948 29
1.4250436 2.4892728 -0.55754393 25
1.5903589 2.7746761 -0.50653487 25
1.8278781 3.1852059 -0.45091662 27
2.0993042 3.6537526 -0.36866876 18
2.4457021 4.2497778 -0.25696957 19
2.9400973 5.1026821 -0.10279468 22
4.0839748 7.1483746 0.14370312 17
5.6902461 9.9478111 0.60060751 5
5.5558162 9.7010098 0.97806168 50
2.5898588 4.5148358 0.63908291 1
nan nan nan nan
3.668011 6.3788667 1.4303043 1
3.7424116 6.5003748 1.7316734 23
5.2807517 9.1576014 2.8325157 14
1.2205091 2.1037967 -0.6517064 49
1.3154867 2.2647774 -0.6046685 28
1.4360316 2.4693332 -0.55525422 36
1.6141769 2.7723227 -0.5080992 15
1.8530707 3.1775117 -0.45164782 37
2.0996459 3.5959938 -0.36431101 26
2.4614713 4.2106156 -0.25560883 14
2.9857554 5.099287 -0.10314372 22
4.1014237 7.0667934 0.14262106 26
4.1803985 7.1941881 0.43606326 5
5.5021391 9.4536285 0.95697004 8
2.5565641 4.3873343 0.6234836 15
3.8871958 6.662818 1.2217534 47
4.047246 6.9260373 1.5592911 22
3.9353092 6.7263937 1.7991586 23
5.4464583 9.2981415 2.8873854 14
1.2348008 2.0954404 -0.6517064 41
1.3417645 2.2742329 -0.60961735 25
1.4602273 2.4710789 -0.55792552 19
1.6002991 2.7048821 -0.49777454 21
1.8635262 3.1460383 -0.44896671 31
2.1206312 3.5743942 -0.36361378 22
2.4755049 4.167572 -0.25403875 4
3.0132389 5.0668159 -0.10289939 20
4.129324 7.0018182 0.14188807 26
4.1492786 7.0272427 0.42768946 17
2.5631621 4.3357997 0.44065943 12
2.5618489 4.3266759 0.61739016 12
5.4718103 9.2302485 1.6995043 13
4.073257 6.8628726 1.5512772 10
3.9074881 6.5731239 1.765416 100
3.8483827 6.4659872 2.0162005 11
1.2513845 2.0900836 -0.65274167 46
1.3485917 2.2497673 -0.60556829 11
1.4784536 2.4625077 -0.55830717 33
1.6252501 2.7038026 -0.49965176 27
1.8516661 3.0768239 -0.44092333 17
2.1311338 3.5356131 -0.36117339 33
2.4911244 4.1279583 -0.25267801 8
3.035095 5.023406 -0.10244562 18
4.1390481 6.9076371 0.14056168 30
4.2352266 7.059762 0.43145767 2
2.4641111 4.1025929 0.41869619 10
2.5551515 4.2474494 0.60861558 16
5.8255548 9.6723995 1.7883589 19
nan nan nan nan
3.9150014 6.4822936 1.7483197 31
5.2598829 8.6987963 2.7238116 4
1.2538985 2.0614903 -0.64653003 37
1.3591973 2.2319756 -0.60331875 28
1.4894754 2.4420695 -0.5560174 22
1.6502633 2.7025056 -0.50152892 26
1.880886 3.0753491 -0.44262949 31
2.1495225 3.5104539 -0.36012751 28
2.4990051 4.0764108 -0.25058457 21
3.0468986 4.9623642 -0.10164282 24
4.1861315 6.876864 0.14052677 30
2.6400776 4.3319402 0.2658667 16
2.3837283 3.906708 0.40039349 27
2.5443718 4.1634483 0.59910977 13
nan nan nan nan
3.8775165 6.3275285 1.4425161 11
3.9387603 6.4199219 1.7388718 44
4.235558 6.8955808 2.168386 24
1.2635396 2.0442483 -0.64394182 26
1.3905159 2.2470489 -0.61006731 37
1.4847748 2.3965645 -0.54800349 24
1.6622691 2.6788778 -0.49933887 31
1.9190722 3.0891216 -0.44652933 28
2.1655614 3.4818258 -0.35873303 26
2.5080466 4.0262141 -0.2485958 18
3.0772355 4.934185 -0.1015032 20
4.234036 6.8474736 0.14052677 17
2.4796214 4.0039001 0.24681638 16
2.3381295 3.7710176 0.38819164 20
2.5335922 4.0814939 0.58984768 11
4.2626853 6.8562922 1.2786956 36
nan nan nan nan
3.9824502 6.3906155 1.7384218 23
4.2827477 6.8618178 2.1673508 15
1.2808617 2.0402858 -0.64549476 30
1.3926884 2.2158375 -0.60421854 18
1.4893355 2.3659406 -0.54342401 18
1.6777712 2.6621943 -0.49840027 33
1.94059 3.0756495 -0.44652933 22
2.1898148 3.4666238 -0.35873303 26
2.5243497 3.9900391 -0.24744442 14
3.1073296 4.9058223 -0.10136358 22
2.6606061 4.2348037 0.08729694 9
2.4352002 3.8715305 0.23969871 13
2.3792615 3.7782073 0.39063203 23
2.5976801 4.1186671 0.59789103 27
4.3136115 6.8313766 1.2796341 28
3.8930967 6.1582718 1.4161844 22
4.0759501 6.4400496 1.7595673 34
5.7413068 9.0573349 2.873409 19
1.2940348 2.0296657 -0.64497709 31
1.3955411 2.1863499 -0.59881973 34
1.5212619 2.3805635 -0.54914832 19
1.6969167 2.6523774 -0.49871314 22
1.953447 3.0486555 -0.44457942 15
2.1978261 3.4260967 -0.35611835 17
2.5395765 3.9542797 -0.24629304 12
3.1415007 4.8840108 -0.10136358 18
2.4872124 3.8996332 0.080734834 12
2.3819563 3.7302957 0.23195298 13
2.3519101 3.6775794 0.38191649 20
2.5721357 4.0173006 0.58570409 20
5.9462447 9.2764683 1.745183 7
4.1216016 6.4200621 1.4829676 73
4.1165962 6.40488 1.7577677 17
5.9847193 9.3007231 2.9634783 20
1.3099205 2.0240533 -0.64601237 33
1.4114513 2.1784346 -0.59926963 36
1.5399816 2.3731787 -0.54991156 27
1.7110877 2.6338398 -0.49746165 25
1.947094 2.9936869 -0.43848595 16
2.2140789 3.398983 -0.35489815 15
2.5376642 3.8912845 -0.2434669 14
2.6532128 4.0638165 -0.084713981 3
2.5382898 3.9191 0.081502736 12
2.3851202 3.6783853 0.22975488 15
2.3356621 3.5979822 0.37529263 18
2.521131 3.877754 0.56791121 13
6.5475078 10.059199 1.9009918 39
nan nan nan nan
4.0728102 6.2405338 1.7204257 36
5.7610302 8.8172073 2.8221629 34
1.3197746 2.0084019 -0.64394182 40
1.4287665 2.1717846 -0.60016948 29
1.5359901 2.3312206 -0.54266083 23
1.7533643 2.6581063 -0.50434476 17
1.9712293 2.9849889 -0.43921715 15
2.2322574 3.3751354 -0.35402662 21
2.5349948 3.828511 -0.24064074 12
2.5931275 3.9118562 -0.0819216 21
2.5194407 3.831111 0.080036737 12
2.4469855 3.7166941 0.23320904 15
2.3683994 3.5932331 0.3765128 35
2.5547016 3.8700004 0.56937367 26
6.3180628 9.5600443 1.8149529 12
4.1338997 6.2480097 1.4562544 10
4.1937809 6.3289094 1.7528187 31
6.8028212 10.254594 3.2973547 18
1.3251865 1.9862831 -0.63980073 33
1.4287401 2.1390698 -0.59387082 27
1.5620508 2.3351278 -0.54609537 30
1.7575891 2.6244633 -0.50027746 21
2.0074968 2.9942379 -0.44262949 15
2.2440774 3.3433187 -0.35228351 14
2.5338068 3.76928 -0.23802395 14
2.5265918 3.7543006 -0.078989588 16
2.3795669 3.5639675 0.074801013 26
2.378531 3.5583801 0.22431193 20
2.3590772 3.5252802 0.37110916 22
2.5131366 3.7498324 0.55426186 22
4.0117283 5.9790983 1.1404074 3
4.1993093 6.2515936 1.4638867 22
4.2737346 6.3552003 1.7681154 48
6.2386208 9.2630777 2.9924657 10
1.3390211 1.9769831 -0.63980073 40
1.4512945 2.1403337 -0.59702015 23
1.5779095 2.3244412 -0.54609537 24
1.7565358 2.5846653 -0.4949587 23
2.0372858 2.9932795 -0.44457942 12
2.2673619 3.3275719 -0.35228351 14
2.5717835 3.7700963 -0.23917533 16
2.5640204 3.7530816 -0.07933864 9
2.4407864 3.6023185 0.075952873 12
2.3982122 3.5354962 0.22389325 27
2.3713167 3.4905951 0.36919171 21
2.4839029 3.6522074 0.54231864 18
4.0679011 5.9745107 1.1447875 1
4.1366701 6.0664091 1.4272513 13
4.212523 6.1706977 1.7249248 44
6.3309593 9.2634621 3.0064421 31
1.3491642 1.9630464 -0.63824779 41
1.4547836 2.114351 -0.59252113 38
1.5963277 2.316601 -0.54685861 36
1.7644432 2.5577044 -0.49214289 30
2.0373092 2.9499402 -0.4401921 15
2.2899611 3.3120601 -0.35228351 10
2.5593834 3.6962211 -0.23561651 20
2.6646962 3.8440106 -0.081642359 3
2.487407 3.6164954 0.076616064 15
2.3752632 3.4495773 0.21949703 27
2.3746657 3.4448471 0.36605412 22
2.5454276 3.6870544 0.55011827 16
3.2256107 4.6670728 0.89855969 1
4.3476624 6.2835107 1.4852573 18
4.5407166 6.5551867 1.8409995 14
6.2071795 8.9476089 2.9179258 42
1.3573097 1.9456577 -0.63565958 32
1.4706249 2.105741 -0.59297103 39
1.5929339 2.2783294 -0.54037106 34
1.7829438 2.5472543 -0.49245578 31
2.0327845 2.8998854 -0.43482983 17
2.2855585 3.2568526 -0.34810004 9
2.5821869 3.6754453 -0.23540714 22
3.2587602 4.631588 -0.098850429 8
2.5302768 3.6257184 0.077174544 10
2.3758113 3.4005845 0.21740359 35
2.3780956 3.3988011 0.3629165 17
2.5237694 3.6029823 0.54012495 13
2.9964473 4.2730193 0.82659984 7
4.2357154 6.0312901 1.4325941 24
4.5942154 6.5344858 1.8441488 82
7.5566602 10.736106 3.5178688 19
1.3694049 1.9347975 -0.63514197 35
1.4849242 2.0956819 -0.59297103 31
1.617889 2.2799625 -0.54342401 29
1.8144118 2.5540695 -0.49621019 22
2.0409713 2.8698044 -0.43239245 17
2.2897458 3.2148511 -0.34531105 6
2.574157 3.6101689 -0.23237166 20
2.5710566 3.6018298 -0.077244349 3
2.4780869 3.4986327 0.074835919 27
2.3763888 3.3513305 0.21531016 26
2.3758044 3.3467917 0.35908166 23
2.5546141 3.5933633 0.54134369 17
3.0445325 4.2777467 0.83160573 16
4.5318584 6.3604746 1.5180764 14
4.4982333 6.3039656 1.7879111 21
6.3030028 8.823452 2.9055028 28
1.3806256 1.9220513 -0.6341067 35
1.5108957 2.1010857 -0.59747005 36
1.6337668 2.2686121 -0.54342401 32
1.8125583 2.5141013 -0.49089143 26
2.0679274 2.8651435 -0.43385491 20
2.3062985 3.1907139 -0.34443948 14
2.6215444 3.6228533 -0.23436043 24
2.8037837 3.8704312 -0.083422504 10
2.4651 3.4292893 0.073718965 26
2.3892279 3.3200684 0.2143681 24
2.3618441 3.2783937 0.3535037 21
2.6098366 3.6172969 0.54768091 16
3.0581295 4.2339683 0.82722551 13
4.53474 6.2714086 1.5043381 11
4.6667171 6.4444494 1.8369504 14
6.3168254 8.713541 2.8837619 6
1.3883207 1.9045603 -0.63151848 45
1.5117425 2.0715964 -0.59207124 31
1.6530411 2.2619054 -0.5445689 27
1.8219023 2.4902251 -0.48870131 28
2.0855336 2.8474338 -0.43336743 15
2.3120184 3.1520445 -0.34199914 17
2.6633205 3.627002 -0.23582584 16
2.879297 3.9168224 -0.084853604 13
2.5219789 3.457231 0.074696302 7
2.4123466 3.3033087 0.2143681 31
2.4070139 3.2923861 0.35681561 31
2.5541112 3.4884725 0.53086293 28
2.9007688 3.9575977 0.77716655 13
nan nan nan nan
4.5627337 6.2091384 1.778913 14
nan nan nan nan
1.3866473 1.8746315 -0.62478918 24
1.5134104 2.0437655 -0.58712232 30
1.6711308 2.2534637 -0.54533213 22
1.8392428 2.4774451 -0.48870131 22
2.0745745 2.7913802 -0.42703021 15
2.3304002 3.131031 -0.3414762 16
2.6480057 3.5538661 -0.23226699 45
2.9328752 3.9318891 -0.085621506 22
2.523448 3.4090018 0.074033104 16
2.3854053 3.2189901 0.20997187 12
2.4002652 3.2354965 0.35245782 30
2.6139166 3.5183616 0.53817511 20
2.8717396 3.8611693 0.7621488 16
4.7414494 6.368104 1.5432632 10
4.9810648 6.6801777 1.9237815 8
3.5661945 4.7774529 1.5974313 15
1.3718693 1.8278235 -0.6123659 57
1.538177 2.0471716 -0.59117138 31
1.6809191 2.2338994 -0.54342401 47
1.8493614 2.4550784 -0.48682413 32
2.0916197 2.7736602 -0.42654276 17
2.3401952 3.0987861 -0.33973309 16
2.6474574 3.5018358 -0.23006889 16
2.5958033 3.4297776 -0.075080253 14
2.4066782 3.2042277 0.069949247 15
2.4102225 3.2054501 0.21018122 22
2.4168038 3.2107019 0.35158628 26
2.5977879 3.4461315 0.52988791 13
2.8891065 3.8284128 0.75964588 10
nan nan nan nan
4.6689677 6.1712484 1.7865614 8
nan nan nan nan
1.3869367 1.8212762 -0.61340117 37
1.5536139 2.0379326 -0.59162134 23
1.6905169 2.2143073 -0.54151595 41
1.8400664 2.4075789 -0.47994098 23
2.1073136 2.7542603 -0.42581153 20
2.3351107 3.0475807 -0.33589822 13
2.6584673 3.4658368 -0.22891749 22
2.5161617 3.2767594 -0.072113343 16
2.4338357 3.1937106 0.070088863 32
2.378026 3.1170897 0.20547098 15
2.4488325 3.2064197 0.35298076 18
2.5373666 3.3175361 0.51282626 26
2.9445865 3.8457906 0.76715469 16
4.7761579 6.2311611 1.5260904 15
nan nan nan nan
7.2745147 9.4666481 3.1990035 1
1.405524 1.8191919 -0.61598933 27
1.5642259 2.0224128 -0.59027159 32
1.6903058 2.1822739 -0.53655493 22
1.8810388 2.4258957 -0.48619837 25
2.1240575 2.7363443 -0.42532405 20
2.3526616 3.0264854 -0.33537531 14
2.6985445 3.4676838 -0.23027822 7
2.7884505 3.5793462 -0.079199016 8
2.4842055 3.2130275 0.070891678 25
2.4608536 3.1793835 0.21070457 16
2.4125822 3.1136484 0.34461379 22
2.5312572 3.2621026 0.50697654 27
2.9628787 3.8142209 0.76496464 33
4.8111038 6.1868186 1.523419 16
7.3924441 9.4925909 2.7776959 2
7.2418461 9.2891722 3.1560395 1
1.4265323 1.8199784 -0.61961281 41
1.571089 2.0022447 -0.58757222 31
1.7200559 2.1889443 -0.54113436 28
1.8906009 2.403389 -0.48432118 22
2.1406515 2.7183306 -0.42483655 24
2.3589282 2.9912133 -0.33328354 32
2.7115498 3.4346516 -0.2293362 20
2.5281916 3.1989479 -0.071170911 16
2.4843609 3.1672843 0.070263386 15
2.4200828 3.0820127 0.20536631 11
2.396091 3.048172 0.33921015 18
2.5944891 3.2958245 0.51501989 16
2.9857669 3.7887886 0.76402605 24
5.0681911 6.4243588 1.5905839 12
7.3836312 9.3459501 2.7498019 2
7.2453985 9.1611147 3.1296401 1
1.4464175 1.8190475 -0.62271863 43
1.5801744 1.9851289 -0.58577257 36
1.743862 2.187629 -0.54380566 37
1.8863875 2.363883 -0.47900239 20
2.138514 2.6769536 -0.42069301 22
2.3959336 2.9948974 -0.33554959 19
2.6967583 3.3673103 -0.22609136 20
2.8719268 3.5821888 -0.080141447 12
2.5026753 3.14517 0.070158668 21
2.4477608 3.0728543 0.20588967 11
2.3887422 2.9955416 0.335201 11
2.5691245 3.2171357 0.50551409 25
3.0084443 3.7632229 0.76308739 13
nan nan nan nan
7.3512025 9.1725225 2.7138095 2
7.2862091 9.0816793 3.1198049 5
1.4627194 1.8134171 -0.62427157 43
1.6013393 1.9831464 -0.58847201 27
1.7492164 2.1631885 -0.54075271 46
1.9115447 2.3614037 -0.48119247 23
2.1596498 2.6650431 -0.42118049 20
2.391674 2.9471562 -0.33206338 19
2.7176819 3.3453004 -0.22588199 31
2.800976 3.4441445 -0.077488683 6
2.5032213 3.1011682 0.069565296 21
2.6260662 3.2498744 0.21897365 9
2.4922974 3.0810282 0.34670553 10
2.5965183 3.2052922 0.50648904 23
2.9761636 3.6700182 0.74838257 13
5.1140876 6.2996216 1.5772274 15
3.5882888 4.4138155 1.3132644 10
3.6314275 4.4621038 1.5415263 9
1.4741205 1.8016659 -0.62375391 34
1.6077373 1.9628724 -0.58577257 41
1.7680099 2.1554787 -0.54189759 47
1.9217149 2.340369 -0.47962815 27
2.1592937 2.6268995 -0.4175244 16
2.3990183 2.9154248 -0.33032027 13
2.7257288 3.30775 -0.22462595 16
2.816045 3.4137075 -0.077244349 21
2.4627354 3.0078027 0.067854956 16
2.4309208 2.9657776 0.20097008 27
2.4998441 3.0466106 0.3447881 18
2.6049709 3.1702149 0.5038079 23
2.9276755 3.5591419 0.72992331 12
5.2702613 6.4001637 1.6115729 11
7.4583793 9.0477381 2.7070611 36
7.4196749 8.9880037 3.1229107 35
1.4718585 1.7734911 -0.61754227 43
1.6263829 1.9575962 -0.58757222 41
1.7725989 2.1313179 -0.53884465 40
1.9287544 2.3166063 -0.47743803 22
2.1826663 2.6178584 -0.41849938 11
2.4001646 2.8756604 -0.32770559 17
2.7622676 3.3059793 -0.22577733 16
2.7692287 3.3096159 -0.07532458 13
2.6262124 3.16329 0.07176429 12
2.4382846 2.9338031 0.19992337 11
2.5605621 3.0765586 0.35019177 12
2.6455481 3.175288 0.50746399 27
3.0530524 3.6604915 0.75495279 25
7.5751524 9.0694256 2.2969587 44
7.5326128 9.0089045 2.7111104 12
7.4075289 8.849885 3.0923703 28
1.4926021 1.773779 -0.62116575 25
1.6208369 1.9241248 -0.58082366 30
1.7924978 2.1248941 -0.54037106 38
1.9512516 2.3106315 -0.47900239 18
2.1991522 2.6014261 -0.41825563 12
2.4171076 2.8562155 -0.32735696 14
2.7478333 3.2424273 -0.22274184 20
2.6778531 3.1564989 -0.072252966 30
2.4859393 2.9521463 0.067366287 21
2.4754429 2.9365597 0.20128411 15
2.5146291 2.9798779 0.34112757 10
2.6586823 3.1461277 0.50575781 18
3.0287762 3.5802712 0.74275094 10
7.6392441 9.0206537 2.2977221 29
7.709691 9.0941811 2.7525015 12
7.3853636 8.6992836 3.0576882 16
1.5174903 1.7780098 -0.62634212 17
1.6354961 1.9142441 -0.58127356 39
1.7941591 2.0977242 -0.53655493 27
1.9489492 2.276288 -0.47462222 41
2.2120917 2.5799816 -0.41728067 8
2.4214168 2.8211288 -0.32526523 16
2.7451081 3.1948671 -0.2207531 19
2.5563555 2.9709878 -0.068413429 17
2.4618285 2.8834505 0.066179529 24
2.4460623 2.8619487 0.19730657 15
2.5612805 2.9925244 0.34461379 7
2.6968262 3.1475544 0.50892639 13
3.118665 3.6360414 0.75870728 15
7.7071548 8.9730558 2.2992485 27
3.613338 4.2023759 1.2795217 12
7.3977771 8.5946379 3.0385358 33
1.520709 1.7574134 -0.62271863 11
1.6484882 1.9030672 -0.58127356 29
1.8023278 2.0777321 -0.53464681 30
1.9557259 2.2521868 -0.47243217 41
2.2165782 2.5498827 -0.41484326 12
2.4384367 2.8011498 -0.3249166 16
2.7725959 3.1816463 -0.22117178 15
2.6277864 3.0122874 -0.069774717 13
2.5002248 2.8873572 0.06666819 28
2.4659829 2.8448021 0.19730657 18
2.4888783 2.8681791 0.33223769 13
2.7070158 3.1151648 0.50673276 16
3.1997221 3.678267 0.77216065 13
nan nan nan nan
3.7386479 4.2872014 1.3132644 1
7.3826418 8.4569178 3.0079951 7
1.5214726 1.733686 -0.61805987 12
1.6565893 1.8856562 -0.57947397 27
1.8038216 2.0503588 -0.53083062 31
2.0014296 2.2725747 -0.47962815 18
2.2225111 2.5209446 -0.41264963 12
2.4447477 2.7691212 -0.32317349 13
2.8185475 3.1891499 -0.22305585 20
2.5878003 2.9249752 -0.068169102 30
2.4952488 2.8412852 0.066004999 25
2.4435842 2.7795167 0.19395708 3
2.5272691 2.8716726 0.33467805 23
2.6775103 3.0381091 0.49722698 28
3.1508322 3.5714049 0.75432706 18
3.1554477 3.5728643 0.92656857 1
8.0353041 9.0854588 2.8001909 2
2.8749204 3.2472239 1.1620976 15
1.5181257 1.7057058 -0.61184824 18
1.6878613 1.8944159 -0.58577257 22
1.8363904 2.0582249 -0.53617334 38
2.0014555 2.2408669 -0.47587368 20
2.2228558 2.4861293 -0.40948102 15
2.4626901 2.7505028 -0.32299918 12
2.8460739 3.1753457 -0.22347455 20
2.5534022 2.8458145 -0.066738002 31
2.5030556 2.8103552 0.06569086 28
2.4841959 2.7862418 0.19563182 6
2.5220485 2.8257167 0.33136615 15
2.6761644 2.9941821 0.49308339 31
3.1282723 3.4963226 0.74306375 13
9.0798798 10.137468 2.645376 2
8.6567421 9.6514883 2.9931989 2
nan nan nan nan
1.5416473 1.7079716 -0.61650699 16
1.6866752 1.8666801 -0.58082366 38
1.8322724 2.0249743 -0.53083062 36
1.9918535 2.1990232 -0.46992919 28
2.2374899 2.4676104 -0.40899354 15
2.488529 2.7406182 -0.32387072 18
2.852052 3.1376638 -0.2222185 14
2.5826283 2.8382723 -0.066982336 24
2.5829318 2.8595901 0.067261577 7
2.5491312 2.8192003 0.19919068 7
2.472188 2.7312295 0.32230192 28
2.7863266 3.0739686 0.5094139 11
5.0388556 5.5531878 1.1876506 5
8.7544193 9.637866 2.5308907 2
2.9661038 3.2608495 1.0176786 22
7.5035043 8.2404575 2.9862542 24
1.5600556 1.7042923 -0.61909521 24
1.6891338 1.8433657 -0.57722449 30
1.8463647 2.0121334 -0.53083062 38
2.007158 2.1850631 -0.46992919 18
2.2398834 2.4358549 -0.40631241 11
2.5062521 2.7217126 -0.32369643 15
2.827862 3.0677464 -0.21865964 12
2.5820386 2.7981291 -0.066458762 41
2.5906749 2.8282185 0.06694743 7
2.5943964 2.8293056 0.20117943 11
2.5060146 2.7300506 0.32421938 18
2.6868124 2.9229105 0.48747739 28
3.1005392 3.3694499 0.72523028 1
3.1045473 3.3702629 0.89069647 8
3.2041693 3.473542 1.0910127 14
3.2345591 3.502805 1.2775309 30
1.5706006 1.6919444 -0.61857754 30
1.7006341 1.8301015 -0.57677454 22
1.8523436 1.9905699 -0.52854097 42
2.0048602 2.1522069 -0.46586189 22
2.2554805 2.4187064 -0.40606871 17
2.5102324 2.6881325 -0.32177898 22
2.84921 3.0479295 -0.21865964 21
2.7203817 2.9070635 -0.069495484 12
2.638937 2.8408303 0.067680433 11
2.6603284 2.860853 0.20473827 11
2.5331578 2.7212386 0.32526523 21
2.6530097 2.846 0.47772786 16
4.935307 5.2887659 1.1457262 19
3.3129468 3.5464904 0.94335973 11
7.4351687 7.948175 2.5127034 20
3.2034743 3.4209135 1.2557901 3
1.5731053 1.6710917 -0.61495411 25
1.7106962 1.8153478 -0.57587475 25
1.8635002 1.9747338 -0.52777767 42
2.0157669 2.1338501 -0.46492329 10
2.2736752 2.4043436 -0.40631241 13
2.5175157 2.6594071 -0.3203845 22
2.8360677 2.9917271 -0.21604285 24
2.8314595 2.9837358 -0.071799204 18
2.5627232 2.7204483 0.065237097 14
2.5034733 2.654763 0.1912356 15
2.5233738 2.6730611 0.32160467 21
2.6250839 2.776921 0.46919701 14
4.9449515 5.2254887 1.1394688 7
nan nan nan nan
3.3657348 3.549228 1.1292545 27
3.7673757 3.9672115 1.4659511 13
1.5753958 1.6502872 -0.61133063 26
1.7139035 1.7934984 -0.57272542 28
1.8701122 1.9549111 -0.52586961 27
2.0165813 2.1058135 -0.46179458 11
2.2876563 2.3855474 -0.40582496 22
2.526361 2.6317067 -0.31916434 25
2.9310946 3.0501196 -0.22169513 43
2.9035249 3.0172083 -0.07309068 10
2.5549417 2.6754637 0.064573906 29
2.5270052 2.6434369 0.19165429 31
2.5350852 2.6481833 0.32073313 10
2.6192038 2.7331886 0.46480972 13
4.9434862 5.1532173 1.1310214 7
nan nan nan nan
3.8807621 4.0355263 1.2925688 15
3.1391339 3.2609029 1.2128261 6
1.5865926 1.6395255 -0.61133063 36
1.726072 1.7817906 -0.57272542 34
1.8891835 1.9474436 -0.52739608 11
2.0133443 2.0732603 -0.45772728 9
2.2927728 2.3585324 -0.40387502 13
2.5418925 2.61115 -0.31881571 12
2.8714705 2.9466197 -0.21562417 36
2.8346262 2.905766 -0.070856772 31
2.6472864 2.7336972 0.066423863 9
2.5606899 2.6415052 0.19280569 38
2.7514672 2.8353314 0.34565967 9
2.6603551 2.7376158 0.46870953 20
3.1694214 3.2580516 0.71991152 16
3.2187817 3.3053279 0.89680237 27
3.7088408 3.8032444 1.2264332 10
3.1105425 3.186378 1.1931559 16
1.5898813 1.620136 -0.60822481 24
1.7207158 1.7516248 -0.56687671 46
1.8875874 1.9188126 -0.52319831 24
2.0222242 2.053525 -0.45647582 9
2.3008199 2.3339872 -0.40241259 9
2.5446644 2.5777426 -0.31689829 28
2.9017999 2.936444 -0.21635687 26
2.7943726 2.8247745 -0.069355868 24
2.6018546 2.6495187 0.064818241 28
2.5426636 2.5865331 0.19008422 25
2.6482155 2.6910865 0.33032027 9
2.7198095 2.75998 0.47577798 28
3.160183 3.2035012 0.71271551 30
nan nan nan nan
3.2351592 3.2715013 1.0622189 17
3.1490195 3.1810613 1.1993675 24
1.6106912 1.6185833 -0.61184824 26
1.756282 1.7630404 -0.57452506 33
1.9009372 1.905588 -0.52319831 32
2.0448861 2.0477436 -0.45835301 9
2.2960067 2.2968087 -0.3987565 4
2.5565131 2.5547297 -0.31620103 18
2.841644 2.8357 -0.21039055 40
2.7786186 2.7699041 -0.068483248 17
2.6090014 2.6199529 0.064539 13
2.5719407 2.5800338 0.19092159 47
2.7147894 2.7204819 0.33624685 24
2.7390113 2.7409248 0.47577798 13
3.4604831 3.4592762 0.77497649 33
nan nan nan nan
3.1000743 3.0925071 1.0109302 10
3.0685024 3.0567446 1.1605446 34
1.6192075 1.6045796 -0.61081296 14
1.7630078 1.7452523 -0.57272542 23
1.9026964 1.8815608 -0.52014536 36
2.0545614 2.0296123 -0.45741442 7
2.3148119 2.2835121 -0.39924401 4
2.5629332 2.5256319 -0.31480655 10
2.9291999 2.8835466 -0.21541482 21
2.7094738 2.6635232 -0.066319145 30
2.6338766 2.6091712 0.064713523 24
2.6078985 2.5807307 0.19228233 31
2.7082071 2.6762547 0.33310926 12
2.7321761 2.6971152 0.47139066 25
3.2462475 3.2012351 0.72210157 13
3.2117596 3.1628063 0.87619489 33
3.3132999 3.2593837 1.0730166 63
nan nan nan nan
1.621804 1.5854174 -0.60770714 34
1.7818186 1.7400184 -0.57497495 23
1.928436 1.8805678 -0.5235799 34
2.0587759 2.0055707 -0.45522434 9
2.3274562 2.2649336 -0.3987565 5
1.9871931 1.9317863 -0.24246727 3
2.9005353 2.8157272 -0.21185598 36
2.7375898 2.6547635 -0.06656348 12
2.6491666 2.587925 0.064643718 23
2.7301986 2.6642914 0.19992337 16
2.6379063 2.5715322 0.32230192 19
2.7694304 2.6959763 0.47455928 21
3.1353972 3.0490406 0.69269186 22
3.289542 3.1955907 0.8914597 16
nan nan nan nan
nan nan nan nan
1.6300504 1.5713755 -0.60667187 27
1.7798848 1.7140197 -0.57047588 32
1.9496801 1.8755652 -0.52586961 32
2.0681059 1.9874053 -0.45428574 7
2.3303216 2.2362597 -0.39656287 13
2.0063841 1.9233811 -0.24316452 3
2.9932017 2.8663685 -0.21719423 14
2.7517211 2.6314404 -0.066458762 15
2.6465631 2.5504048 0.064155042 28
2.6374776 2.5389874 0.19186363 12
2.6227601 2.5212944 0.31829277 9
2.8149211 2.703187 0.47919029 12
3.5309882 3.3872786 0.77497649 58
3.8193097 3.6587534 1.0280789 10
3.6099434 3.4545653 1.1535491 21
3.5944147 3.4361017 1.3324004 34
1.6353805 1.5546334 -0.60460132 38
1.7805029 1.6908168 -0.56687671 31
1.944532 1.8440036 -0.52090853 27
2.0808403 1.9711969 -0.45397288 14
2.3473172 2.221302 -0.3968066 12
2.5877504 2.4454031 -0.31149462 25
2.9686136 2.8023751 -0.21394941 31
2.976613 2.8069804 -0.071415246 18
2.7125893 2.5768507 0.065306902 11
2.6729636 2.5365467 0.19311969 7
2.6402981 2.5029225 0.31829277 36
2.7707622 2.6229284 0.46846578 16
3.382905 3.1990538 0.73743218 28
3.2838886 3.1021633 0.87810302 6
3.6444938 3.4380052 1.1566983 11
3.1071458 2.9280291 1.1439801 24
1.6532418 1.5497837 -0.60718954 30
1.8036438 1.6890005 -0.57047588 41
1.9559244 1.8290424 -0.52052695 19
2.0093834 1.8770626 -0.43551362 14
2.3685732 2.2102778 -0.39778158 13
2.6033008 2.4259207 -0.3113203 24
2.9340141 2.7312317 -0.21007656 26
3.0298162 2.8174529 -0.072218053 36
2.9523385 2.7656517 0.070612431 10
2.673106 2.5014496 0.19186363 15
2.7232029 2.5456564 0.32613677 22
2.8064194 2.6197762 0.47139066 18
3.2910252 3.0689297 0.71271551 18
3.6918938 3.4391334 0.98075831 23
3.6241767 3.3713305 1.1427515 24
3.0963795 2.8773332 1.1325922 17
1.6512527 1.5264027 -0.60253078 23
1.8082321 1.6697582 -0.5682264 34
1.9441109 1.7927167 -0.51403946 45
2.0950847 1.9299052 -0.45115703 10
2.3883293 2.1977198 -0.39851278 15
2.6256216 2.4135363 -0.31201756 22
2.9530101 2.7106817 -0.21007656 45
2.8990788 2.6583805 -0.068657771 12
2.7336135 2.5251579 0.064957857 12
2.7418778 2.530133 0.19552715 16
2.8976574 2.6710746 0.3447881 9
2.7954288 2.5732324 0.46651587 10
3.3123686 3.0458808 0.71271551 10
3.5509858 3.2618709 0.93725383 11
nan nan nan nan
7.1528878 6.5544133 2.5995786 21
1.6518749 1.5057279 -0.59890729 30
1.8169633 1.6544696 -0.56732661 24
1.9562677 1.779443 -0.51403946 23
2.1096339 1.9169294 -0.45146993 11
2.4036133 2.1809936 -0.39851278 13
2.6748827 2.4245861 -0.3158524 10
2.9625099 2.6824751 -0.20944853 35
3.0258465 2.7359803 -0.071205825 13
2.7773442 2.530736 0.065586142 1
2.6984794 2.4562888 0.1912356 30
nan nan nan nan
2.7673211 2.5127771 0.45896 15
3.0535655 2.7697766 0.65295756 9
3.6653411 3.3200347 0.96129572 22
3.8162589 3.4530993 1.1881915 9
3.1543872 2.8512096 1.1393216 42
1.6606483 1.4931581 -0.59838963 38
1.8136851 1.6290416 -0.56282759 34
1.9511045 1.7500117 -0.50946003 27
2.1170802 1.8968817 -0.45021844 9
2.4110072 2.1579626 -0.3972941 12
2.6991718 2.4124916 -0.31672394 4
2.9915938 2.6710391 -0.21018122 15
2.9653034 2.6447768 -0.069355868 17
2.9615402 2.6609726 0.069495484 6
2.6947527 2.4187129 0.18977019 28
2.6568103 2.3821466 0.31219187 10
2.7729645 2.4828029 0.45701009 14
3.1317222 2.8010676 0.66547227 21
3.315995 2.9627607 0.8643648 8
3.2484558 2.8983405 1.0050814 31
nan nan nan nan
1.6753694 1.4853721 -0.59994256 35
1.8191785 1.6111718 -0.561028 39
1.9618032 1.7350484 -0.50907844 30
2.1302705 1.8820564 -0.45021844 9
2.4170837 2.1331966 -0.39583167 15
2.7159483 2.393589 -0.31672394 3
3.0641353 2.6976004 -0.21394941 21
2.9897015 2.6292927 -0.069495484 19
2.7914536 2.4731457 0.065097481 13
2.766911 2.4488173 0.19364306 12
2.7808483 2.4585569 0.32474229 27
2.9628525 2.6157846 0.48528376 22
3.3986161 2.9973381 0.7177214 15
3.3410175 2.9434319 0.86550963 37
3.8948274 3.4265084 1.1976395 9
nan nan nan nan
1.6856985 1.4736397 -0.59994256 43
1.8259786 1.594587 -0.55967826 35
1.9723895 1.7200186 -0.50869679 13
2.1210163 1.8476746 -0.44552541 13
2.4259274 2.1110578 -0.39485672 13
2.7231562 2.367204 -0.31567809 4
3.0738425 2.6682885 -0.21332137 49
3.1590648 2.7393625 -0.072985962 13
2.9953916 2.6167336 0.069425672 5
2.7989869 2.4425745 0.19468978 8
2.7438769 2.3919523 0.31846708 22
2.7819064 2.4216862 0.45286649 12
3.3657966 2.9268742 0.70645815 46
3.2814496 2.8505108 0.84490222 23
nan nan nan nan
1.9373879 1.6788105 0.68690574 7
1.6857016 1.4530072 -0.59631914 24
1.8385425 1.5830727 -0.56012815 39
1.9676781 1.6924715 -0.50449902 12
2.121557 1.8228966 -0.44302243 12
2.4390996 2.0927775 -0.39461297 11
2.7048225 2.3183134 -0.31166893 13
3.0752466 2.6330135 -0.21216999 33
3.2617054 2.7887151 -0.074905731 16
2.9949563 2.5806186 0.069006816 11
2.8655026 2.4664614 0.19814396 3
2.7877071 2.3961136 0.32160467 12
3.0618925 2.6289976 0.49552077 13
3.0887601 2.6492584 0.64451009 16
nan nan nan nan
1.964926 1.681175 0.59702015 9
1.9561124 1.6718609 0.68949395 6
1.6734762 1.422729 -0.58855456 31
1.8448203 1.5667363 -0.55877846 37
1.9704622 1.6710745 -0.50220931 10
2.1282024 1.8029335 -0.44177097 12
2.4517722 2.0748456 -0.39436921 12
2.7300708 2.3070908 -0.31271479 13
3.1607037 2.6681688 -0.21677555 19
3.2057045 2.7032835 -0.07319539 19
3.0494738 2.5907216 0.069844536 7
2.835444 2.4063351 0.19489913 7
2.7598784 2.3397207 0.31654966 40
2.921088 2.472883 0.46992823 10
2.0121255 1.7015821 0.41736722 1
2.0006628 1.6900926 0.50907844 9
1.9944904 1.6824937 0.60241896 6
1.9736463 1.6631424 0.6915645 10
1.7114973 1.4345908 -0.59838963 33
1.8527241 1.5513175 -0.55787861 35
1.9760565 1.6522388 -0.50068283 10
2.1452866 1.7918297 -0.44270959 15
2.2223222 1.8541986 -0.35537103 23
2.7430496 2.2854245 -0.31236616 24
3.1930707 2.657537 -0.2177176 19
2.9292655 2.4353817 -0.066493668 16
3.0092328 2.5205755 0.068518147 12
2.8460472 2.3813546 0.19448043 13
2.7990763 2.3395624 0.31916434 9
2.0375934 1.7006744 0.32587865 7
2.0148516 1.6799041 0.41549 7
2.0169377 1.6798542 0.51022327 6
2.0151772 1.6760051 0.60511833 9
1.9807514 1.6456199 0.69001162 5
1.721471 1.4226075 -0.59838963 26
1.8650119 1.5395858 -0.55832857 28
1.9905721 1.6409017 -0.50144607 10
2.1333447 1.7567191 -0.43770367 22
2.4590399 2.0227559 -0.39095688 8
2.7647009 2.2717583 -0.31306344 22
3.1760347 2.60604 -0.21531016 14
2.9616632 2.4275475 -0.06684272 15
3.0313821 2.5033255 0.068622865 10
2.8225448 2.3283825 0.19175896 12
2.0603807 1.6978438 0.23357739 9
2.0279565 1.6687492 0.32246631 6
2.0524726 1.6871212 0.42080876 7
2.0362027 1.6719618 0.51213133 9
2.0190046 1.6560709 0.60286885 4
1.9802356 1.6219585 0.68587047 5
1.7238719 1.4044536 -0.59580147 41
1.8772265 1.5277582 -0.55877846 25
1.9879851 1.6161683 -0.4980115 10
2.1575201 1.7521195 -0.44020665 22
2.2387424 1.8154881 -0.3539086 11
2.6845064 2.1746476 -0.30225611 9
3.2030141 2.5919006 -0.21593818 22
2.9489863 2.3829324 -0.066179529 12
2.930511 2.386662 0.0659701 11
2.0652246 1.6801593 0.13952768 9
2.0706375 1.682162 0.23340309 6
2.0593076 1.6711669 0.32563493 8
2.0608406 1.6706222 0.42018303 8
2.0432477 1.654 0.51098651 4
2.0153637 1.6296821 0.59836984 5
2.0062582 1.6205809 0.69104689 4
1.727368 1.3878471 -0.59373093 30
1.8799831 1.5088462 -0.55652899 30
1.9976869 1.6010233 -0.49762988 10
2.1650741 1.7333096 -0.43926802 29
2.2125993 1.7688259 -0.34781513 10
2.8132749 2.2466128 -0.31498083 16
2.1608856 1.7237784 -0.14486594 5
2.111546 1.6820086 -0.047121495 11
2.1003947 1.6863478 0.047016785 6
2.0769041 1.6657003 0.13952768 4
2.0882592 1.6730114 0.23410031 8
2.0786741 1.662951 0.3268536 7
2.0523918 1.6401637 0.41611573 5
2.0486076 1.6347958 0.50946003 9
2.032788 1.6204304 0.60016948 7
4.2556891 3.3887663 1.457669 16
1.7190797 1.3610607 -0.58751929 26
1.8876749 1.4929368 -0.55562913 39
2.0103567 1.588254 -0.4980115 10
2.1774204 1.7177745 -0.43926802 40
2.2217751 1.7508796 -0.34732765 37
2.1932895 1.7265708 -0.24421038 5
2.1558928 1.6946939 -0.14371455 7
2.1342466 1.6758714 -0.047365833 5
2.1089795 1.6691622 0.046946973 6
2.1185429 1.6743255 0.14151645 7
2.0939226 1.6530871 0.23340309 6
2.0777631 1.6385647 0.3249037 6
2.0702839 1.6303238 0.41736722 11
3.5212371 2.7699461 0.87085229 18
3.5993063 2.8283093 1.0568202 11
nan nan nan nan
1.7270169 1.3478376 -0.58700162 19
1.8796091 1.4653442 -0.55023032 39
2.0185721 1.5714154 -0.49724829 10
2.1628511 1.6819158 -0.43394926 37
2.2010238 1.7097517 -0.34220913 13
2.1552117 1.671754 -0.23863243 4
2.1660929 1.6783785 -0.14360988 5
2.1538014 1.6670505 -0.047540355 7
2.1319079 1.6626364 0.047191311 7
2.1191502 1.6509033 0.14078373 4
2.1054115 1.6384296 0.23340309 6
2.0800302 1.6163464 0.32344127 6
nan nan nan nan
3.7235644 2.8872526 0.91588324 41
3.4237652 2.6509631 0.99968255 19
nan nan nan nan
1.7486334 1.3451719 -0.59114271 21
1.8851569 1.448625 -0.54888058 32
2.0403965 1.5656511 -0.49991959 12
2.1902184 1.6787922 -0.43707794 24
2.2034497 1.6871035 -0.34074673 6
2.1953206 1.6784494 -0.24177003 6
2.1936305 1.675338 -0.1446566 9
2.1590273 1.6471218 -0.047400735 5
2.13078 1.6379625 0.04691207 5
2.1021101 1.6141733 0.13889964 6
2.1199601 1.6261163 0.2337517 6
2.9753628 2.2789538 0.4601787 14
3.1879017 2.4390988 0.63574976 42
3.5845261 2.7395864 0.87695819 11
3.5459812 2.7062078 1.0298259 34
3.379921 2.5766757 1.1388038 55
1.7456669 1.3235939 -0.58700162 14
1.8998847 1.4389585 -0.55023032 43
2.0356185 1.5395257 -0.49610341 21
2.2066135 1.667033 -0.43801656 6
2.2230971 1.6776582 -0.34196541 8
2.2130582 1.6682647 -0.24246727 6
2.1893158 1.6479714 -0.14360988 5
2.159286 1.6235963 -0.047156405 5
2.1405699 1.6218382 0.046877164 6
2.1181066 1.6030735 0.13921365 6
3.0022023 2.2697237 0.32927439 32
2.9975364 2.2629116 0.46115363 22
3.2285089 2.4346256 0.64044279 25
nan nan nan nan
3.7651913 2.8331592 1.0878634 34
3.3947387 2.5506957 1.1377686 31
1.7424847 1.3021233 -0.58286053 12
1.9067611 1.4233284 -0.54933053 26
2.0381804 1.5197672 -0.49419534 13
2.2353361 1.6649541 -0.44145811 14
2.2490897 1.6727601 -0.34415907 7
2.2054586 1.6385167 -0.24037553 3
2.2004817 1.633032 -0.14360988 6
2.1673551 1.606101 -0.047086593 5
2.1595695 1.613215 0.047051687 4
3.0445852 2.2718458 0.199086 40
3.0035961 2.2379954 0.32770559 27
3.0351655 2.2590475 0.46456599 15
3.1705005 2.3571975 0.62573791 24
3.9707985 2.9479001 0.96129572 33
3.9194953 2.9066303 1.126555 11
3.6774707 2.7241662 1.2262847 13
1.752863 1.2913784 -0.5833782 12
1.9179745 1.4114715 -0.54978037 32
2.0471592 1.5043373 -0.49381369 9
2.2357581 1.6411257 -0.43926802 12
2.2508192 1.6503682 -0.34269661 3
2.2037022 1.6140473 -0.23898104 6
2.2263386 1.62824 -0.14455192 1
3.8817506 2.8358128 -0.083911166 21
3.1450534 2.3153467 0.068169102 28
3.0474989 2.2410693 0.19824862 13
2.99949 2.2033455 0.32561383 27
3.0476601 2.2354562 0.46407849 20
3.3127599 2.4272401 0.65045458 30
4.3234673 3.1643021 1.0414355 24
4.2978678 3.1421118 1.2291327 26
3.7588124 2.7439885 1.2469902 46
1.7508926 1.2711647 -0.57975465 12
1.9120061 1.3866063 -0.54528135 37
2.0653005 1.4961276 -0.49572179 10
2.221271 1.6073419 -0.4342621 7
2.2687216 1.6392659 -0.34367159 5
2.9192951 2.1070125 -0.31498083 7
3.3471432 2.4131494 -0.21625218 31
4.1091852 2.9581892 -0.088378988 16
4.0006914 2.9034739 0.086284697 11
3.1467695 2.2812316 0.20369156 13
3.1471415 2.2781494 0.33990738 19
3.1110654 2.249553 0.47139066 14
3.3115914 2.3919103 0.64701301 12
3.9425948 2.8434906 0.94488621 23
3.9418042 2.8397844 1.121606 14
3.7554493 2.7025437 1.2397434 12
1.7657886 1.2637144 -0.58182526 12
1.910303 1.3656267 -0.54213208 31
2.0804887 1.4850945 -0.49686664 10
2.2629979 1.6135852 -0.44020665 11
2.5870378 1.8425931 -0.38998193 9
2.4533334 1.7447832 -0.26338464 3
3.3606527 2.3874102 -0.21604285 24
4.090085 2.9023783 -0.087541275 13
5.5530868 3.9712241 0.11916503 8
3.1528676 2.2522416 0.20306353 26
3.1836584 2.2717204 0.34217343 21
3.1040595 2.2116535 0.46797833 21
3.3298173 2.3698795 0.64732587 9
4.0914669 2.9087305 0.9757973 17
3.8010399 2.6982632 1.0761659 14
3.7758021 2.6773756 1.240261 42
1.7745678 1.2513561 -0.58182526 18
1.9213836 1.3533791 -0.54258198 32
2.0795653 1.4626278 -0.49419534 10
2.2919872 1.6102384 -0.44364822 10
2.5835896 1.8130842 -0.38754454 8
2.9810624 2.0889144 -0.31846708 9
3.3821464 2.3673258 -0.21635687 22
3.8152537 2.6675031 -0.081258401 10
3.5896788 2.5294261 0.07665097 30
3.1554482 2.220979 0.20222615 45
3.3868759 2.3812199 0.36221924 7
3.1145501 2.1865075 0.4672471 25
3.2735012 2.2955384 0.63324684 42
4.05861 2.8429263 0.96320391 41
4.0529304 2.8347323 1.1418517 11
4.0430322 2.8246579 1.3215301 10
1.7753283 1.2334256 -0.57923704 12
1.9259821 1.3365992 -0.54123229 23
2.0897255 1.4480741 -0.49419534 10
2.2999246 1.5919495 -0.44302243 10
2.5994501 1.7972611 -0.38803205 8
2.9758978 2.0544684 -0.31637534 9
3.3969467 2.3425224 -0.21625218 15
3.7794387 2.6033688 -0.080106542 8
5.5455704 3.8499708 0.11783865 3
nan nan nan nan
3.2871304 2.2769682 0.34984317 32
3.1493304 2.1782613 0.47017199 27
3.3414543 2.3085599 0.64325857 18
4.231863 2.9204576 0.9994576 8
nan nan nan nan
4.1199412 2.8357952 1.3401651 24
1.7711416 1.212273 -0.57509595 13
1.9304397 1.3198221 -0.53988254 19
2.0965414 1.431236 -0.4934321 10
2.3060863 1.5725157 -0.44208387 9
2.6086526 1.7768346 -0.38754454 8
2.9703984 2.0201969 -0.31428361 9
3.4165223 2.3209949 -0.21646154 7
3.595649 2.4399331 -0.075848162 11
3.7599924 2.571629 0.079513162 33
3.3345735 2.2781045 0.21164663 5
nan nan nan nan
3.1529763 2.1483986 0.46846578 33
3.3411582 2.2740626 0.64012986 18
4.2862415 2.9140236 1.0074716 1
4.0324583 2.737371 1.1252053 26
nan nan nan nan
1.7873609 1.2055895 -0.57768416 12
1.9199855 1.293584 -0.53448373 23
2.1176374 1.4246029 -0.49610341 11
2.3200157 1.5589856 -0.44270959 10
2.6355209 1.768994 -0.3897382 9
2.4875607 1.6671653 -0.26199016 2
3.4538164 2.3121309 -0.21782227 3
3.6304579 2.4276307 -0.076232105 16
3.5436003 2.388391 0.074591585 11
3.4991119 2.3557422 0.22106709 6
3.2818391 2.2069693 0.3460083 32
3.2186174 2.1611903 0.47602168 29
3.3319528 2.2347612 0.63543689 27
nan nan nan nan
4.080153 2.7293625 1.1333034 22
4.2132616 2.815212 1.3577647 24
1.7876879 1.1877376 -0.57509595 13
1.924098 1.2769166 -0.53313404 8
2.1242583 1.4076154 -0.4953402 10
2.3242538 1.5383896 -0.44145811 9
2.6329031 1.7406983 -0.38754454 8
2.9879935 1.972464 -0.31323773 6
3.4782121 2.2934582 -0.21834564 1
3.7274795 2.4550204 -0.07790754 19
3.6368229 2.4144711 0.076197207 18
3.6153445 2.3974855 0.22734742 15
3.3370314 2.2104099 0.35019177 13
3.2303145 2.1364789 0.47553423 29
3.4496601 2.2789552 0.65483475 13
20.784523 13.715293 4.8404431 8
3.9835718 2.624687 1.1013604 16
4.2005386 2.7644885 1.347412 12
1.7991694 1.177344 -0.57613122 12
1.9215473 1.2559893 -0.52998471 15
2.1258125 1.3873872 -0.4934321 10
2.3415558 1.5264419 -0.44270959 9
2.6300189 1.7125274 -0.38535091 9
3.0083728 1.9558998 -0.31393498 9
3.4606376 2.2473638 -0.21625218 7
3.8049233 2.4681144 -0.079164118 17
5.5782962 3.647552 0.11633775 6
3.7875082 2.4737566 0.2370819 10
3.4041123 2.2208054 0.35559544 40
3.2667742 2.1279602 0.47870281 31
3.4555514 2.2483528 0.65295756 13
nan nan nan nan
4.0279527 2.6137869 1.1085589 16
3.9036195 2.5302019 1.2464726 6
1.7959778 1.1574291 -0.57250774 12
1.9515707 1.2562561 -0.53583348 9
2.133795 1.3714508 -0.49305046 10
2.35548 1.5121921 -0.44333532 9
2.6502657 1.6994824 -0.38656959 8
3.0219531 1.9348512 -0.31393498 7
3.5216722 2.2522049 -0.21907835 3
4.1439357 2.6471033 -0.085830934 13
5.5767231 3.5911992 0.11577927 9
3.8752358 2.4926362 0.24147813 10
3.4932866 2.2443736 0.36326513 16
3.3300064 2.1361837 0.48577127 24
3.4212677 2.1922002 0.6435715 28
7.0029082 4.4819899 1.6161523 5
6.9328909 4.4303627 1.8994868 10
6.832768 4.3613439 2.1720095 9
1.7991213 1.1417572 -0.57095486 13
1.9586475 1.2415577 -0.53538352 8
2.1466351 1.3586205 -0.49381369 10
2.3626404 1.4935997 -0.44270959 9
2.6687796 1.6851779 -0.38754454 8
3.0219042 1.9052062 -0.3125405 7
2.639884 1.6624247 -0.16349754 31
4.0573683 2.5520971 -0.083666839 8
5.5780158 3.5371866 0.1152906 16
5.8885894 3.7298088 0.36530501 11
3.4549911 2.1858437 0.35768715 32
3.4002211 2.1478708 0.49381462 15
3.493289 2.2041023 0.65420902 27
7.0008068 4.4120593 1.6085199 4
6.9273682 4.3590188 1.8895891 12
6.8352461 4.2960572 2.1632097 12
1.80541 1.1281455 -0.57043719 12
1.9573485 1.2216625 -0.53268409 9
2.1594002 1.3456777 -0.49457693 10
2.3663015 1.4728935 -0.44145811 9
2.675422 1.6633611 -0.38681334 9
3.0452883 1.8903675 -0.31358635 9
2.6259639 1.6281674 -0.16192746 10
3.8829777 2.4047356 -0.079722598 16
5.6127515 3.5045128 0.11550003 8
5.6755328 3.5395837 0.35054627 22
5.712585 3.5585392 0.58882421 8
5.9688978 3.7124224 0.86307877 17
5.5674353 3.4586871 1.0380992 9
6.9813929 4.3320236 1.5970714 5
4.6351075 2.8716471 1.2588261 10
6.8453584 4.2360344 2.1569982 12
1.8099511 1.1134892 -0.56940192 12
1.9591883 1.203887 -0.5308845 10
2.1687422 1.3305694 -0.49457693 9
2.3815799 1.4594342 -0.4423967 7
2.6615725 1.6290976 -0.38315722 8
3.0516117 1.8649042 -0.3128891 7
3.5817058 2.186281 -0.2199157 3
4.1711473 2.5430808 -0.085272454 5
5.645597 3.4704816 0.11567455 11
5.7715893 3.5437698 0.3549425 6
5.6999226 3.4956582 0.58498931 38
nan nan nan nan
5.6537981 3.4578695 1.0496755 11
6.9746075 4.2606621 1.5886757 5
4.6467223 2.8341465 1.2565767 3
6.8351669 4.1640229 2.1445746 12
1.8275948 1.1068316 -0.57250774 12
1.9708794 1.1921982 -0.5317843 10
2.1645343 1.3072766 -0.49152401 11
2.3984764 1.4468534 -0.44364822 7
2.6694803 1.6084276 -0.38266978 8
3.0645561 1.843556 -0.3128891 7
3.6088645 2.1684251 -0.22064841 5
4.1647935 2.4994941 -0.084783792 3
5.5721726 3.371969 0.11368498 13
5.9448981 3.593271 0.36404896 4
6.0346189 3.6431882 0.616714 11
5.6121178 3.3827782 0.80458146 25
5.6067204 3.3755243 1.0365349 16
6.9738955 4.1936584 1.5818065 5
6.8951707 4.1397624 1.8567462 12
6.8955503 4.1350803 2.1544099 9
1.8236618 1.0871214 -0.56888431 12
1.9892011 1.1843915 -0.53448373 9
2.1803577 1.2961475 -0.49305046 12
2.4034226 1.4270493 -0.44270959 9
2.6891804 1.5948163 -0.38388845 9
3.0739231 1.8200862 -0.3125405 6
3.6411064 2.1533444 -0.22169513 12
2.6704416 1.5774083 -0.054137368 2
5.5234203 3.2900057 0.11221898 9
5.9475245 3.5384045 0.36268821 4
5.7790055 3.434051 0.5881269 28
5.7141318 3.3901055 0.81579345 26
5.7729015 3.4208875 1.0628159 16
6.9962473 4.1408663 1.5802802 3
6.967525 4.117301 1.8684436 6
nan nan nan nan
1.8195435 1.0675192 -0.56526077 12
2.0024657 1.1734302 -0.53583348 10
2.1859643 1.2789112 -0.49228725 12
2.3996825 1.4022623 -0.44020665 9
2.6985345 1.5750028 -0.38364473 8
3.0831118 1.7965755 -0.31219187 6
3.6405153 2.1188304 -0.2207531 7
4.2217612 2.4541652 -0.085237555 7
5.58248 3.2726049 0.11295197 6
7.0630846 4.1356087 0.42894551 8
5.8011179 3.3926194 0.58795261 31
5.7376599 3.350131 0.81579345 18
5.7096167 3.3297498 1.0468596 16
7.0928431 4.1314478 1.5955449 4
7.0045214 4.0734558 1.870693 44
7.0127516 4.0733304 2.1730449 52
1.8286245 1.0557573 -0.56577843 12
1.9987913 1.1526083 -0.53268409 11
2.1931386 1.2626384 -0.4919056 11
2.4059892 1.3835046 -0.43958092 9
2.7266788 1.5660101 -0.38608211 6
3.0848999 1.7695996 -0.31114599 7
3.6465521 2.088402 -0.22022973 8
4.233583 2.4216554 -0.085132837 16
5.5497632 3.2015765 0.11183503 11
7.1073594 4.0951729 0.42988759 8
5.8315682 3.3560121 0.58864987 15
5.8745089 3.3752632 0.83188021 13
5.8029695 3.3301194 1.0596871 19
nan nan nan nan
7.0811319 4.0537605 1.8837403 100
6.9990869 4.0003076 2.1601038 100
1.8342706 1.0420111 -0.56526077 13
1.9966198 1.132856 -0.52998471 11
2.2085142 1.2515539 -0.4934321 13
2.4153502 1.3670968 -0.43958092 9
2.7098932 1.5313106 -0.3821823 8
3.0971787 1.7480197 -0.31114599 6
3.6328461 2.0478382 -0.21855497 7
4.2538729 2.3940001 -0.085202649 3
5.5279546 3.1390402 0.1109624 13
7.0916376 4.0220666 0.4272708 5
5.8357849 3.3044198 0.58673245 24
5.8662438 3.3176117 0.82749295 12
5.8237805 3.2895737 1.0593743 16
7.1464148 4.0300884 1.5947818 61
7.0752993 3.9851029 1.8747423 57
nan nan nan nan
1.8446929 1.0313879 -0.5662961 12
2.0008817 1.1173389 -0.52908486 11
2.2103386 1.232281 -0.4919056 11
2.4282873 1.3521231 -0.44020665 9
2.7167835 1.5109011 -0.38169482 8
3.1093061 1.7263563 -0.31114599 6
3.6505466 2.0243652 -0.21876432 7
4.2543249 2.3562717 -0.08488851 7
5.553226 3.1023221 0.11103221 13
7.0410581 3.9286668 0.42256054 14
5.8894691 3.2820778 0.58987004 4
5.8164067 3.2360389 0.81725591 3
5.8241587 3.2363596 1.055307 17
7.147933 3.9670558 1.5890573 60
nan nan nan nan
nan nan nan nan
1.838307 1.0110358 -0.56215501 12
2.0171738 1.108034 -0.53133446 11
2.2033944 1.208325 -0.48847106 7
2.4411318 1.3370364 -0.44083238 9
2.7324905 1.4947542 -0.38242605 9
3.1142881 1.7007873 -0.31044877 7
3.6610832 1.9969176 -0.21855497 7
4.2882309 2.3360796 -0.085237555 7
5.5169163 3.0316968 0.10988036 13
7.0858226 3.889025 0.42360729 20
7.0740709 3.8777571 0.70578718 1
5.9572692 3.2601597 0.83383012 17
5.8483424 3.1965706 1.0556198 19
7.1409879 3.898247 1.581425 70
10.217119 5.5682383 2.6863656 2
10.301141 5.6070361 3.142581 1
1.8402231 0.99541992 -0.56060207 12
2.0180018 1.0902194 -0.52953482 10
2.2152328 1.1947758 -0.4892343 9
2.4417117 1.3152763 -0.43926802 10
2.7515996 1.4803454 -0.38364473 8
3.1295965 1.6808896 -0.31079736 7
3.6749353 1.9713098 -0.21855497 7
4.2497935 2.2768083 -0.0841555 19
5.5115576 2.9788482 0.10935678 13
7.1672816 3.8688755 0.42685208 20
7.0430942 3.7970786 0.70003492 1
7.0234356 3.7801504 0.9793421 7
5.9575129 3.2024283 1.0712634 4
7.1299753 3.8278685 1.5730294 65
10.240283 5.4884934 2.6823165 2
10.154385 5.4356122 3.0861585 1
1.8488328 0.98345673 -0.56111974 12
2.0221214 1.0742769 -0.52863503 11
2.2252548 1.1802014 -0.48961592 9
2.4351242 1.2898762 -0.43645221 9
2.7636218 1.4620277 -0.38388845 9
3.1271605 1.6515561 -0.30940288 3
3.6815417 1.9418786 -0.2181363 7
4.2585077 2.2433577 -0.084015884 22
5.5304537 2.9393592 0.10932188 11
7.1747127 3.8084438 0.42570072 28
7.0535893 3.7394135 0.69846606 2
7.0373735 3.7245252 0.97763592 3
6.9769273 3.6878598 1.2499115 10
7.1148558 3.756001 1.5638705 65
10.299038 5.427772 2.6877155 2
10.260466 5.4005809 3.106864 3
1.8642128 0.97500205 -0.56370795 12
2.0209355 1.0556225 -0.52638549 12
2.2282174 1.1619141 -0.48847106 10
2.4475739 1.2746692 -0.43707794 9
2.7526281 1.4317064 -0.38096359 9
3.1421506 1.6315205 -0.30975151 7
3.6896896 1.9133708 -0.21782227 7
4.2722898 2.2126534 -0.083980985 15
5.4923553 2.8701124 0.10817002 13
7.0860367 3.6981931 0.41889706 8
7.0636234 3.6817908 0.69689733 1
7.0103741 3.6478186 0.9703238 3
6.9779625 3.6263125 1.2455313 10
7.116509 3.6935773 1.5585279 70
10.32976 5.3521523 2.6859157 2
10.71313 5.5436754 3.2321324 2
1.8641018 0.95843011 -0.56163734 12
2.0265229 1.0405967 -0.52593559 9
2.2257917 1.1409576 -0.48618135 10
2.4722376 1.2656536 -0.43989375 10
2.7660902 1.4142631 -0.38145107 9
3.1570137 1.6113559 -0.31010011 6
3.6958401 1.8839371 -0.21740359 5
4.3054533 2.1918454 -0.08433003 15
5.5513897 2.8518009 0.10893792 11
7.1418915 3.6641316 0.42067644 31
7.0430527 3.6087656 0.69236517 2
7.00386 3.5825131 0.96593654 3
6.9608917 3.5559378 1.2380226 10
7.1088943 3.6268523 1.5512772 76
10.460641 5.3276701 2.7102103 2
nan nan nan nan
1.8586787 0.93929273 -0.55801392 12
2.0354779 1.0273017 -0.52638549 10
2.2337027 1.1253908 -0.48618135 14
2.4721904 1.2439239 -0.4383294 10
2.7758968 1.3949163 -0.38145107 11
3.161062 1.5857047 -0.30940288 7
3.7249727 1.8661426 -0.21834564 7
