# .PCD v0.7 - Point Cloud Data file format
VERSION 0.7
FIELDS x y z intensity
SIZE 4 4 4 4
TYPE F F F F
COUNT 1 1 1 1
WIDTH 1432
HEIGHT 1
VIEWPOINT 0 0 0 1 0 0 0
POINTS 1432
DATA ascii
0.69677848 2.5592768 -0.71071708 33
0.76679611 2.8106458 -0.67260373 41
0.85478133 3.1245587 -0.62966973 30
0.95518708 3.4844122 -0.57223737 24
1.1147308 4.058075 -0.51672608 16
1.3187153 4.7908401 -0.43473285 5
1.6457225 5.9625626 -0.32416895 5
2.3006434 8.3184004 -0.15064916 3
3.7802377 13.865742 0.2508609 34
3.2386358 11.854708 0.64404637 11
3.7451177 13.680457 1.2409234 18
8.2443066 30.033104 3.8240166 36
8.255229 30.01133 4.9298763 13
8.2671356 29.993198 6.0475006 37
8.2900867 30.01511 7.1889863 54
8.2766361 29.885155 8.3091269 18
0.70838404 2.5320249 -0.70450544 22
0.79113495 2.8221111 -0.67665279 23
0.86966002 3.0959861 -0.6250903 27
0.9778139 3.4740262 -0.57161164 27
1.1311727 4.0081635 -0.5113638 16
1.3418308 4.7450891 -0.43142092 7
1.7069608 6.0242434 -0.32814649 2
2.3127513 8.1405573 -0.14771718 3
3.9149573 13.984116 0.25347877 21
3.3057611 11.784313 0.64142954 8
3.8594089 13.721107 1.2470243 18
8.4582233 30.010687 3.8284039 36
8.4700413 29.992466 4.9361334 27
8.4859543 29.968752 6.0543699 24
10.823355 38.147251 9.1546087 36
8.4915037 29.869005 8.3205156 18
0.72240251 2.5160036 -0.70139962 33
0.80601454 2.8016789 -0.67305356 29
0.88853091 3.0804081 -0.62318224 33
0.99655706 3.4481385 -0.56848288 37
1.1551162 3.98893 -0.50990134 16
1.3638147 4.6973381 -0.42793471 14
1.7244294 5.9277978 -0.3235409 2
2.3295021 7.992157 -0.14530873 6
3.3936586 11.803973 0.21438536 18
3.3984606 11.797412 0.64341831 14
3.9411199 13.654318 1.2433639 15
8.6796722 29.992857 3.8337662 24
8.6902246 29.970549 4.9423909 14
8.7006893 29.948006 6.0620022 37
11.204928 38.467415 9.2499886 37
8.7063017 29.831251 8.3267269 18
0.73885769 2.5071926 -0.70036435 27
0.81396562 2.7567351 -0.66360563 23
0.90890002 3.0703647 -0.62241894 35
1.013865 3.4183712 -0.5647285 22
1.1818051 3.9769635 -0.5094139 16
1.3931595 4.6762462 -0.42688882 19
1.736634 5.8180108 -0.31820264 11
2.4007113 8.0274277 -0.14625116 12
4.1036005 13.906992 0.25309479 18
3.4626138 11.712111 0.64006883 14
4.0261569 13.592088 1.2402261 15
8.9001665 29.969584 3.8386409 12
8.9071484 29.935652 4.9467711 28
8.9174204 29.912872 6.0673447 37
11.573655 38.724335 9.3309708 38
8.9088097 29.751236 8.3215504 55
0.75522518 2.498275 -0.69932908 33
0.82754272 2.7323346 -0.65910661 28
0.93544668 3.0808518 -0.62585354 30
1.0342555 3.3998706 -0.56285131 22
1.1979663 3.9306386 -0.50453913 19
1.4234433 4.6587849 -0.4261916 23
1.7532401 5.7274442 -0.31391108 7
2.4262021 7.9110589 -0.14443611 12
3.5789883 11.824344 0.21564195 22
3.5628426 11.748814 0.64341831 8
3.6738133 12.091949 1.1056577 2
9.1149464 29.925713 3.8410783 12
9.1291666 29.916199 4.9539671 28
9.1340561 29.876177 6.0726876 25
9.1729012 29.928442 7.2267785 18
9.1350231 29.749254 8.3386326 55
0.76235372 2.459727 -0.69001162 33
0.85699964 2.7599902 -0.66720486 13
0.95051372 3.0536261 -0.62165576 27
1.0550255 3.3831379 -0.56128693 26
1.2277459 3.9297585 -0.50551409 19
1.4475963 4.6221151 -0.42375124 19
1.7842137 5.6864796 -0.31234103 2
2.4357989 7.7489467 -0.14178336 18
3.6495974 11.760872 0.21494384 24
3.6637521 11.784684 0.6467678 17
3.6627512 11.759744 1.0775936 14
9.3307447 29.884089 3.8440032 12
9.3466454 29.880014 4.9586601 14
9.3553238 29.852894 6.0810828 50
9.3909616 29.893417 7.2339764 18
9.3575678 29.732668 8.3520908 55
0.78418547 2.4690747 -0.69415271 40
0.85438532 2.685231 -0.65055853 12
0.96882606 3.0375638 -0.61974764 30
1.0677963 3.3418205 -0.5556553 26
1.2442576 3.8870604 -0.50112677 19
1.4741573 4.5969768 -0.42235672 19
1.8000344 5.5997281 -0.3082588 2
2.4506116 7.609931 -0.13954943 17
3.8079622 11.975223 0.21934184 25
3.769573 11.833039 0.65085006 17
3.7193134 11.654168 1.0702726 18
9.5500355 29.852251 3.8483903 73
9.5694885 29.859182 4.9661694 14
9.5797129 29.837324 6.0913868 37
12.719085 39.544182 9.5901146 41
9.5791264 29.710747 8.3645144 56
0.79841447 2.4543548 -0.6915645 29
0.86526012 2.6551142 -0.64470977 37
0.98277611 3.0103695 -0.61554986 33
1.0923591 3.3401077 -0.55659389 28
1.264562 3.8575299 -0.49844566 16
1.5043495 4.5808945 -0.42183378 16
1.8231268 5.5418134 -0.3057467 7
2.4548295 7.4445076 -0.13682686 17
3.9067228 12.002265 0.22031918 29
3.7980254 11.6476 0.6420576 8
3.8061602 11.644961 1.0718412 16
9.7666016 29.828056 3.8537526 61
9.7848253 29.830891 4.9724264 14
9.8018723 29.812618 6.1001639 25
13.01799 39.524757 9.6072102 42
9.7853765 29.657696 8.3681374 37
0.81266308 2.4415309 -0.68949395 34
0.88331413 2.6491628 -0.64470977 38
0.99256718 2.969919 -0.60868073 33
1.1031084 3.2949367 -0.55033648 37
1.2851093 3.8318939 -0.496252 16
1.5145571 4.5082226 -0.41608149 23
1.8432877 5.4740582 -0.30271122 2
2.488189 7.3764658 -0.13588443 20
3.984724 11.957626 0.22000504 27
3.8944209 11.666271 0.64456969 8
3.8872273 11.624454 1.0723642 20
9.9859581 29.793028 3.85814 61
10.001649 29.788071 4.9768066 14
10.017731 29.784281 6.1081777 38
13.300436 39.475861 9.6171083 42
10.015676 29.658209 8.3878078 38
0.82906437 2.4339697 -0.68897635 18
0.89863956 2.6337101 -0.64246029 28
1.0197443 2.9835291 -0.6128785 26
1.1325493 3.3079093 -0.55377805 34
1.2937889 3.7702558 -0.48942733 25
1.5395169 4.4786973 -0.41433838 18
1.8603481 5.4028425 -0.29946637 2
2.5154886 7.2889748 -0.13459297 17
4.0660305 11.930224 0.22000504 40
3.9840708 11.669732 0.64624447 8
3.9773171 11.623425 1.0748047 14
10.201381 29.761925 3.8630149 61
10.229182 29.792171 4.9890084 28
10.236281 29.745178 6.1146655 25
10.268785 29.788933 7.2744675 57
10.242543 29.662392 8.408514 19
0.84561265 2.4282701 -0.68897635 28
0.91333663 2.6183321 -0.64021075 25
1.0269423 2.9374187 -0.60486454 33
1.1419046 3.2607703 -0.54720783 22
1.3220488 3.7688553 -0.49040228 19
1.562156 4.4434052 -0.41207233 15
1.8767927 5.3294401 -0.29611689 2
2.4838893 7.041615 -0.13033457 11
4.1597466 11.931761 0.22056352 27
4.0608287 11.628437 0.64551175 17
4.0589747 11.603604 1.0755018 20
10.42994 29.749922 3.8708143 61
10.450026 29.757303 4.995266 28
10.458058 29.730373 6.1261144 38
10.458344 29.665062 7.2618704 37
10.49246 29.712215 8.4431953 58
0.85995233 2.4150276 -0.68690574 40
0.94272316 2.6430953 -0.6478591 27
1.0421376 2.9153881 -0.60181159 33
1.1766272 3.2861946 -0.55283946 23
1.342967 3.7445855 -0.4884524 16
1.5830281 4.4042678 -0.40945768 18
1.8963608 5.2673502 -0.2933954 2
2.5133128 6.9695506 -0.12932234 19
4.2422733 11.900546 0.22052862 29
4.1681051 11.673161 0.64959395 31
4.1459231 11.591869 1.0770707 18
10.680248 29.795977 3.8864136 37
10.672202 29.724524 5.0021491 14
10.687948 29.719448 6.1390886 39
10.706171 29.704985 7.2897644 57
10.72261 29.701832 8.4613123 58
0.87282711 2.3980732 -0.68379998 40
0.95714766 2.6254642 -0.64515966 22
1.0698777 2.9283254 -0.60600942 27
1.1757821 3.2129722 -0.54188907 19
1.3622464 3.7164793 -0.48601499 15
1.5773265 4.2939878 -0.40021914 14
1.916536 5.2089963 -0.29088327 2
2.5183456 6.8336253 -0.12712333 16
nan nan nan nan
4.2631927 11.681302 0.65168738 17
4.2869449 11.727316 1.0924101 17
10.931691 29.839989 3.9020131 12
10.88897 29.675262 5.0065293 29
10.904635 29.66991 6.1444311 26
14.521419 39.425564 9.6998901 43
10.943079 29.6625 8.4716654 39
0.89291453 2.4009748 -0.68638813 29
0.9693315 2.6022825 -0.64111054 38
1.0827415 2.9005532 -0.60181159 27
1.2044086 3.2213385 -0.54470485 22
1.3791072 3.6827121 -0.48284638 22
1.6191684 4.3145819 -0.40318248 22
1.9317757 5.1394014 -0.28774312 2
2.5603585 6.8009048 -0.12684409 16
4.4240599 11.883259 0.22133142 25
4.3243971 11.596986 0.6486519 17
4.3254871 11.581383 1.0816028 16
11.135571 29.751787 3.9005504 75
11.125001 29.676205 5.0196695 29
11.123238 29.624306 6.150919 26
nan nan nan nan
8.1038637 21.503002 6.1573052 24
0.90622348 2.3856533 -0.68379998 31
0.986781 2.593631 -0.64066064 36
1.1057625 2.9002616 -0.60333806 26
1.221231 3.1980884 -0.54220194 20
1.3969835 3.6525993 -0.48016527 20
1.6442569 4.2901502 -0.40196225 25
1.947565 5.0735822 -0.2848123 4
2.5754805 6.698873 -0.12527338 23
nan nan nan nan
4.4187655 11.601974 0.65064067 20
4.4197326 11.58627 1.0849147 27
11.355765 29.706697 3.9049377 75
11.35239 29.651314 5.0287428 14
11.358603 29.621086 6.1665654 39
4.0723782 10.597855 2.6211298 22
8.069212 20.966322 6.0196137 23
0.91656893 2.3630583 -0.67914116 37
1.0006299 2.5757799 -0.63796127 31
1.1209978 2.8796647 -0.60066676 30
1.2377876 3.1747611 -0.53969896 16
1.4217272 3.640908 -0.47992152 22
1.6865102 4.3101091 -0.40492558 20
1.972735 5.0338278 -0.28334689 14
2.5739636 6.5578742 -0.12296966 18
4.1755443 10.754058 0.20136586 3
4.6169243 11.872399 0.66759753 6
4.5113583 11.58298 1.0875293 21
11.578759 29.667379 3.9103003 37
11.571344 29.602612 5.0340614 29
4.3371887 11.078586 2.3126051 36
4.141284 10.556466 2.6179805 40
8.031002 20.440187 5.8845105 22
0.93304491 2.3566015 -0.67914116 34
1.0214624 2.5759771 -0.63976085 39
1.1251241 2.8316298 -0.59227115 27
1.2423906 3.1219935 -0.53219014 17
1.43829 3.6087663 -0.47699666 20
1.7017733 4.2633719 -0.40161365 14
1.9714856 4.9290667 -0.27821797 7
2.5631702 6.3986659 -0.12031689 28
4.017695 10.137196 0.19033594 3
4.6613803 11.743347 0.66215456 3
4.5950575 11.558609 1.0882267 17
13.881481 34.847202 4.6056867 15
8.7143478 21.842684 3.724705 8
4.4042277 11.022513 2.3072627 17
4.1124058 10.276548 2.5554442 46
8.0031052 19.958664 5.7618299 28
0.93934286 2.3249536 -0.67189431 29
1.0357664 2.5597508 -0.63751131 24
1.1311013 2.7911537 -0.58540201 32
1.2799572 3.1537323 -0.53907323 16
1.44999 3.565537 -0.47260937 27
1.701437 4.177578 -0.39464122 14
2.0600569 5.0505347 -0.28585902 7
2.6047497 6.3732128 -0.12017727 18
3.70964 9.1770763 0.17277883 1
4.727716 11.678021 0.66027045 3
4.7377958 11.679489 1.1026944 17
14.134031 34.790535 4.6108055 15
4.4987812 11.057023 1.8906672 15
4.3239455 10.606085 2.2263594 54
4.1641607 10.198875 2.5432968 32
4.2152576 10.308597 2.9841838 28
0.96029651 2.3310096 -0.67551774 68
1.0353272 2.509407 -0.62671363 23
1.1460582 2.7723038 -0.58311236 27
1.2875848 3.1100426 -0.53312874 15
1.4711833 3.5482502 -0.47163439 24
1.7045715 4.1030402 -0.38871458 18
2.0960331 5.0378733 -0.28596368 16
2.6457663 6.3497958 -0.12007255 15
4.181478 10.139995 0.19145289 10
4.8952785 11.853333 0.67209846 12
4.809577 11.628557 1.1009513 17
8.9085026 21.496435 2.857105 64
8.9132147 21.475977 3.6827807 47
4.2739687 10.282719 2.1645374 37
nan nan nan nan
4.2573719 10.2076 2.9634783 38
0.97804433 2.3278105 -0.67655301 65
1.0422411 2.4769707 -0.62041503 34
1.1653845 2.7642353 -0.58311236 31
1.3084973 3.0991578 -0.53281587 17
1.495919 3.5378933 -0.47163439 16
1.734727 4.0947104 -0.38906324 23
2.1085284 4.9697981 -0.2829282 21
2.6532753 6.2446704 -0.11843203 20
4.2405334 10.082908 0.19092932 10
5.0810142 12.063679 0.68601978 9
4.8859906 11.583684 1.0999055 27
9.0691881 21.459312 2.8605175 88
4.5380087 10.722076 1.8440496 39
nan nan nan nan
4.2337832 9.9693413 2.500556 14
3.9875453 9.3758612 2.7300234 20
0.98970634 2.3102717 -0.67344719 31
1.0702634 2.4947069 -0.62671363 24
1.1846541 2.7560318 -0.58311236 31
1.326198 3.0808747 -0.53125149 20
1.5190116 3.5237169 -0.47114691 15
1.7838112 4.1300554 -0.39359534 19
2.1225579 4.9072952 -0.28020674 21
2.6729624 6.1709461 -0.11738489 5
4.3407693 10.122897 0.19225572 7
5.2691379 12.27016 0.69983649 6
5.0785122 11.809195 1.1246576 13
nan nan nan nan
4.5861378 10.628469 1.8334121 18
4.280056 9.9048586 2.0973725 15
4.4325843 10.23819 2.5756898 2
4.1043911 9.466547 2.7647052 40
1.0019453 2.2944539 -0.67085898 42
1.0837497 2.4782469 -0.62446415 27
1.192048 2.720721 -0.57738805 28
1.3437043 3.0624971 -0.52968717 19
1.5315952 3.4857662 -0.46749085 15
1.8117982 4.1156783 -0.39342102 17
2.1438773 4.8631158 -0.27853197 30
2.6715631 6.0515184 -0.11546512 15
4.2014999 9.6122818 0.18311065 8
5.2169204 11.918374 0.68183291 3
5.1120396 11.662142 1.1140246 12
4.7534027 10.823425 1.4514641 9
4.6896515 10.663097 1.8449883 13
4.4131975 10.02027 2.1282835 15
4.5952063 10.413812 2.6278782 36
4.9074721 11.105734 3.2533555 6
1.006943 2.2626934 -0.66361207 30
1.1057842 2.4813006 -0.62716359 28
1.2158155 2.7230885 -0.57967776 30
1.3311875 2.9773016 -0.51654667 36
1.559949 3.4840477 -0.46870953 24
1.8308043 4.083252 -0.39150357 21
2.1794102 4.851675 -0.27874133 28
2.7047188 6.012661 -0.11508117 20
4.3295245 9.719717 0.18572851 10
5.3374262 11.965568 0.68664783 18
5.3005958 11.866296 1.1370338 13
4.7128916 10.530872 1.4166094 24
4.7058134 10.500308 1.8224617 22
nan nan nan nan
4.5437632 10.110336 2.5590434 44
4.545486 10.095316 2.9665842 22
1.0338824 2.2802413 -0.67085898 50
1.1101882 2.4451301 -0.61996514 27
1.2359467 2.7183247 -0.580441 27
1.3743405 3.0185108 -0.525307 15
1.5842344 3.4730723 -0.46870953 16
1.8526436 4.0558729 -0.39010909 19
2.198261 4.805851 -0.27696192 28
2.7124732 5.9190979 -0.11365007 17
4.2857199 9.4478149 0.18108617 10
5.3501892 11.778028 0.67796004 15
5.3057323 11.65854 1.1206485 8
4.6963806 10.305268 1.3905294 34
4.8673911 10.665713 1.8568773 13
4.6971636 10.273707 2.1958301 16
4.3327413 9.4635315 2.4029272 18
4.6197381 10.076432 2.9702075 34
1.0404739 2.2538567 -0.66516501 45
1.1259896 2.4357474 -0.61951524 38
1.2524203 2.7042849 -0.57929617 22
1.3953817 3.0088418 -0.525307 27
1.6000764 3.4439256 -0.46627215 22
1.8893164 4.0609059 -0.39185223 19
2.2072964 4.737886 -0.27392641 24
2.7427359 5.876461 -0.11319631 12
4.3104692 9.3287182 0.17937584 12
5.5899558 12.081168 0.69763839 12
4.9259534 10.631498 1.0251257 20
4.7765684 10.290236 1.3929666 32
4.6902747 10.090494 1.762391 33
4.7149024 10.12498 2.1710248 33
4.6375394 9.9452381 2.5333989 22
nan nan nan nan
1.0606867 2.2550943 -0.66775316 37
1.1433907 2.4276276 -0.61951524 38
1.2628945 2.6777184 -0.57547992 35
1.4118134 2.9880633 -0.52342981 30
1.630025 3.4452307 -0.46797833 16
1.9090923 4.0296102 -0.39010909 19
2.2274413 4.6931005 -0.27225167 20
2.7193136 5.7217135 -0.11057845 14
4.4410505 9.4377193 0.18206351 7
5.6319776 11.946916 0.69219542 12
5.047833 10.693271 1.0345386 35
4.8890071 10.342785 1.4046662 13
nan nan nan nan
4.7888384 10.098913 2.1725514 13
4.7536669 10.0112 2.5585935 14
4.4223084 9.2966051 2.7584937 31
1.0722312 2.2389231 -0.66516501 31
1.1645228 2.4283724 -0.62176478 31
1.2692713 2.6420684 -0.56975567 36
1.4240764 2.9603331 -0.5203011 25
1.6471456 3.4194596 -0.46602839 15
1.9190005 3.9784989 -0.38644853 20
2.2392983 4.6342745 -0.26973954 20
2.7200022 5.6215858 -0.10900773 16
4.3727679 9.1225891 0.17658344 10
5.8008056 12.085564 0.70255798 9
nan nan nan nan
4.9336138 10.246723 1.396379 29
3.5027313 7.2651615 1.277444 17
3.4619708 7.1710176 1.5478426 9
3.5978589 7.4425373 1.9084848 17
5.0925126 10.515627 3.1306753 11
1.0768304 2.2088087 -0.6584357 45
1.1797379 2.4166811 -0.62086499 31
1.2889491 2.6368959 -0.57051897 21
1.4389817 2.9399261 -0.51842386 33
1.6500016 3.3651013 -0.4601787 17
1.9291651 3.9292364 -0.38296232 20
2.2602148 4.5974174 -0.26848349 20
2.6531618 5.3871875 -0.10481916 7
4.5189171 9.2651567 0.17993431 10
5.7716227 11.817877 0.68926466 12
3.34039 6.8276267 0.66499835 7
4.9080601 10.018592 1.3698115 6
4.7544112 9.6921091 1.7098289 16
nan nan nan nan
3.6032698 7.3228178 1.8841902 21
4.7865744 9.7147703 2.9018793 22
1.0969906 2.2118118 -0.66154152 60
1.1822919 2.3806689 -0.61366653 29
1.3108244 2.6348639 -0.57204539 27
1.4550673 2.9209681 -0.51685953 25
1.6781853 3.3644505 -0.4616411 20
1.9442946 3.8928413 -0.38069627 30
2.2824254 4.5618782 -0.26733211 22
2.7515697 5.4923677 -0.10722758 19
4.4750156 9.014863 0.17567593 14
5.1427956 10.346492 0.6055271 25
5.1427617 10.332848 1.0097864 9
5.1399693 10.30919 1.4144157 55
3.7622719 7.5360703 1.3340733 15
3.6175768 7.2367454 1.5726478 11
3.6163995 7.2249293 1.8652943 19
5.3738294 10.717266 3.2124622 6
1.1115347 2.2023749 -0.66102386 65
1.1971254 2.3688784 -0.61276674 29
1.3180922 2.6048594 -0.56746602 36
1.4659878 2.8933747 -0.51373082 32
1.6935484 3.3367205 -0.45944747 22
1.9623978 3.8614111 -0.37895316 20
2.315238 4.5497956 -0.26754144 27
2.7980201 5.4890585 -0.10754173 16
4.4010782 8.7164345 0.17044021 14
5.1437144 10.174 0.5974673 20
5.2192745 10.30558 1.010658 5
nan nan nan nan
5.1451583 10.132898 1.7999352 21
3.5095735 6.8998337 1.5047197 7
3.6835508 7.232501 1.8738424 17
4.9147987 9.6375246 2.8987734 6
1.1256168 2.1930397 -0.66050619 47
1.2176749 2.3693419 -0.61501622 48
1.3353467 2.5938482 -0.56708437 32
1.4897721 2.8900928 -0.51498228 23
1.7071154 3.3074765 -0.45701009 24
1.9838158 3.8369992 -0.37790731 28
2.3313334 4.5033698 -0.265762 18
2.8169131 5.4343791 -0.10684364 16
4.5148201 8.7886629 0.17246468 13
5.2100496 10.128963 0.59694397 17
5.1059365 9.9137897 0.97562134 1
3.5059152 6.7954898 0.93888152 21
3.5231214 6.8200746 1.2158087 5
nan nan nan nan
4.9074821 9.4715433 2.4627645 34
nan nan nan nan
1.1310655 2.16629 -0.65481222 31
1.2206448 2.3348777 -0.60826772 25
1.3452244 2.5688105 -0.56364983 37
1.5144976 2.88837 -0.51654667 22
1.7163215 3.269115 -0.453354 27
1.999426 3.8018949 -0.37581557 18
2.3422437 4.4481058 -0.26345924 13
2.8146803 5.3385181 -0.10534272 16
4.5519872 8.7108498 0.17155716 9
5.2463765 10.026866 0.5930711 5
5.4699731 10.440891 1.0312268 16
3.5698719 6.8024888 0.94326878 28
5.1051226 9.7155857 1.7383 1
3.6308827 6.9011755 1.5157868 11
3.6533444 6.9321108 1.8090566 17
5.1300287 9.7217312 2.9453607 16
1.1371009 2.141279 -0.64963585 33
1.2460643 2.3435056 -0.61276674 37
1.358512 2.5506918 -0.56174171 32
1.5178956 2.8463516 -0.51091504 15
1.748454 3.2745633 -0.45579138 35
2.010885 3.7597337 -0.37302658 16
2.3704114 4.426363 -0.26314521 9
2.8358173 5.2887783 -0.10474934 16
4.439064 8.3521881 0.16509975 11
5.2740226 9.910656 0.58836091 17
5.4443507 10.217825 1.0129241 7
nan nan nan nan
5.1095152 9.5612383 1.7170249 28
3.569679 6.6713967 1.4707558 31
3.6095891 6.7346792 1.7640663 23
5.6115813 10.456792 3.1798508 16
1.1455954 2.1213899 -0.64601237 31
1.2586861 2.327893 -0.6109671 31
1.3753512 2.5394192 -0.56136012 23
1.5292549 2.8200567 -0.5080992 30
1.7618001 3.2448316 -0.453354 20
2.0380356 3.7473536 -0.37320086 18
2.3955245 4.3991818 -0.26251718 9
2.8726709 5.2688518 -0.10474934 23
4.4316602 8.1996107 0.16269134 13
5.57692 10.305706 0.61411017 14
3.7168994 6.8599524 0.68260378 2
3.7232101 6.8601542 0.95838058 50
nan nan nan nan
3.54861 6.5221472 1.4432793 23
3.6509228 6.6990485 1.7613668 42
5.3124547 9.7356453 2.9717603 20
1.1724648 2.1353545 -0.65274167 33
1.2627026 2.296849 -0.60511833 38
1.3845218 2.5142782 -0.55792552 30
1.5422291 2.7972028 -0.50590914 26
1.7882477 3.2394044 -0.45432895 20
2.0509665 3.7107251 -0.37093481 16
2.4165046 4.3648777 -0.26147047 14
2.8870866 5.2084422 -0.10394654 15
4.0602407 7.3886008 0.14715868 6
5.5832667 10.147528 0.60699248 14
5.384603 9.7743378 0.9763186 8
3.7863541 6.8618045 0.96228039 27
5.2807202 9.5581293 1.7295396 60
nan nan nan nan
3.7814095 6.8274703 1.8018581 29
5.022294 9.0530052 2.7740226 24
1.1948766 2.1406119 -0.65688276 33
1.2844112 2.2981842 -0.60781777 33
1.3881823 2.4808102 -0.55258286 24
1.5583354 2.781471 -0.50497049 23
1.8127608 3.2303042 -0.45481643 28
2.0709651 3.6858957 -0.36988899 20
2.4363649 4.3309216 -0.26042375 8
2.931231 5.2020965 -0.10422577 22
3.9924655 7.149538 0.14293522 9
5.6863179 10.170304 0.61065596 2
5.7749457 10.311902 1.0340157 18
3.84851 6.863574 0.96618026 36
4.0015106 7.1276898 1.2946517 19
nan nan nan nan
3.6731493 6.5241127 1.7285241 10
5.1720238 9.1751175 2.8221629 23
1.2027483 2.1206663 -0.65325934 45
1.2904019 2.2724426 -0.60331875 33
1.4093513 2.4778836 -0.55410933 23
1.5874922 2.7876887 -0.5080992 25
1.8219265 3.195471 -0.45164782 24
2.0920568 3.6647911 -0.36919171 20
2.4596016 4.3016706 -0.25969106 8
2.9467027 5.1473145 -0.10352767 20
4.0985479 7.2206187 0.14492479 16
5.5805387 9.8195381 0.59191972 8
4.0241017 7.0722032 0.71188807 20
5.6233358 9.8667641 1.3944291 11
3.8788636 6.7976189 1.2395868 19
3.6949813 6.4675007 1.4478587 12
3.7890706 6.6241355 1.7618167 40
5.2666841 9.1924257 2.8387275 6
1.2127001 2.1038492 -0.65067112 46
1.3120797 2.2735054 -0.60601819 34
1.4281486 2.4716337 -0.55487263 30
1.610386 2.7836587 -0.50935066 17
1.82727 3.1534758 -0.44750425 26
2.0955935 3.6121836 -0.36535689 22
2.4607368 4.2364712 -0.25676021 17
2.968488 5.1024189 -0.10303901 27
4.0976553 7.1059375 0.14317955 35
4.084394 7.0743799 0.42810816 2
5.4318385 9.3930626 0.94930029 8
2.5681765 4.4356852 0.62933332 12
3.8883922 6.7078242 1.2280107 19
nan nan nan nan
3.7842963 6.5099139 1.7384218 10
5.4204741 9.3133135 2.8873854 25
1.2279688 2.097213 -0.65118873 47
1.3324523 2.2729275 -0.60826772 27
1.4543145 2.4768405 -0.55830717 24
1.603752 2.7280724 -0.50121611 23
1.8452121 3.1338 -0.44652933 20
2.1005239 3.5631387 -0.36187065 21
2.4689341 4.1830683 -0.25456211 8
2.9979291 5.0712438 -0.10282958 20
4.1198668 7.0305748 0.14223711 19
4.1316619 7.0422478 0.42789882 2
2.5732455 4.3807349 0.44449428 4
2.5799534 4.3851418 0.62470233 12
3.920085 6.6549854 1.2233176 19
nan nan nan nan
3.8346102 6.4917231 1.7406714 34
3.834249 6.4833579 2.018271 5
1.2478837 2.096673 -0.65377688 51
1.3466866 2.2599869 -0.60736787 20
1.4796187 2.4801145 -0.56136012 37
1.6212059 2.7131348 -0.50059032 25
1.8578728 3.1055095 -0.44433567 17
2.1253483 3.5483875 -0.36187065 35
2.4813373 4.136178 -0.2527827 4
3.0126674 5.0159054 -0.10213149 20
4.1391778 6.9518151 0.14122486 27
4.2515121 7.129148 0.43501651 2
2.5258811 4.2304873 0.43107229 11
2.5218921 4.2187862 0.60349703 18
4.0203729 6.7148948 1.2395868 15
4.0557199 6.7658925 1.5333412 29
3.8407257 6.3996305 1.7231252 42
5.5476122 9.2291317 2.8853149 2
1.2524959 2.0713782 -0.64860052 39
1.3513312 2.2321918 -0.60241896 24
1.476969 2.4358885 -0.55372775 31
1.6411318 2.7034402 -0.50090319 27
1.8681656 3.0738046 -0.44165453 20
2.1423974 3.5194728 -0.36047614 29
2.4893646 4.0846448 -0.25068927 12
3.0080326 4.9298844 -0.1008051 20
4.1629391 6.8792458 0.14035226 27
2.6349378 4.3490858 0.26649469 26
2.4437571 4.0287719 0.41224664 13
2.532433 4.1683974 0.59886599 18
3.8002529 6.2478619 1.1582409 12
4.1140881 6.7558584 1.537539 20
3.9462907 6.4701414 1.7496694 21
4.219502 6.9099445 2.1694212 27
1.2618707 2.054353 -0.64601237 26
1.3801528 2.2442832 -0.60826772 29
1.4836438 2.4088011 -0.54991156 24
1.6547824 2.6835091 -0.49933887 28
1.9187795 3.1079819 -0.44847921 28
2.1648185 3.5010419 -0.36012751 26
2.5083568 4.0518832 -0.24974722 12
3.0444808 4.9121652 -0.10087491 18
4.204577 6.8397956 0.14014283 19
2.5793936 4.1911087 0.25791162 9
2.3317695 3.784318 0.38888893 21
2.5354095 4.1083841 0.59277254 11
4.2559824 6.8883333 1.2824498 17
4.0754299 6.5883918 1.5058646 31
3.9964969 6.450717 1.751919 36
5.7991428 9.3494186 2.9479489 8
1.2741359 2.0422163 -0.64497709 40
1.387527 2.2213714 -0.6046685 36
1.4941769 2.3883984 -0.54762185 21
1.6577482 2.6467795 -0.49464583 26
1.9077387 3.0423748 -0.44092333 17
2.1811852 3.4744122 -0.35890734 22
2.518512 4.005528 -0.24796779 18
3.0872247 4.9043283 -0.10115415 24
2.6466527 4.2388239 0.087227128 4
2.4434361 3.9087996 0.2415828 13
2.353904 3.7611914 0.38819164 15
2.5682447 4.0973125 0.5937475 18
4.1601148 6.6292272 1.2395868 70
3.9719698 6.3220601 1.4512933 24
4.0652113 6.462955 1.7627167 19
5.711875 9.0667934 2.8713386 19
1.2883624 2.0332713 -0.64497709 27
1.3852549 2.1836557 -0.59702015 25
1.5051357 2.3698869 -0.54571378 21
1.6693652 2.6254332 -0.49276862 22
1.9470576 3.0574479 -0.44506687 17
2.1861072 3.4288616 -0.35576975 22
2.5177774 3.9445217 -0.24524632 18
3.1127713 4.8691769 -0.10087491 22
2.5373361 4.0028348 0.082724407 9
2.4678457 3.8887043 0.24137343 10
2.365144 3.7211244 0.38575131 30
2.5928793 4.0747104 0.59301627 26
nan nan nan nan
4.0244575 6.3074169 1.4543462 30
4.0934505 6.4081388 1.7555182 19
6.038868 9.4427147 3.0033362 18
1.3042626 2.027704 -0.64601237 31
1.3927009 2.1627071 -0.59387082 39
1.5290937 2.3708696 -0.54838508 23
1.7058707 2.6419258 -0.49808741 23
1.9419611 3.0041122 -0.43921715 15
2.1948326 3.3901014 -0.35332939 22
2.5398223 3.918468 -0.24472295 14
3.1120963 4.795876 -0.09979286 4
2.5143478 3.9059956 0.081083886 15
2.4159527 3.748826 0.2337324 18
2.3277667 3.6078386 0.37564126 18
2.5727792 3.9814827 0.582048 13
4.2060571 6.5015779 1.2264463 15
4.1324 6.3803945 1.4776249 6
4.1147566 6.3434372 1.7456203 51
5.734283 8.83002 2.8211277 23
1.3204997 2.0217838 -0.64704764 33
1.4077655 2.1529315 -0.59387082 20
1.5499094 2.3667071 -0.54991156 22
1.7351028 2.6464727 -0.50121611 23
1.9748672 3.0087378 -0.44189829 20
2.2217314 3.3796895 -0.35385233 21
2.5506485 3.8756146 -0.24315289 16
2.644908 4.0142603 -0.083911166 1
2.5404613 3.8866727 0.081048973 9
2.4376912 3.7251835 0.23331371 18
2.3419795 3.5748341 0.37389815 27
2.5830884 3.9368687 0.57814825 31
6.3151984 9.6139755 1.821836 13
4.0970168 6.2300038 1.4493852 16
4.1160631 6.2494597 1.7276242 23
5.798974 8.7946119 2.8226805 21
1.3249732 1.9980259 -0.64238888 36
1.4378514 2.1657805 -0.60016948 40
1.5533502 2.3362107 -0.54533213 27
1.7633878 2.6490943 -0.5040319 21
1.9991267 2.9998329 -0.44262949 15
2.2424715 3.3611746 -0.3535037 15
2.5609968 3.8328042 -0.2415828 14
2.5839193 3.8627307 -0.081118785 17
2.3994608 3.6155846 0.075743444 12
2.3917961 3.5999429 0.22651003 12
2.3823273 3.5816214 0.37633851 28
2.5488791 3.8262229 0.5644989 18
6.2659841 9.3954506 1.788672 1
4.2167215 6.3155437 1.4760985 21
4.1541748 6.2148166 1.7258246 46
6.714602 10.030159 3.2342029 12
1.3313369 1.9775101 -0.63876545 31
1.4442222 2.1427627 -0.59657025 27
1.5725096 2.3304663 -0.54647696 24
1.7493105 2.5895607 -0.4949587 22
2.027807 2.9973121 -0.44433567 13
2.2424192 3.3107953 -0.34984317 29
2.5377073 3.7425487 -0.23697723 14
2.5434182 3.7453394 -0.079024501 6
2.4430056 3.6273644 0.076336823 18
2.3872137 3.5405231 0.22378856 26
2.3548687 3.4872966 0.36814582 16
2.5237229 3.7331352 0.55328691 25
6.375186 9.4196539 1.8014996 15
4.2673187 6.2957025 1.4783882 11
4.1558838 6.1243858 1.7087283 31
6.1921673 9.1149139 2.9526079 34
1.345857 1.9699966 -0.63928306 36
1.4576749 2.1312733 -0.5961203 30
1.5843042 2.3129518 -0.54495054 30
1.7595274 2.5658805 -0.49276862 26
2.0301859 2.9572551 -0.44043583 22
2.2801507 3.3164036 -0.35210916 12
2.5592418 3.7181609 -0.23655853 14
2.581336 3.7460515 -0.079408452 6
2.4840686 3.633333 0.0768255 16
2.3870537 3.4875126 0.22148579 28
2.3965693 3.4974849 0.37093481 25
2.5429842 3.7056048 0.55182445 13
6.5291605 9.503541 1.8262162 4
4.2789211 6.2212172 1.4677029 33
4.2571249 6.1802816 1.732573 25
6.1821661 8.9649105 2.9179258 24
1.355173 1.9542034 -0.63721251 41
1.4658494 2.1114407 -0.59342092 43
1.5847226 2.2792678 -0.53960788 39
1.7830404 2.5616407 -0.49433297 23
2.0428376 2.9316089 -0.43872967 15
2.279305 3.2660923 -0.34844866 9
2.5748444 3.6854672 -0.23561651 24
2.5890856 3.7017217 -0.078849971 3
2.4877117 3.5846879 0.076162301 17
2.3771555 3.4215555 0.21834564 24
2.3515327 3.380893 0.36030185 23
2.5574446 3.6714737 0.54938704 13
3.1660361 4.5400996 0.8766588 3
4.5470119 6.5131497 1.5440264 29
4.5290785 6.4778156 1.8248031 46
6.2412791 8.9167833 2.9163733 18
1.3721187 1.9494343 -0.63876545 31
1.4917793 2.1170857 -0.59791994 31
1.5971994 2.2633374 -0.538463 23
1.8054385 2.5555847 -0.49558446 23
2.0437667 2.8897247 -0.43458611 19
2.3089604 3.2598553 -0.34949452 10
2.5681632 3.621783 -0.23268569 20
2.9945362 4.2183981 -0.09029875 6
2.4712229 3.5083776 0.074905731 35
2.3733621 3.3657012 0.2158335 16
2.3532465 3.333468 0.35698992 22
2.5543644 3.6130068 0.5432936 13
2.9842498 4.2163711 0.81815231 30
4.5458388 6.4155679 1.5283802 13
4.521184 6.3713455 1.8036578 25
nan nan nan nan
1.3778343 1.9288037 -0.63514197 35
1.4974554 2.0939379 -0.59432071 34
1.6163911 2.2569201 -0.53960788 41
1.8197829 2.5381019 -0.49464583 25
2.0546308 2.8624849 -0.4326362 20
2.302588 3.2032127 -0.34513673 13
2.6062181 3.621598 -0.23383708 22
2.5715535 3.5694842 -0.076790586 6
2.4200635 3.3853011 0.072636917 25
2.371228 3.3133197 0.21353073 24
2.3973465 3.3461118 0.36012751 20
2.5887854 3.6079876 0.54524344 12
3.0274439 4.214685 0.82190675 13
4.2925057 5.969255 1.4291594 36
7.6756883 10.65829 3.0323403 19
6.2939892 8.7300501 2.8837619 17
1.376526 1.8988044 -0.62841266 38
1.5223378 2.0976276 -0.59836984 39
1.6424962 2.2598736 -0.54304242 25
1.8293222 2.5141544 -0.49245578 22
2.079241 2.8544884 -0.43361115 19
2.3166749 3.1757922 -0.34391654 16
2.637326 3.6113808 -0.23436043 18
2.8147433 3.8500905 -0.083247982 12
2.5035257 3.4508724 0.074417062 13
2.3943014 3.2966845 0.21353073 31
2.3878417 3.2841723 0.35524681 15
2.5695069 3.5288475 0.53598142 10
2.9241431 4.0114698 0.78623968 13
4.5574327 6.2452178 1.5028118 28
7.6567783 10.476998 2.9958985 36
nan nan nan nan
1.3840247 1.8813674 -0.62582451 26
1.5242332 2.0696881 -0.59342092 30
1.6617289 2.2530916 -0.54418731 27
1.8362697 2.4870198 -0.48963994 20
2.0943987 2.8335176 -0.4326362 13
2.3293066 3.1467304 -0.34252208 17
2.6612847 3.5912762 -0.23425576 20
2.8772979 3.8785245 -0.084295124 15
2.4599807 3.3415191 0.072427489 16
2.401854 3.2589872 0.21216999 15
2.3977001 3.2497866 0.35332939 42
2.5940802 3.510823 0.53598142 13
2.8475251 3.8496163 0.75839436 19
4.7387829 6.3994279 1.5478426 27
nan nan nan nan
3.5513723 4.7836699 1.596396 15
1.3705466 1.836053 -0.61391884 47
1.5386453 2.0589964 -0.59342092 38
1.6844758 2.2508667 -0.54647696 32
1.845297 2.4630733 -0.48744985 32
2.0891156 2.7854784 -0.42751768 17
2.3351202 3.1100895 -0.34025604 14
2.6262782 3.4927912 -0.22902218 18
2.6084628 3.4653194 -0.075708538 8
2.5263305 3.3819389 0.073684059 13
2.3647397 3.1621671 0.20693639 31
2.5946615 3.4658301 0.37877885 6
2.5720866 3.4306843 0.52647561 20
3.0000238 3.9971111 0.7915585 10
4.6807418 6.2296357 1.5146419 12
4.6517172 6.1842618 1.7865614 12
3.574219 4.7448745 1.5917372 7
1.3833305 1.8264407 -0.61391884 55
1.5518039 2.0466528 -0.59297103 22
1.6819521 2.2158926 -0.54075271 42
1.8488721 2.4331553 -0.48400828 26
2.0940857 2.751869 -0.42459282 15
2.3434949 3.0762777 -0.33833858 14
2.6390901 3.460542 -0.22808012 22
2.5791857 3.3770998 -0.074172728 12
2.3947177 3.1606476 0.069216244 20
2.3825896 3.1412225 0.20662238 21
2.4319942 3.2017133 0.35176057 35
2.5340993 3.3325105 0.51404494 23
3.1492054 4.1369195 0.82347113 12
4.5598664 5.9813442 1.4619786 28
4.7006927 6.159379 1.7888108 2
nan nan nan nan
1.3933775 1.8139174 -0.61288351 30
1.5573847 2.025228 -0.5898217 46
1.6937884 2.199429 -0.53960788 38
1.8658148 2.4201877 -0.48400828 26
2.1212585 2.7485516 -0.42629901 30
2.3442016 3.0330429 -0.33537531 14
2.6961842 3.4846833 -0.23090626 18
2.5812964 3.3325896 -0.073579341 16
2.510565 3.2659297 0.071903922 25
2.4276032 3.154587 0.20861115 15
2.4063089 3.1235309 0.34496242 25
2.5221384 3.2691581 0.50697654 23
2.9461792 3.8146622 0.76340026 28
4.9943528 6.4596076 1.5871494 27
4.7566991 6.1433635 1.7937598 6
7.2703166 9.3795977 3.1798508 1
1.428569 1.8330981 -0.62271863 20
1.576279 2.0204527 -0.59162134 43
1.7103108 2.1890979 -0.53998947 36
1.8826655 2.4071028 -0.48400828 25
2.1330528 2.7242975 -0.42483655 16
2.3505664 2.9977887 -0.33328354 17
2.7142804 3.4579201 -0.23038292 18
2.5316029 3.2217195 -0.071519956 28
2.4951818 3.1994402 0.070821866 20
2.4421928 3.1281166 0.20798311 10
2.3875685 3.0548518 0.33921015 19
2.5448997 3.2514706 0.50697654 22
2.9812672 3.8048856 0.76559031 18
4.9193721 6.2716537 1.5493692 13
7.3779688 9.3925829 2.7574501 2
7.2448668 9.2132015 3.1405106 1
1.4401335 1.8215644 -0.62220097 44
1.5879275 2.0063429 -0.59072149 32
1.7389661 2.1940286 -0.54418731 28
1.8625901 2.3474772 -0.47462222 20
2.1507852 2.7077854 -0.42459282 31
2.3677168 2.9766278 -0.3327606 21
2.6624625 3.3435791 -0.22399792 13
2.8644059 3.5933218 -0.080211259 17
2.4802365 3.1348946 0.069774717 20
2.4689331 3.1172521 0.2084018 3
2.3865576 3.010006 0.33607253 15
2.5823483 3.252281 0.50990134 22
2.9770272 3.745322 0.75776863 10
4.966701 6.2417684 1.550514 13
7.3644228 9.2417831 2.7282064 2
7.2451601 9.0823574 3.1130757 5
1.4467719 1.8039309 -0.61961281 50
1.5896953 1.9800124 -0.58622253 34
1.7394778 2.1634753 -0.53960788 39
1.8975108 2.3575003 -0.47931525 17
2.1484621 2.6664271 -0.42044926 37
2.3997004 2.9739809 -0.33432943 14
2.7045658 3.3482158 -0.22556801 22
2.8479292 3.521924 -0.0790594 16
2.468267 3.0753956 0.068832293 9
2.5469282 3.1700039 0.21311203 9
2.4337361 3.0258746 0.33973309 22
2.5763521 3.1986151 0.50429535 26
2.9857447 3.7029173 0.75338852 16
5.1396356 6.3673453 1.5905839 9
7.3564801 9.1007318 2.7016623 2
7.3424125 9.0736074 3.1275694 1
1.4715229 1.8087716 -0.62478918 41
1.6034808 1.9688653 -0.58622253 38
1.7619842 2.1604073 -0.54189759 40
1.917671 2.3487861 -0.48025388 25
2.1695373 2.6544373 -0.42093676 15
2.4065213 2.9401965 -0.332412 16
2.7379994 3.3416131 -0.22640537 22
2.6695356 3.2545784 -0.073474631 18
2.533864 3.1123667 0.070053965 26
2.4402933 2.99423 0.20243551 8
2.5127378 3.0798249 0.34775141 12
2.5910845 3.1713278 0.50283301 18
2.8764548 3.5168438 0.71959865 57
5.3357015 6.5166306 1.6371413 7
7.4470234 9.0823011 2.7115602 6
7.4313235 9.0534811 3.1384399 15
1.4718179 1.7835548 -0.61961281 52
1.607257 1.9456043 -0.5826233 30
1.7695162 2.1389763 -0.53960788 40
1.9289831 2.3292544 -0.47900239 26
2.169013 2.6163023 -0.41728067 12
2.4028084 2.8941984 -0.32910007 14
2.7421126 3.2993762 -0.22483528 13
2.6666129 3.2051179 -0.072776534 19
2.524971 3.0575953 0.069216244 13
2.4229608 2.9309397 0.19929534 25
2.5646641 3.099046 0.35193488 10
2.6359599 3.1806741 0.50722027 13
2.8605742 3.4480283 0.7095868 15
7.5523028 9.0935678 2.2977221 6
7.5264487 9.0495682 2.7174089 18
7.4201822 8.9123011 3.1073816 35
1.4814439 1.7705327 -0.61857754 29
1.6254673 1.9405954 -0.58442289 33
1.7777253 2.1193621 -0.53769976 45
1.9371704 2.3069947 -0.4771252 22
2.1872244 2.6010969 -0.41728067 15
2.4083388 2.8610091 -0.32718265 16
2.7400541 3.2516162 -0.22284654 11
2.794677 3.3117394 -0.075638726 22
2.6394403 3.152261 0.07176429 17
2.4864774 2.9664218 0.20285419 10
2.5229459 3.0067306 0.34339362 4
2.662657 3.1687369 0.50819516 13
3.0162258 3.58569 0.74212521 15
7.6396356 9.06915 2.3049729 42
7.6356058 9.0547409 2.7345052 22
7.4021626 8.7685909 3.0747702 20
1.5040786 1.7716672 -0.62271863 26
1.6254315 1.9125793 -0.57947397 31
1.7746677 2.0859654 -0.53235716 23
1.9382566 2.2750297 -0.47337076 27
2.220788 2.603888 -0.42020553 6
2.4217854 2.8365498 -0.32631108 13
2.7437832 3.2091548 -0.22127645 19
2.6564915 3.1037662 -0.071310528 19
2.4477992 2.8822644 0.066004999 25
2.4532957 2.8846526 0.19845797 10
2.531481 2.9734292 0.34165049 13
2.6563866 3.1168332 0.50283301 33
2.9930747 3.5069194 0.73023617 16
7.7371969 9.0558958 2.3152766 19
3.696054 4.3214126 1.3128145 14
7.3993721 8.639102 3.0478532 30
1.5151492 1.7596604 -0.62220097 14
1.6323818 1.8938055 -0.57722449 34
1.7972459 2.0821295 -0.53464681 23
1.964424 2.2733998 -0.47587368 52
2.2194321 2.5658002 -0.41654944 11
2.4245741 2.799993 -0.32404503 19
2.7556527 3.1778498 -0.22043908 17
2.6059976 3.0020888 -0.069390766 20
2.4996893 2.9010322 0.06684272 18
2.534687 2.9385362 0.20337754 15
2.5118117 2.9089355 0.33624685 13
2.687711 3.1082556 0.50453913 13
3.2540743 3.7592578 0.7874912 16
2.9750674 3.4333014 0.88306409 2
3.6533465 4.2115955 1.2871699 14
7.387291 8.5041027 3.0183477 45
1.5172321 1.7373981 -0.61805987 14
1.6506945 1.888231 -0.57902408 34
1.8036196 2.0609834 -0.53235716 30
1.9928699 2.2748342 -0.47900239 23
2.2176528 2.5278609 -0.41289338 12
2.4453762 2.7844963 -0.32421938 13
2.795682 3.1800194 -0.22190447 17
2.694283 3.0603695 -0.071170911 13
2.4970114 2.8583496 0.066249333 22
2.5519993 2.9182093 0.2031682 11
2.4703653 2.8208818 0.32805422 22
2.8069508 3.2018414 0.52281958 5
3.1310482 3.5677636 0.75182414 15
7.9834118 9.0841312 2.3507669 2
3.8847499 4.4156976 1.3578047 13
2.8651333 3.2532892 1.16158 15
1.5238999 1.7212455 -0.61598933 18
1.6725559 1.8871607 -0.58217335 27
1.8101448 2.0395317 -0.53006744 41
2.0073907 2.2593892 -0.47868952 17
2.2189782 2.4949064 -0.4099685 12
2.4629495 2.7662973 -0.32404503 12
2.8337648 3.1783135 -0.22316055 22
2.5912168 2.9032133 -0.067924768 19
2.4983404 2.8198926 0.065760665 24
2.4437623 2.7553794 0.19301502 12
2.5199335 2.8382688 0.33206338 15
2.6656795 2.9982109 0.49259594 22
2.9851477 3.3539937 0.71115112 4
3.7338991 4.1908402 1.091046 3
8.6297531 9.6756277 2.9931989 5
nan nan nan nan
1.5332981 1.7076899 -0.61495411 18
1.6869928 1.8768874 -0.5826233 30
1.8226713 2.0257044 -0.5296858 28
1.9989256 2.2192543 -0.4730579 31
2.2230449 2.4646146 -0.40753111 17
2.4728539 2.7386851 -0.32282487 18
2.8365815 3.1382084 -0.22169513 17
2.584583 2.8554018 -0.067226671 20
2.5856254 2.8786943 0.06754081 13
2.505192 2.7862086 0.19636452 3
2.5343544 2.8146849 0.33136615 11
2.72457 3.0227563 0.49966437 17
3.1309795 3.4699898 0.74024802 24
8.7778587 9.7146463 2.5450106 2
3.0223489 3.3413808 1.0401738 6
7.5375142 8.3243914 3.0090303 30
1.5474873 1.7000707 -0.61598933 22
1.6971042 1.8624802 -0.58172351 48
1.8380933 2.0143797 -0.53006744 27
2.00771 2.1979518 -0.47149354 27
2.2558458 2.4670045 -0.410456 12
2.4919133 2.7213545 -0.32282487 13
2.8530228 3.1124396 -0.22127645 12
2.5877337 2.8200631 -0.066807814 22
2.541023 2.789613 0.065865383 20
2.486902 2.7273278 0.1934337 8
2.5507667 2.7944269 0.33101749 10
2.7228365 2.9787543 0.49552077 23
nan nan nan nan
3.0579917 3.3383844 0.88001108 1
nan nan nan nan
nan nan nan nan
1.5671805 1.6977429 -0.61909521 28
1.6994851 1.839137 -0.57812428 23
1.8561108 2.0058222 -0.53121227 39
2.0015261 2.160696 -0.46648762 20
2.240618 2.4162626 -0.40460625 12
2.502718 2.6951303 -0.32177898 16
2.8923616 3.1114614 -0.22263718 16
2.5937374 2.7872882 -0.066458762 31
2.6201391 2.8364367 0.067401193 10
2.6035137 2.81548 0.20097008 7
2.4876525 2.6873622 0.3203845 29
2.7138762 2.927645 0.49015856 20
3.1468732 3.3911855 0.73273909 15
3.1841092 3.4277112 0.90939575 9
3.2478905 3.4914811 1.1009105 30
3.3255608 3.5712252 1.3075538 46
1.5763543 1.6839398 -0.61805987 31
1.7109506 1.8258053 -0.57767433 23
1.8579779 1.9799306 -0.52777767 33
1.9719297 2.099158 -0.45616296 10
2.2655916 2.4092381 -0.40606871 12
2.527832 2.685287 -0.32265055 31
2.8208508 2.9923694 -0.21551949 21
2.8203719 2.9887218 -0.071729392 21
2.608434 2.7845099 0.066598386 12
2.5343029 2.7025375 0.19416642 5
2.5881712 2.7570875 0.33084321 15
2.6281965 2.7958112 0.47114691 11
4.976368 5.2881875 1.1501063 14
nan nan nan nan
3.3023331 3.5018997 1.1112583 4
3.0161667 3.1939726 1.1771091 9
1.5787609 1.663087 -0.61443645 41
1.7088879 1.7982781 -0.57272542 24
1.8632929 1.9587032 -0.52548802 46
2.0052445 2.1057146 -0.46054313 14
2.2796161 2.3904893 -0.40558121 16
2.5300083 2.6502802 -0.32055882 13
2.8715115 3.0048661 -0.21782227 26
2.6669643 2.7869222 -0.067331389 12
2.5557227 2.6912878 0.064783335 14
2.5168617 2.6475878 0.19144495 36
2.5565279 2.6855576 0.32439366 22
2.6060824 2.7347448 0.46383476 19
4.9481635 5.1870136 1.1354015 10
nan nan nan nan
3.2903359 3.4407327 1.099111 13
nan nan nan nan
1.5833476 1.6453414 -0.61184824 24
1.7292018 1.7950243 -0.57542485 31
1.8837372 1.9527122 -0.52739608 16
2.0226405 2.0945058 -0.46116886 10
2.2875564 2.3663538 -0.40411878 16
2.5318213 2.6153734 -0.31846708 15
2.850723 2.941716 -0.21468212 28
2.9852326 3.0772934 -0.074835919 9
2.8213508 2.9297724 0.070996389 57
2.5643921 2.6601498 0.19364306 11
2.5456932 2.6379871 0.32073313 10
2.5961425 2.6865072 0.45871624 14
3.1850338 3.2924447 0.72554308 18
3.1494458 3.2522476 0.88001108 15
3.1948903 3.2945704 1.0595195 4
3.1433456 3.2380233 1.2092026 21
1.5880487 1.6273352 -0.60926002 35
1.7130935 1.7536355 -0.56597686 46
1.8726119 1.9142522 -0.52052695 30
2.0206282 2.0633976 -0.45741442 7
2.2970729 2.3432381 -0.4029001 11
2.5374553 2.5848393 -0.31689829 16
2.8627899 2.9131968 -0.21405408 33
2.7892773 2.8354187 -0.069425672 20
2.5986388 2.6610646 0.064922951 28
2.6094291 2.6693168 0.19563182 15
2.7953708 2.8565326 0.34966883 8
2.7898967 2.8469627 0.48942733 12
3.113874 3.1742406 0.70426804 12
nan nan nan nan
3.217813 3.2721856 1.0595195 35
3.0872695 3.1361504 1.1791797 12
1.5966533 1.6134626 -0.60822481 28
1.7403804 1.7568622 -0.57092583 24
1.8956078 1.9108895 -0.52319831 31
2.0224562 2.0366268 -0.45459861 10
2.3007791 2.3144748 -0.40070644 8
2.5455997 2.5571775 -0.31567809 21
2.8590915 2.8690894 -0.21227466 15
2.8810301 2.8880789 -0.071205825 18
2.6143389 2.6400156 0.064853139 20
2.5675385 2.5900424 0.19113094 25
2.6580629 2.6785538 0.33014596 18
2.8041086 2.8217826 0.4884524 50
nan nan nan nan
3.2638142 3.2775142 0.89909208 49
3.2832365 3.2924182 1.0734665 14
3.0981703 3.1035829 1.1750386 16
1.6201948 1.6145483 -0.61288351 24
1.7622716 1.7542921 -0.5740751 25
1.8991557 1.8879205 -0.52052695 27
2.0478387 2.0335932 -0.45710155 9
2.311244 2.2927639 -0.39973149 6
2.570466 2.5463555 -0.31654966 10
2.8847303 2.8546786 -0.21269335 49
2.7603323 2.7287176 -0.067750245 19
2.6227858 2.611824 0.064608812 13
2.5940526 2.580507 0.19175896 22
2.7713845 2.7540278 0.34182483 10
2.7391968 2.718241 0.47382805 13
3.2715247 3.2430987 0.72961038 28
3.2001257 3.1689997 0.87543172 13
nan nan nan nan
3.6488848 3.6045754 1.3743292 22
1.6217811 1.5937203 -0.60926002 42
1.7716939 1.739217 -0.57317531 29
1.9164965 1.878738 -0.52167183 31
2.0619869 2.0192461 -0.45710155 9
2.3130052 2.2626898 -0.3972941 4
2.5696523 2.5102489 -0.31428361 16
2.9917831 2.9195611 -0.21907835 22
2.7048552 2.6367965 -0.065935194 23
2.6480899 2.6004555 0.064783335 7
2.6291137 2.579118 0.19301502 16
2.6539338 2.6007409 0.32509091 11
2.7694557 2.71016 0.47577798 13
3.0553639 2.986814 0.67673558 13
3.2615006 3.184988 0.88611698 13
nan nan nan nan
3.1218283 3.0411503 1.1677916 23
1.6328677 1.5823594 -0.60926002 43
1.7823926 1.7254503 -0.57272542 27
1.9366226 1.8721362 -0.5235799 32
2.0689287 1.9979403 -0.45553723 7
2.3244593 2.2423522 -0.39656287 9
1.9945045 1.9213662 -0.24229297 10
2.9444547 2.8335114 -0.21415874 15
2.744823 2.6386352 -0.066458762 17
2.6676166 2.5832961 0.064818241 28
2.6513619 2.5648665 0.19332905 12
2.5860627 2.4990778 0.31463224 16
2.7911656 2.6935165 0.47626543 12
3.4515915 3.3273489 0.75933295 31
3.2299173 3.110393 0.87161553 6
3.635205 3.4957917 1.1643467 50
3.623626 3.4810071 1.3463767 33
1.6285115 1.5562396 -0.60356599 27
1.7774801 1.6968175 -0.56732661 31
1.9425403 1.8517972 -0.52167183 24
2.0685205 1.9698261 -0.45240852 13
2.3443711 2.2301757 -0.3972941 15
2.582355 2.4539933 -0.31166893 24
2.9366384 2.7867646 -0.21216999 21
2.8763747 2.726716 -0.069181338 9
2.6638935 2.5438941 0.064294666 22
2.6475272 2.5256138 0.19175896 25
2.6366215 2.5125749 0.31864139 19
2.7365625 2.6041737 0.46383476 19
3.3587687 3.1929293 0.73399061 18
3.2017262 3.0404513 0.8582589 5
3.7550526 3.5621688 1.1949401 11
nan nan nan nan
1.6505834 1.5554327 -0.60770714 26
1.7892821 1.6843679 -0.56732661 30
1.9593899 1.8425676 -0.52281672 19
2.08044 1.9543489 -0.45209566 9
2.35554 2.2096801 -0.39656287 15
2.5979702 2.4345427 -0.31149462 25
2.9220023 2.7353191 -0.20976254 49
2.9917536 2.7966981 -0.071485057 24
2.7655702 2.6052306 0.066319145 7
2.6806557 2.5225916 0.19291034 3
2.7179813 2.5541408 0.32631108 21
2.8019865 2.630321 0.47187814 12
3.247859 3.0456796 0.70520669 31
3.7316003 3.4944122 0.99373329 11
3.5222449 3.2949042 1.1135077 9
3.1151509 2.9110289 1.1424273 26
1.6554736 1.5388994 -0.6056366 27
1.8064185 1.677453 -0.56912625 51
1.9362172 1.7954694 -0.51327622 45
1.9867965 1.8404382 -0.42894334 22
2.3748972 2.1976399 -0.3972941 15
2.6251464 2.4258115 -0.31271479 22
2.9439619 2.7175622 -0.20997187 38
2.9078164 2.6813755 -0.069041722 17
2.7851543 2.5872221 0.066354051 46
2.7216246 2.5255535 0.1945851 10
2.7937493 2.5897615 0.33328354 6
2.7940595 2.5864222 0.46749085 16
3.3053005 3.0564592 0.71302837 15
3.6240644 3.3477063 0.95900601 30
3.1483891 2.9042339 0.98888493 12
3.3570197 3.0934334 1.2231789 9
1.6576315 1.519473 -0.60253078 26
1.8108985 1.6582217 -0.56687671 29
1.9545003 1.7872078 -0.51480269 29
2.1133595 1.9304389 -0.45334715 10
2.3945808 2.1850207 -0.39802533 13
2.655272 2.4195027 -0.31428361 16
2.96877 2.7023208 -0.21039055 38
3.0566602 2.7793977 -0.072113343 9
3.3030264 3.0256081 0.07818678 5
2.6861448 2.4579527 0.19081691 36
2.9073508 2.6575687 0.34461379 33
2.7797933 2.5374107 0.46212861 12
3.6316268 3.3114853 0.778418 19
3.6604104 3.3342228 0.96244061 23
3.8547785 3.5063498 1.2030382 14
3.1512015 2.8633547 1.1408744 15
1.6538675 1.4949094 -0.59735435 31
1.819538 1.6429267 -0.56597686 39
1.9552653 1.7630017 -0.51174974 23
2.1179783 1.9077055 -0.45146993 9
2.4083011 2.1669223 -0.39778158 12
2.6958113 2.4222126 -0.3170726 6
2.9994545 2.6922021 -0.21122794 21
2.9345479 2.6311712 -0.068797387 13
2.9144971 2.6325259 0.068553053 11
2.6839633 2.4217448 0.18945618 23
2.6668441 2.4037666 0.3141093 14
2.7797332 2.502007 0.45920372 18
3.0935307 2.781522 0.65890205 15
3.4995644 3.1432889 0.91435677 38
3.2379556 2.9042318 1.0041816 25
3.1567264 2.8283939 1.135698 8
1.6570529 1.4769 -0.5947662 30
1.8193206 1.6198162 -0.56237763 32
1.9543198 1.737569 -0.50831515 29
2.1253362 1.8876266 -0.45021844 9
2.4203997 2.1474228 -0.3972941 17
2.7051992 2.3967268 -0.31620103 3
3.0465937 2.6963465 -0.21321672 15
3.0157671 2.6662495 -0.070263386 16
2.8521676 2.5402949 0.06666819 15
2.7246792 2.4241898 0.19113094 10
2.7386615 2.4340625 0.32055882 11
2.8015883 2.4864919 0.45993495 11
3.2370353 2.8699353 0.68518305 25
3.3230131 2.9430566 0.86283833 40
nan nan nan nan
3.7583954 3.3204761 1.3437886 3
1.6760308 1.4729465 -0.59787202 36
1.8144758 1.5929332 -0.55742878 31
1.9678791 1.7251772 -0.50869679 23
2.1191435 1.8558245 -0.44615117 11
2.4353335 2.1304717 -0.3972941 19
2.7413707 2.3948243 -0.31846708 9
3.0623322 2.6723862 -0.21300736 42
3.1081669 2.7095191 -0.071973726 18
3.2364483 2.8422902 0.075184964 15
2.7985885 2.4551618 0.19510846 10
2.7645772 2.4227638 0.32160467 9
2.75315 2.4093511 0.44921044 11
3.4072011 2.9785793 0.71678281 42
nan nan nan nan
3.2297218 2.816473 0.98933482 1
1.9373562 1.6876833 0.68845868 7
1.7052519 1.477657 -0.60460132 26
1.8329185 1.5866048 -0.55967826 37
1.9679937 1.7011248 -0.50564384 11
2.1200879 1.8306557 -0.44364822 12
2.436619 2.1017485 -0.39510044 11
2.7187736 2.34182 -0.31393498 12
3.1111937 2.6769955 -0.2151008 21
3.1163929 2.6786282 -0.071729392 13
2.972012 2.5735307 0.068622865 27
2.8413398 2.4577768 0.19688788 10
2.7814238 2.4034045 0.32160467 15
2.8585751 2.4665866 0.46359101 11
3.2289093 2.7831903 0.6751712 16
3.2953434 2.8374476 0.84528393 3
1.9578582 1.683429 0.5961203 9
1.944695 1.6703408 0.68690574 5
1.6961787 1.4496994 -0.59787202 26
1.8421929 1.5728273 -0.55922836 31
1.9765385 1.6851431 -0.50488061 11
2.1279871 1.812341 -0.44270959 13
2.4554038 2.0889745 -0.39583167 12
2.7346509 2.3232596 -0.31393498 12
3.2161427 2.7294197 -0.22106709 19
3.4670742 2.9392548 -0.07933864 11
2.984899 2.5493453 0.068518147 11
2.8109021 2.3981936 0.19364306 2
2.7522273 2.3456452 0.31637534 38
3.2683477 2.7815807 0.52696311 25
nan nan nan nan
1.9977278 1.6965948 0.50946003 7
1.9856195 1.6839288 0.60106927 5
1.9722329 1.6708019 0.69259977 9
1.697395 1.4303524 -0.5947662 30
1.865056 1.5699669 -0.56282759 56
1.9702208 1.6561439 -0.50030124 11
2.1587412 1.8126839 -0.446464 11
2.1946464 1.840875 -0.35171497 25
2.7370572 2.2925975 -0.31236616 18
3.1799755 2.6607602 -0.21729892 21
2.9029338 2.4263701 -0.066039905 8
2.8389559 2.3906231 0.064783335 7
2.8703721 2.4145105 0.19657388 35
2.7776885 2.3340645 0.3174212 24
nan nan nan nan
2.0089331 1.6839039 0.41517711 7
2.0065124 1.6800871 0.50869679 6
2.0033078 1.6750246 0.60286885 9
1.9794019 1.6532761 0.69104689 9
1.7147689 1.4246401 -0.59735435 26
1.8594756 1.5432183 -0.55787861 34
1.9832464 1.6436017 -0.50068283 10
2.1226518 1.7572591 -0.43645221 32
2.4766824 2.0481625 -0.39461297 9
2.7545323 2.2747021 -0.3125405 21
3.203095 2.6423073 -0.21761292 17
2.9444942 2.4263918 -0.066598386 16
3.094054 2.568733 0.070193581 22
2.8225894 2.3408635 0.19217765 31
nan nan nan nan
2.025111 1.6753178 0.32271007 8
2.0328217 1.6799049 0.41768005 6
2.0257628 1.6722871 0.51060492 8
2.0224705 1.6671968 0.60511833 6
1.9729995 1.6246817 0.68483526 5
1.7186952 1.4077376 -0.59528387 33
1.8656794 1.5264971 -0.55652899 26
2.0022745 1.6359267 -0.50259089 10
2.1440504 1.7498914 -0.4383294 32
2.2570608 1.8401582 -0.35756469 12
2.7209024 2.2151635 -0.30696252 4
3.2013202 2.6034989 -0.21625218 21
2.9598098 2.4045153 -0.06656348 23
