# .PCD v0.7 - Point Cloud Data file format
VERSION 0.7
FIELDS x y z intensity
SIZE 4 4 4 4
TYPE F F F F
COUNT 1 1 1 1
WIDTH 1428
HEIGHT 1
VIEWPOINT 0 0 0 1 0 0 0
POINTS 1428
DATA ascii
2.556952 -1.2327772 -0.44959271 7
2.9029284 -1.4020804 -0.39583167 6
3.3415406 -1.6160834 -0.32474229 3
3.888128 -1.8829445 -0.22640537 5
4.4546862 -2.1611581 -0.086424313 3
5.2704649 -2.5319731 0.10206167 1
6.3120232 -3.0364146 0.36708444 7
nan nan nan nan
7.2889366 -3.5173342 0.99372268 1
7.2994514 -3.5271211 1.2840142 1
7.3175912 -3.5421898 1.5802802 2
6.0849862 -2.9494627 1.5611604 100
7.2820501 -3.5344028 2.1689036 3
1.8954337 -0.92610329 -0.56526077 12
2.0743084 -1.0148468 -0.53313404 9
2.2811999 -1.118042 -0.49381369 9
2.5553768 -1.2540791 -0.4508442 7
2.8968806 -1.4235584 -0.39631912 6
3.3376138 -1.6423095 -0.32543954 4
3.8981767 -1.9215223 -0.22776611 5
4.4613914 -2.2020509 -0.086843178 3
5.2670317 -2.5757339 0.10234091 1
6.322958 -3.0962172 0.36896852 19
nan nan nan nan
7.1394806 -3.506871 0.97666097 1
7.1292992 -3.5065043 1.2583591 1
7.1436052 -3.5181873 1.5478426 1
6.085742 -3.0011559 1.5665592 100
7.1324921 -3.5235481 2.1316338 3
1.8854626 -0.93759298 -0.56422555 12
2.0741506 -1.0327777 -0.53493363 9
2.277051 -1.1352957 -0.49457693 6
2.5432467 -1.269679 -0.45021844 7
2.9010754 -1.4508508 -0.39826906 6
3.3278487 -1.6664623 -0.32561383 3
3.8885777 -1.9498019 -0.22797546 5
4.4691391 -2.2448118 -0.08729694 3
5.2690711 -2.6213231 0.10272487 1
6.337491 -3.1569948 0.37106195 42
6.9794564 -3.4828708 0.68242943 1
6.9787126 -3.4870646 0.95789313 1
6.9568715 -3.480705 1.232078 1
6.9591513 -3.4879222 1.5131154 1
6.0820594 -3.0523095 1.5710583 100
6.9598927 -3.4974179 2.0871167 3
1.8892136 -0.95596647 -0.56733137 10
2.0547216 -1.0410674 -0.5317843 9
2.2758715 -1.155115 -0.49610341 9
2.534096 -1.2878455 -0.45021844 7
2.9050295 -1.478271 -0.40021896 8
3.3389144 -1.701996 -0.32787988 4
3.8923154 -1.9866576 -0.22902218 5
4.4569197 -2.2777772 -0.087366745 3
5.2769384 -2.672513 0.10324844 1
6.300488 -3.1950371 0.3702246 23
6.8377228 -3.4719763 0.6709249 1
6.8438811 -3.4811151 0.94278133 1
6.8068099 -3.4667466 1.2098643 1
6.8192 -3.4775543 1.4879286 2
6.0843577 -3.108165 1.5773569 100
6.8039742 -3.4802713 2.0477762 3
1.8876464 -0.97178495 -0.56888431 12
2.0508678 -1.0571722 -0.53268409 9
2.2869406 -1.1808835 -0.50030124 10
2.5285528 -1.3073199 -0.4508442 6
2.8770099 -1.4893895 -0.39778158 8
3.3375635 -1.7307676 -0.32892576 3
3.8854413 -2.0174639 -0.22944085 5
4.472846 -2.3254404 -0.087995037 3
5.293704 -2.7276061 0.10394654 1
6.3117533 -3.2563436 0.37221336 47
6.9372277 -3.5836377 0.68312669 1
6.9974775 -3.6209521 0.96739888 1
6.8034887 -3.5250871 1.2136188 1
6.7546744 -3.5042825 1.4791514 1
6.0642395 -3.151464 1.5778068 100
6.6389861 -3.454565 2.0053301 2
1.8876617 -0.98852426 -0.57095486 12
2.0417118 -1.0705593 -0.53223425 9
2.266474 -1.19043 -0.49762988 11
2.5403447 -1.335974 -0.45459861 7
2.8841064 -1.5186875 -0.40021896 5
3.3535953 -1.7688984 -0.33171475 4
3.8836248 -2.0510693 -0.23017356 5
4.4458961 -2.3510013 -0.087785602 5
5.2816172 -2.7682092 0.10408615 1
6.3030138 -3.3077531 0.37305072 49
6.8697114 -3.6097386 0.67894322 1
6.8420386 -3.6012955 0.94936228 1
6.8643432 -3.6176267 1.2289493 1
6.7300453 -3.551353 1.4791514 1
6.059319 -3.2028301 1.5823058 100
6.5600686 -3.4719117 1.9887657 2
1.8807145 -1.0016785 -0.57095486 12
2.0513833 -1.0939567 -0.53673327 9
2.2529135 -1.203449 -0.49648505 10
2.5379236 -1.3574027 -0.45585006 7
2.8804336 -1.5425338 -0.40119389 8
3.3341417 -1.7885002 -0.33101749 3
3.8903255 -2.0894723 -0.23142964 5
4.4469862 -2.3914528 -0.088134654 5
5.2868681 -2.8181832 0.10457481 1
6.2991505 -3.3620205 0.37420213 47
6.7283673 -3.5956321 0.66743869 1
6.6942215 -3.583395 0.93230057 1
6.7205272 -3.6020048 1.2076741 1
6.5424776 -3.5109863 1.4432793 1
6.0539761 -3.2542806 1.5868049 80
nan nan nan nan
1.871977 -1.0138637 -0.57043719 12
2.0505483 -1.1119671 -0.53853285 9
2.2582581 -1.2266445 -0.49953794 10
2.5179732 -1.3694248 -0.45397288 7
2.8765683 -1.5664026 -0.40216887 8
3.332386 -1.8168757 -0.33206338 3
3.8879137 -2.1232817 -0.23216233 7
4.4547458 -2.4358711 -0.088623315 5
5.2881618 -2.8664589 0.10499368 1
6.2948356 -3.4163942 0.37535352 37
nan nan nan nan
6.4284334 -3.4990759 0.89866465 1
6.5391111 -3.5637589 1.1795161 1
6.4385319 -3.5133173 1.4257249 1
nan nan nan nan
6.2330265 -3.4110682 1.903873 2
1.8750068 -1.032499 -0.57354301 12
2.0307896 -1.1196691 -0.53538352 9
2.253294 -1.2438849 -0.50030124 10
2.5103223 -1.3874879 -0.45428574 9
2.8690362 -1.5883694 -0.40265635 8
3.3335617 -1.8478233 -0.33345786 4
3.8768635 -2.1516347 -0.23237166 7
4.4551101 -2.4766278 -0.088972367 5
5.2720308 -2.9043174 0.10506349 1
6.2959185 -3.472667 0.37681893 70
nan nan nan nan
nan nan nan nan
6.153542 -3.4081566 1.1141263 19
6.2353044 -3.4591312 1.3860366 1
6.0426035 -3.3563666 1.5958029 66
nan nan nan nan
1.8628777 -1.0424076 -0.57199007 12
2.0214212 -1.1325138 -0.53493363 9
2.259964 -1.2682325 -0.50373578 9
2.5109079 -1.410785 -0.45616296 9
2.8650784 -1.6117544 -0.4036313 8
3.3347948 -1.8782934 -0.33485237 4
3.8704457 -2.1835546 -0.23289503 5
4.4416318 -2.5088623 -0.089042179 5
5.2760525 -2.9547315 0.10555216 1
6.2000966 -3.4764864 0.37252739 30
6.204011 -3.4829521 0.62246627 46
6.1684823 -3.4686725 0.86892849 86
nan nan nan nan
nan nan nan nan
6.0230117 -3.3993347 1.5967027 98
nan nan nan nan
1.8723474 -1.0649384 -0.5771665 12
2.0236261 -1.1523843 -0.53763306 9
2.244457 -1.2796965 -0.50220931 10
2.5115402 -1.4337194 -0.45804018 9
2.857203 -1.6336877 -0.40411878 8
3.3388913 -1.9114274 -0.33659548 3
3.8676229 -2.2168016 -0.23362774 5
4.4274764 -2.5418005 -0.089111991 5
4.7205033 -2.6859796 0.094801471 6
4.6682262 -2.6594706 0.28156745 5
6.1328216 -3.4995179 0.61775988 13
6.0912971 -3.4800527 0.86137259 73
6.0613852 -3.4671743 1.1059917 49
6.069478 -3.4774296 1.359705 68
6.016037 -3.4509969 1.6012018 100
5.9755096 -3.4319081 1.8464152 100
1.8533465 -1.0708928 -0.57354301 11
2.0241692 -1.171011 -0.53988254 9
2.2371671 -1.2963187 -0.50259089 10
2.5134304 -1.4581569 -0.46023026 7
2.8631821 -1.6630684 -0.40655616 8
3.3306324 -1.9376961 -0.33711842 3
3.8796659 -2.2598326 -0.23530249 5
4.4308014 -2.5839672 -0.089530841 3
4.70683 -2.7218726 0.094906189 3
4.665102 -2.7010026 0.28250951 5
4.6609359 -2.7018495 0.47133827 5
nan nan nan nan
nan nan nan nan
5.9947639 -3.4890358 1.3482565 85
5.9396081 -3.4624877 1.5872548 100
5.9230413 -3.4569867 1.8376153 100
1.8374957 -1.0789145 -0.57095486 10
2.0142648 -1.184126 -0.53943264 9
2.2365215 -1.3168859 -0.50449902 9
2.4963825 -1.4716557 -0.4589788 7
2.8617592 -1.6890705 -0.40801859 8
3.3273139 -1.9669843 -0.33816427 3
3.8758261 -2.2939835 -0.23603518 6
4.4264169 -2.6229918 -0.089810088 4
4.6911616 -2.7566922 0.094976 4
4.6220322 -2.719326 0.28104413 5
4.6127748 -2.7171323 0.46837494 1
4.5820222 -2.7033274 0.6532197 7
4.5700932 -2.6995168 0.84067887 9
nan nan nan nan
nan nan nan nan
5.8422675 -3.4647489 1.8200157 33
1.8448499 -1.1006242 -0.57561362 12
2.010968 -1.2011572 -0.54078233 9
2.230643 -1.3344835 -0.50526226 9
2.4826581 -1.4870175 -0.45835301 7
2.8567076 -1.7130919 -0.40899354 8
3.310432 -1.9875358 -0.33781564 3
3.8665633 -2.3251028 -0.23645388 8
4.4354081 -2.6703327 -0.090368561 4
5.3070707 -3.168673 0.10789078 3
6.1715331 -3.6891985 0.37681893 5
4.6261764 -2.7687097 0.47168687 4
4.5340934 -2.7178996 0.64907616 3
4.5172601 -2.7110255 0.83442152 3
nan nan nan nan
4.483603 -2.6972165 1.2079873 10
4.4164028 -2.6609917 1.3815762 6
1.848686 -1.1204863 -0.57923704 12
1.9975353 -1.2121342 -0.53943264 9
2.2248638 -1.3516747 -0.50602549 9
2.4859805 -1.5120941 -0.46085599 7
2.8616312 -1.7433213 -0.41143093 8
3.3338971 -2.0334225 -0.34165049 3
3.8659885 -2.3607359 -0.23739593 8
4.4473643 -2.7200127 -0.090996847 4
5.3161583 -3.2233853 0.10851907 3
6.1684737 -3.7445948 0.37817967 22
nan nan nan nan
6.0432591 -3.6786945 0.86868477 40
4.5695481 -2.7848871 0.84756202 6
4.5094094 -2.7525551 1.0269341 4
4.4181042 -2.6999986 1.19539 4
4.3981881 -2.6909912 1.3815762 1
1.8459519 -1.1360813 -0.58078998 12
1.999193 -1.2318366 -0.54213208 9
2.2237265 -1.3723295 -0.50793356 10
2.4720027 -1.5273362 -0.46023026 7
2.8426387 -1.7590784 -0.410456 8
3.3196201 -2.0566475 -0.34165049 3
3.8562024 -2.3918788 -0.23781461 8
4.4316645 -2.7531054 -0.091066658 4
5.3207679 -3.2771997 0.10907754 3
6.1693821 -3.8043406 0.37985441 27
6.1099687 -3.77212 0.62821859 33
6.0376911 -3.7333224 0.87160963 57
nan nan nan nan
nan nan nan nan
4.4587517 -2.7677765 1.2115865 5
4.4071884 -2.738966 1.390376 4
1.8328614 -1.1461887 -0.57923704 12
1.9969341 -1.2502474 -0.54393172 7
2.2190824 -1.3909485 -0.50907844 9
2.4911246 -1.5638915 -0.46586189 7
2.8504572 -1.7915564 -0.41338086 8
3.3169854 -2.0872004 -0.34287068 4
3.8626437 -2.43432 -0.23928 8
4.4292483 -2.7946475 -0.091415711 6
5.3181024 -3.326992 0.1094964 3
6.1656957 -3.8632362 0.38131982 37
6.1098247 -3.8326855 0.63100755 71
6.0383773 -3.7922747 0.87550944 76
5.9794345 -3.76108 1.1188195 19
5.9573946 -3.7515719 1.3684822 91
nan nan nan nan
nan nan nan nan
1.8231839 -1.1579206 -0.57871938 12
1.9947349 -1.2683403 -0.54573131 9
2.2074163 -1.4057375 -0.50869679 9
2.4668207 -1.5727489 -0.46335894 6
2.8412268 -1.8135488 -0.41386834 8
3.305691 -2.112452 -0.34321931 4
3.8640594 -2.4730699 -0.24043141 8
4.4332018 -2.8406045 -0.091904372 6
5.2874088 -3.3606713 0.10935678 4
6.1554255 -3.9169085 0.38236654 32
nan nan nan nan
6.0378613 -3.8524706 0.87940925 37
nan nan nan nan
5.9409828 -3.7994165 1.3707719 78
5.8835979 -3.76706 1.6128992 100
5.8104854 -3.72597 1.849521 97
1.8231732 -1.1758558 -0.58130759 12
1.9825574 -1.2801211 -0.54483151 9
2.2060401 -1.4260595 -0.51060492 7
2.4626918 -1.5937964 -0.4646104 6
2.8551495 -1.8506153 -0.41776815 5
3.3075762 -2.1463239 -0.34496242 4
3.8454616 -2.4982259 -0.24032672 8
4.4333768 -2.884572 -0.092323236 4
5.2576895 -3.392247 0.10921716 3
6.1487541 -3.9717205 0.38362259 32
6.094192 -3.9425092 0.63501674 2
6.0431552 -3.9139829 0.8840403 8
nan nan nan nan
6.018044 -3.9081638 1.3948139 12
5.8816624 -3.8239763 1.6196477 100
5.822228 -3.7896731 1.8614267 100
1.813511 -1.1871804 -0.58078998 12
1.9672784 -1.2893132 -0.54303187 9
2.1960309 -1.4414253 -0.51060492 7
2.4647119 -1.6196288 -0.46711335 6
2.8458035 -1.8721888 -0.41825563 6
3.3291137 -2.1934791 -0.34879729 5
3.8479335 -2.5382085 -0.2415828 8
4.4269881 -2.9234972 -0.092602469 6
5.8678327 -3.8441916 0.12244608 11
6.1425877 -4.0287895 0.38498333 30
6.0988588 -4.0046778 0.63832867 1
6.0239768 -3.9615297 0.88525897 8
6.1293707 -4.0354385 1.1623082 10
nan nan nan nan
nan nan nan nan
nan nan nan nan
1.8148321 -1.2062283 -0.5838958 12
1.972831 -1.312732 -0.54708099 9
2.1875482 -1.4578103 -0.51098651 9
2.4599178 -1.6411816 -0.46836486 6
2.8359652 -1.8942153 -0.4187431 8
3.3037832 -2.2100201 -0.34775141 4
3.8367579 -2.5694551 -0.24200147 8
4.4164367 -2.961014 -0.092811897 6
5.8991275 -3.9238248 0.12366775 13
6.1259489 -4.0793238 0.38571605 30
6.1055651 -4.0703664 0.64198917 2
6.0258899 -4.0233288 0.88964629 8
6.1371789 -4.1022811 1.1691914 12
nan nan nan nan
nan nan nan nan
nan nan nan nan
1.7935557 -1.210224 -0.57975465 12
1.9733071 -1.3330178 -0.54978037 9
2.1935782 -1.4840477 -0.51480269 9
2.4549422 -1.662746 -0.46961632 7
2.8423882 -1.9273368 -0.42166796 6
3.308053 -2.2464628 -0.34984317 5
3.8335915 -2.6062844 -0.24294353 6
4.4188013 -3.0075259 -0.093300566 6
5.8616471 -3.9581983 0.12345833 9
6.1155214 -4.134295 0.3868674 30
6.083601 -4.1173592 0.64268643 2
6.0173736 -4.0786653 0.89257115 8
6.1574278 -4.1783018 1.1785774 17
24.664738 -16.755844 5.7960143 10
7.8062229 -5.3110805 2.179776 6
nan nan nan nan
1.7882509 -1.2248995 -0.58078998 12
1.9687746 -1.3500679 -0.55113012 9
2.1831644 -1.4993255 -0.51480269 9
2.4367638 -1.6753672 -0.46836486 7
2.8255932 -1.944882 -0.42118049 5
3.2955699 -2.2717636 -0.35019177 5
3.8235226 -2.6386564 -0.2434669 8
4.4240203 -3.056488 -0.093859039 4
5.9229379 -4.0600767 0.12534317 14
6.1227388 -4.2017508 0.3891702 31
6.072772 -4.1721396 0.64460385 5
6.0198255 -4.1419535 0.89720219 8
6.1557627 -4.2402363 1.1838962 21
24.488976 -16.887505 5.7822762 10
7.7673512 -5.3643413 2.1793261 14
7.8450303 -5.4240575 2.5555794 2
1.7939314 -1.247279 -0.58544868 12
1.9513042 -1.3582129 -0.54888058 9
2.1758649 -1.5167755 -0.51556593 9
2.4250081 -1.6923382 -0.46836486 6
2.8379831 -1.9827515 -0.4250803 6
3.2800303 -2.2941432 -0.35019177 5
3.8082795 -2.6675766 -0.24367623 8
4.4451432 -3.1171501 -0.094766572 6
5.892808 -4.1001854 0.12530828 14
6.1063666 -4.2535262 0.39000759 31
6.0680108 -4.2315288 0.64721853 1
5.9842525 -4.1793323 0.89622724 6
6.1794353 -4.3204608 1.1942208 73
24.450905 -17.114346 5.8013568 10
7.7226772 -5.4114957 2.1770763 4
7.4970341 -5.2611876 2.4541223 2
1.7867585 -1.2608863 -0.58596635 12
1.9465495 -1.3751758 -0.55023032 9
2.1735046 -1.5372193 -0.517474 6
2.4263299 -1.7179372 -0.47086781 8
2.8111174 -1.9933299 -0.42313039 6
3.2931783 -2.3377457 -0.35332939 5
3.7998023 -2.7003784 -0.24430427 10
4.42979 -3.1527445 -0.094906189 6
5.9562459 -4.2047834 0.12726295 8
6.0952148 -4.3076715 0.39115897 34
6.0627155 -4.2910533 0.6498332 1
5.9945393 -4.2475128 0.90207696 10
6.178885 -4.3829947 1.1998525 100
nan nan nan nan
7.7752314 -5.529655 2.2027209 2
7.2234154 -5.1429071 2.3759589 5
1.781276 -1.2752682 -0.58700162 12
1.9482315 -1.3963403 -0.5533796 9
2.16591 -1.5546449 -0.51823723 6
2.4271107 -1.744056 -0.47337076 8
2.8168216 -2.0263288 -0.42605525 8
3.2771895 -2.3601074 -0.35332939 5
3.7938166 -2.7361867 -0.24514163 8
4.4309254 -3.1992118 -0.09539485 8
6.021028 -4.3138123 0.12928744 8
6.0860915 -4.3652515 0.39251971 34
6.043077 -4.3391933 0.65087909 2
5.9953623 -4.3112788 0.906708 10
6.1513419 -4.4283323 1.2004782 100
nan nan nan nan
7.6267872 -5.502636 2.1712277 2
7.1481886 -5.1649246 2.3630178 2
1.7723296 -1.2876728 -0.58700162 12
1.9415878 -1.4121999 -0.55427945 9
2.1552777 -1.5693518 -0.51823723 7
2.4343386 -1.7744995 -0.4771252 8
2.8026066 -2.0459445 -0.42605525 8
3.2670674 -2.3876309 -0.35402662 5
3.7944474 -2.7760987 -0.2463977 8
4.4068699 -3.2288859 -0.095359951 8
6.0206423 -4.3758578 0.12991571 13
6.0788474 -4.4230285 0.39398512 31
6.0206885 -4.3871431 0.65175062 1
5.9819145 -4.3636866 0.90914541 10
6.1338196 -4.4794207 1.2029812 100
nan nan nan nan
nan nan nan nan
7.2920523 -5.3447967 2.4225464 2
1.757077 -1.2954288 -0.58493102 12
1.9348174 -1.4280347 -0.55517924 9
2.1550441 -1.592903 -0.52090853 9
2.4231663 -1.7930489 -0.47743803 10
2.8058014 -2.0784581 -0.42873639 9
3.2594993 -2.4180708 -0.3550725 5
3.7969327 -2.8198509 -0.2478631 8
4.3858252 -3.2607658 -0.09539485 6
6.0422759 -4.4580064 0.13106757 13
6.0743527 -4.4865866 0.39576453 31
6.0235562 -4.4539442 0.65541118 1
5.9824424 -4.430007 0.91402018 10
6.1174779 -4.5349617 1.2061099 98
nan nan nan nan
7.3042397 -5.4285636 2.101043 2
7.4349594 -5.5317616 2.4831102 2
1.7526312 -1.3111355 -0.58648396 12
1.9201212 -1.4380028 -0.55382955 9
2.1501534 -1.6126211 -0.52243507 9
2.4058506 -1.8063635 -0.47649944 10
2.8023303 -2.1063445 -0.43044254 9
3.2520897 -2.4479563 -0.35611835 5
3.7931054 -2.8583095 -0.24890982 8
4.4092498 -3.3262293 -0.096407093 8
5.9998007 -4.4916921 0.13082324 14
6.0652575 -4.5456524 0.39722994 31
6.0066586 -4.5066495 0.65697998 2
5.9481955 -4.4692783 0.91353267 7
6.1125054 -4.5977454 1.2114286 91
nan nan nan nan
nan nan nan nan
7.7631149 -5.8605552 2.606308 2
1.7526678 -1.3303473 -0.58958983 12
1.9115871 -1.4525517 -0.55427945 9
2.1388428 -1.6275924 -0.52243507 9
2.4026093 -1.8302977 -0.47837666 7
2.7844002 -2.1234496 -0.42995507 6
3.2412543 -2.4754381 -0.35681561 5
3.7762315 -2.8871467 -0.24911918 8
4.4827862 -3.4310699 -0.09853629 17
6.0351782 -4.58427 0.13228925 11
6.0476837 -4.5987659 0.39817199 31
6.0035858 -4.5701957 0.66011757 1
5.9373717 -4.526341 0.91670126 11
6.1069536 -4.6606793 1.2167474 87
nan nan nan nan
nan nan nan nan
7.3048544 -5.5950909 2.4655101 2
1.7540516 -1.3508016 -0.59321326 12
1.9137465 -1.4753801 -0.55787861 9
2.122766 -1.6388854 -0.52129018 7
2.4054024 -1.8591063 -0.48150533 10
2.7804983 -2.1513398 -0.43166125 9
3.2364929 -2.5077682 -0.35821009 5
3.7749214 -2.928129 -0.25037524 10
4.558228 -3.5395479 -0.10073529 13
5.9903555 -4.6165261 0.13201 14
6.03757 -4.6579533 0.3996374 34
6.0030704 -4.636354 0.66360378 1
5.9401727 -4.5943995 0.92206353 10
6.0930104 -4.7177129 1.2205019 84
nan nan nan nan
nan nan nan nan
7.2274799 -5.6163168 2.4525695 2
1.7354448 -1.3558781 -0.5901075 12
1.901865 -1.487504 -0.55742878 9
2.122092 -1.6621392 -0.52396154 9
2.4016919 -1.883167 -0.48338255 7
2.7700958 -2.1743755 -0.43239245 9
3.2193482 -2.5297399 -0.35821009 5
3.7732217 -2.9692328 -0.25163129 8
4.6198015 -3.6393437 -0.10265506 9
6.065104 -4.7419891 0.13438353 27
6.033215 -4.7221489 0.4015215 34
5.9909449 -4.6941247 0.66586983 1
5.9360638 -4.657815 0.92645079 8
6.0785675 -4.7747769 1.2242563 94
nan nan nan nan
nan nan nan nan
8.8129263 -6.9475508 3.0069599 1
1.7229087 -1.3655605 -0.58907217 10
1.9066997 -1.5128578 -0.5619278 9
2.1153409 -1.6802082 -0.52510637 7
2.385726 -1.8970122 -0.48275682 8
2.7734835 -2.2085004 -0.43531734 8
3.2016089 -2.5521533 -0.35821009 7
3.7622907 -3.002322 -0.25225934 10
4.5614767 -3.6452909 -0.10192205 9
6.0749936 -4.8167071 0.13532595 43
6.0337844 -4.7891808 0.4037196 31
5.9642663 -4.7407932 0.66656709 1
3.9625545 -3.1530874 0.62177742 3
6.0660114 -4.8320422 1.2283236 77
nan nan nan nan
7.2803545 -5.8139114 2.1509821 6
7.2097149 -5.7636852 2.4732749 2
1.7195969 -1.3820972 -0.59114271 11
1.8963579 -1.5258011 -0.5619278 9
2.1112032 -1.7010942 -0.52701449 9
2.3785744 -1.9185822 -0.48400828 8
2.7676532 -2.2348101 -0.43677977 8
3.1992066 -2.5869703 -0.35995319 8
3.7458959 -3.032284 -0.25257334 8
4.8224235 -3.9079096 -0.10834454 9
6.0614758 -4.8752933 0.13577972 39
6.026649 -4.8524814 0.40549901 33
5.9675369 -4.8100386 0.67057627 1
5.9129844 -4.772881 0.93303174 7
6.0643964 -4.9003448 1.2348938 94
nan nan nan nan
5.9630833 -4.8305326 1.7717147 14
7.0597663 -5.7250519 2.4354875 7
1.7233819 -1.4050552 -0.59580147 12
1.8871694 -1.5402348 -0.56237763 8
2.1083968 -1.723246 -0.52930421 9
2.377353 -1.9451481 -0.48651123 8
2.7427697 -2.2465303 -0.43531734 8
3.2118771 -2.6345127 -0.36343944 9
3.7323537 -3.0646989 -0.25309673 6
4.8923454 -4.0214791 -0.11054354 9
6.0582805 -4.9427738 0.13647781 39
6.0158296 -4.9133878 0.40706912 30
5.9708304 -4.8818502 0.67475975 11
5.9025593 -4.8329091 0.93668783 8
nan nan nan nan
6.0056376 -4.9278221 1.5100625 88
nan nan nan nan
nan nan nan nan
1.7194858 -1.421977 -0.59787202 12
1.8868785 -1.5620712 -0.56552702 10
2.0978262 -1.7391763 -0.5296858 7
2.3728361 -1.9692668 -0.48838848 7
2.7361805 -2.2732348 -0.43677977 8
3.2025967 -2.6645172 -0.36448529 7
3.7323525 -3.1085753 -0.25456211 6
4.9609127 -4.1362109 -0.11274255 15
6.0421128 -5.000247 0.13689667 34
6.0075274 -4.9769268 0.40884852 35
5.9810781 -4.9602985 0.67981476 1
5.8747835 -4.8790717 0.93766278 7
3.7989509 -3.1584322 0.78248531 33
5.8820581 -4.8955302 1.487547 28
5.9205055 -4.9345293 1.7793629 100
5.862184 -4.8911252 2.0457058 81
1.7035962 -1.4289804 -0.59580147 12
1.8878663 -1.5852312 -0.56912625 10
2.0886388 -1.7563065 -0.53044903 7
2.3741424 -1.9985055 -0.49151716 7
2.7323878 -2.3025146 -0.43872967 8
3.183917 -2.6868105 -0.36448529 5
3.7242916 -3.1461563 -0.25550416 4
4.9578733 -4.1926947 -0.11333593 17
6.0269694 -5.05902 0.13735044 19
6.0016885 -5.0431585 0.41083729 30
5.9554515 -5.0096283 0.68086064 1
5.8967528 -4.9672866 0.94668114 10
3.708853 -3.1275721 0.76840615 28
5.8687401 -4.954205 1.4928896 10
5.7966189 -4.9002566 1.7523688 85
5.7541618 -4.8695335 2.019824 54
1.69505 -1.4420905 -0.59631914 12
1.8812041 -1.6021626 -0.57047588 9
2.0823016 -1.7759409 -0.53197551 7
2.3661418 -2.0201616 -0.49276862 7
2.734355 -2.3370111 -0.44165453 8
3.165082 -2.7089729 -0.36448529 5
3.7280202 -3.1941712 -0.2572836 8
4.9785714 -4.2701669 -0.11448779 15
6.04175 -5.1437511 0.1385023 39
5.9860954 -5.1017771 0.41219804 30
5.9354901 -5.0640144 0.68260378 1
5.8921161 -5.034121 0.95155597 10
6.0287886 -5.1563554 1.2564818 92
nan nan nan nan
nan nan nan nan
5.7126961 -4.9032946 2.0172358 54
1.6907915 -1.4589373 -0.59838963 12
1.8729227 -1.6178046 -0.57137573 9
2.083216 -1.8019944 -0.53541011 10
2.3460076 -2.0314589 -0.49151716 7
2.7209733 -2.3586438 -0.44214204 8
3.1551204 -2.7388394 -0.36553118 7
3.7312589 -3.2423902 -0.25906301 6
4.9637265 -4.317944 -0.11483683 10
6.0283961 -5.2054086 0.13902587 50
5.9835753 -5.1721773 0.41450083 30
5.8969789 -5.1027212 0.68225515 1
5.8718305 -5.0881329 0.95399332 10
6.01055 -5.2138515 1.2602363 91
3.8511741 -3.3442357 0.99144357 11
9.1480417 -7.9550743 2.7988412 4
nan nan nan nan
1.6907417 -1.4796113 -0.60201317 12
1.8615828 -1.6308404 -0.57137573 10
2.0764885 -1.8216727 -0.53693652 9
2.3525476 -2.0660362 -0.49589729 8
2.6954951 -2.3697181 -0.44067958 8
3.150877 -2.7739649 -0.36727428 9
3.711529 -3.2710021 -0.25927237 19
4.9904423 -4.4027638 -0.11616322 10
6.021997 -5.2737164 0.13972397 47
5.9578338 -5.2230406 0.41523352 24
5.9211116 -5.1963334 0.68922758 1
5.860023 -5.1499681 0.95789313 7
6.0021834 -5.2804761 1.2661808 89
3.7128131 -3.2698317 0.96167743 15
9.333437 -8.2314262 2.873075 2
7.3612571 -6.49896 2.6311545 2
1.6875952 -1.4977905 -0.60460132 12
1.8574361 -1.6502687 -0.57362527 10
2.0578532 -1.830905 -0.53541011 10
2.3424923 -2.0863512 -0.49683592 8
2.6877763 -2.3964047 -0.44214204 8
3.1492693 -2.8118181 -0.36936605 7
3.7005155 -3.3074808 -0.26010972 12
4.99088 -4.465497 -0.11689622 5
6.0134401 -5.3408589 0.14038716 42
5.942122 -5.2830853 0.41669893 19
5.8921318 -5.2441654 0.69009912 1
5.8506017 -5.2145276 0.96228039 11
5.9887567 -5.3432918 1.2711866 84
3.7850707 -3.3806794 0.9864825 6
8.8748503 -7.9378195 2.7489021 2
7.3185849 -6.5527697 2.6321898 14
1.6756618 -1.5082431 -0.60408366 11
1.8473175 -1.6645001 -0.5740751 10
2.0552244 -1.8544329 -0.53808141 9
2.3410633 -2.1145709 -0.49965176 10
2.6680357 -2.4124472 -0.44165453 8
3.1325164 -2.8364098 -0.36971465 7
3.6980522 -3.3520131 -0.26157513 2
3.3690808 -3.0570395 -0.079408452 11
6.0027523 -5.4067993 0.14101544 43
5.9184442 -5.3364778 0.41764098 5
5.8849573 -5.3118725 0.6935854 1
3.5785594 -3.2346115 0.59228504 18
3.5593593 -3.2206445 0.76027155 16
3.5212893 -3.1895521 0.92351556 41
3.4252055 -3.1068759 1.0676178 26
8.4025335 -7.6296473 3.0411241 1
1.6622378 -1.5172997 -0.60304838 11
1.8514768 -1.6918162 -0.57902408 7
2.0625055 -1.8872908 -0.54342401 11
2.3189604 -2.1241913 -0.49808741 8
2.6642966 -2.4430895 -0.44384819 6
3.1126382 -2.8582096 -0.36971465 5
3.6275077 -3.334496 -0.25822562 4
3.3726721 -3.1035044 -0.080001831 28
5.9899592 -5.4715018 0.14160882 45
5.9075766 -5.4019265 0.41952509 2
5.872715 -5.3756971 0.6965487 1
5.829905 -5.3439956 0.97105503 8
3.5702641 -3.2761326 0.76746756 37
3.6059287 -3.3123386 0.95175534 13
3.3976951 -3.1254356 1.0658182 22
3.3012555 -3.0399163 1.2024734 13
1.6657814 -1.5419906 -0.60822481 11
1.8353325 -1.7007269 -0.57767433 11
2.0550358 -1.9069853 -0.54495054 11
2.2982852 -2.1349511 -0.49683592 8
2.647176 -2.4616301 -0.44384819 6
3.0984406 -2.8853009 -0.37041187 5
3.656734 -3.4087665 -0.26199383 2
3.3728538 -3.1474388 -0.080525406 22
5.9780221 -5.5376472 0.14223711 48
5.9136543 -5.483778 0.42266521 2
5.8730078 -5.4518075 0.7010808 1
5.8229876 -5.4129481 0.97617352 2
5.9680924 -5.5536628 1.2912103 38
3.5123265 -3.2718604 0.93305606 9
3.496917 -3.262069 1.1040599 24
3.5143354 -3.2817607 1.2884012 55
1.654976 -1.5535822 -0.60822481 11
1.8262547 -1.7161672 -0.57857412 11
2.0445323 -1.9239764 -0.54571378 11
2.2919517 -2.1590712 -0.49871314 8
2.6241493 -2.4746032 -0.44287321 5
3.1028483 -2.9301171 -0.37337521 3
3.6096253 -3.4122598 -0.26031908 2
3.3246543 -3.1461682 -0.079897113 35
5.9712806 -5.6093674 0.14300501 47
5.8926873 -5.541348 0.42392129 2
3.4541693 -3.2516313 0.41503564 1
3.2803655 -3.0923409 0.55353063 12
5.9492888 -5.6141734 1.2955904 43
3.5593295 -3.3623624 0.95175534 44
3.3692985 -3.1873014 1.070767 13
3.3889413 -3.2092471 1.2506137 21
1.652485 -1.5730904 -0.61133063 11
1.8226938 -1.7369413 -0.58127356 12
2.0310504 -1.9382031 -0.54571378 10
2.2911067 -2.1886642 -0.50184184 8
2.6068096 -2.4928627 -0.44287321 8
3.0871494 -2.9553027 -0.37389815 5
3.2555468 -3.1208668 -0.23634921 6
3.2376826 -3.1069963 -0.078326404 30
5.9681721 -5.6854 0.14387764 42
5.8769841 -5.6044049 0.42559603 2
3.3996792 -3.2454002 0.41120079 15
nan nan nan nan
3.2967844 -3.1548817 0.72272736 15
3.4974911 -3.3504598 0.94145161 9
3.3376796 -3.2007194 1.0676178 4
3.288424 -3.1578948 1.2216259 27
1.6414627 -1.5845883 -0.61133063 11
1.8217341 -1.7604573 -0.58487278 12
2.0234547 -1.9574429 -0.5472402 10
2.2789941 -2.2069566 -0.50246757 8
2.6035933 -2.5248203 -0.44531062 8
3.0664425 -2.9767826 -0.37389815 5
3.6152315 -3.5132046 -0.26419193 2
3.2245114 -3.1378911 -0.078535825 32
5.956665 -5.752285 0.14454083 45
nan nan nan nan
3.3067954 -3.2011518 0.40265954 15
nan nan nan nan
3.2213557 -3.1249826 0.71083826 25
nan nan nan nan
3.3417978 -3.2497566 1.0761659 1
3.291769 -3.2044609 1.2309434 33
1.6320194 -1.5970757 -0.61184824 11
1.8208456 -1.7837263 -0.58847201 11
2.0097399 -1.9715215 -0.5472402 10
2.2607124 -2.2200451 -0.50184184 8
2.5920098 -2.5480502 -0.44628558 8
3.0517898 -3.003176 -0.37459537 5
3.1994047 -3.1528394 -0.23540714 28
3.2073486 -3.1639798 -0.078640543 34
5.9363642 -5.8133168 0.1450295 19
nan nan nan nan
3.5608068 -3.4943116 0.43647596 46
3.4632132 -3.40329 0.59618485 16
3.195236 -3.14324 0.70989966 13
3.1222341 -3.0746441 0.85177141 7
3.3279266 -3.2806358 1.0788653 1
nan nan nan nan
1.6304288 -1.6179557 -0.61547172 11
1.8111135 -1.7991414 -0.5893718 11
2.0074105 -1.9962305 -0.55029315 10
2.2511487 -2.2409561 -0.5030933 8
2.5741577 -2.5660837 -0.44628558 8
3.039211 -3.0328522 -0.37564126 6
3.1128716 -3.1096132 -0.23059224 35
3.2162848 -3.2174072 -0.079408452 21
5.9363937 -5.8930359 0.14600682 16
3.3547583 -3.3337452 0.2478631 1
3.5546844 -3.5373552 0.43874201 20
3.1572883 -3.1451888 0.54719341 12
3.531847 -3.5219977 0.78999412 16
3.0298433 -3.0256159 0.83230883 5
3.2663529 -3.2652128 1.0662681 30
nan nan nan nan
1.624826 -1.6344966 -0.61754227 10
1.7988253 -1.8114274 -0.5893718 10
1.9975729 -2.0143781 -0.55143803 10
2.2437901 -2.2650378 -0.50497049 8
2.5650096 -2.5920117 -0.44774801 8
3.0409081 -3.0761397 -0.37843022 6
3.0966992 -3.1369548 -0.23101093 35
3.3557806 -3.402966 -0.083422504 10
3.4048724 -3.4275296 0.08433003 33
3.4383223 -3.4648285 0.25581816 3
3.4786253 -3.5091152 0.43229246 5
3.2050819 -3.2376916 0.55938035 5
3.1488166 -3.1841869 0.70927399 16
3.2975416 -3.3380768 0.91206706 44
5.7818036 -5.8590093 1.9003866 42
3.2543409 -3.3024051 1.2423315 27
1.6201372 -1.6526979 -0.62013048 10
1.7929527 -1.8309029 -0.59162134 10
1.9838153 -2.0279284 -0.55143803 10
2.2338431 -2.2859092 -0.50622195 7
2.5496242 -2.6126971 -0.44823548 8
3.0179679 -3.0958676 -0.3782559 4
3.3010089 -3.3897636 -0.24796779 22
3.3221829 -3.4162757 -0.08317817 22
3.2820907 -3.349221 0.08185178 13
3.3238432 -3.3953826 0.24901451 13
3.4582212 -3.5375891 0.4328154 3
3.1441355 -3.2196665 0.55255568 25
3.3201835 -3.4035065 0.7530756 63
5.7948465 -5.9485765 1.6142441 10
3.6341834 -3.7345035 1.2030382 17
3.1065552 -3.1956563 1.1941911 50
1.6085601 -1.6639681 -0.62013048 9
1.7923105 -1.8559918 -0.59567046 11
1.9747044 -2.047725 -0.55296451 10
2.2311332 -2.3160617 -0.50935066 8
2.536828 -2.6361544 -0.44921044 8
2.9722681 -3.0929623 -0.37529263 5
3.0705793 -3.1986163 -0.23237166 46
3.2373528 -3.3758805 -0.081642359 29
3.137167 -3.2474964 0.078815073 33
3.3563249 -3.4780052 0.25330606 42
3.1292281 -3.2460749 0.39446688 30
3.187098 -3.3107281 0.56425512 51
nan nan nan nan
3.1118844 -3.2393789 0.873142 16
3.0717931 -3.2021172 1.0244272 34
3.607568 -3.7645662 1.3971052 17
1.59957 -1.6779538 -0.62116575 11
1.7914045 -1.88116 -0.59971952 12
1.9590075 -2.0600386 -0.55258286 10
2.2149098 -2.3315816 -0.50935066 7
2.5265615 -2.6624401 -0.45067286 8
2.9766419 -3.1411147 -0.37860456 4
3.0879927 -3.2620375 -0.23540714 30
3.0405862 -3.2153296 -0.077244349 42
3.2785532 -3.4416168 0.082968742 16
3.2823961 -3.4492652 0.24953786 30
3.114727 -3.2765062 0.39551273 37
nan nan nan nan
3.0963929 -3.2651992 0.71271551 60
3.0959444 -3.2681518 0.87505013 8
nan nan nan nan
3.0146284 -3.19011 1.1760738 4
1.597079 -1.6989329 -0.62478918 11
1.7795621 -1.8950411 -0.60016948 12
1.9580075 -2.0879853 -0.55639905 10
2.1850739 -2.3325713 -0.50622195 7
2.5160508 -2.6887105 -0.45213532 8
2.9511104 -3.1569369 -0.37808162 4
3.2027967 -3.4309752 -0.24597903 44
3.0030634 -3.2203913 -0.076860398 17
2.8916242 -3.0781898 0.073718965 11
3.1051643 -3.3089778 0.23781461 37
3.1176667 -3.325789 0.39882466 41
3.0841596 -3.2934992 0.55401808 25
2.7159789 -2.9043899 0.62980521 3
3.0114043 -3.223691 0.85749573 3
2.8957279 -3.1031153 0.97988689 16
nan nan nan nan
1.5986136 -1.7239299 -0.62996554 12
1.767946 -1.9085398 -0.60061932 11
1.9584147 -2.1171179 -0.56059688 10
2.1691461 -2.3473904 -0.50622195 7
2.4963448 -2.7043154 -0.45189157 9
2.9241509 -3.1710925 -0.37738436 6
3.156369 -3.4277194 -0.2441996 32
2.9797201 -3.2392862 -0.0768255 29
3.082638 -3.326616 0.079164118 30
3.1110613 -3.3608167 0.24001274 37
3.0422018 -3.2898829 0.39202651 21
2.8259499 -3.0592372 0.5113638 22
5.6842761 -6.1621485 1.327816 1
2.9534709 -3.2051325 0.84719193 12
nan nan nan nan
nan nan nan nan
1.5933619 -1.7418984 -0.63255376 12
1.7562288 -1.9219681 -0.60106927 11
1.9360186 -2.1216979 -0.55830717 9
2.1611021 -2.3708603 -0.5080992 7
2.4805522 -2.7241805 -0.45237905 9
2.8885379 -3.1766882 -0.37564126 12
2.9946461 -3.2968481 -0.23341838 22
2.9952271 -3.3009586 -0.077802829 17
3.2231731 -3.5261154 0.083387598 38
nan nan nan nan
3.5809875 -3.9258075 0.46488872 30
4.5663743 -5.0131035 0.83261144 3
3.0218472 -3.3209667 0.71115112 9
2.8642387 -3.1510704 0.82772946 26
2.8500478 -3.1398599 0.97898704 16
4.3601532 -4.808579 1.739264 4
1.5798683 -1.7515452 -0.63203615 12
1.7584218 -1.9515549 -0.60646808 11
1.9198461 -2.1337025 -0.55792552 7
2.1643054 -2.4079268 -0.51279223 7
2.4694312 -2.7502937 -0.45384148 9
2.8689499 -3.1997428 -0.37598985 6
2.9715571 -3.3176742 -0.23341838 41
2.8801055 -3.2189608 -0.075394399 9
3.0712888 -3.4074218 0.080071643 17
3.0898194 -3.4315925 0.24200147 12
nan nan nan nan
2.9500978 -3.2844763 0.54207492 10
2.9075627 -3.2405314 0.68956316 57
2.6809967 -2.9911685 0.78079039 22
3.0736938 -3.4341187 1.0640185 37
3.0298214 -3.3886709 1.2180026 15
1.5676018 -1.7625319 -0.63203615 11
1.7551092 -1.9754378 -0.61006731 10
1.9062065 -2.1485219 -0.55830717 9
2.1317196 -2.4052379 -0.50903779 7
2.4580655 -2.7763844 -0.45530388 9
2.7581236 -3.1196854 -0.36431101 28
2.9641886 -3.3563027 -0.23467445 39
2.7953849 -3.1685109 -0.073753871 40
2.8667586 -3.2255046 0.07532458 35
2.9968338 -3.3754151 0.23655853 36
nan nan nan nan
nan nan nan nan
2.8259678 -3.1941755 0.67548412 58
2.8121634 -3.1819279 0.82543975 18
2.7633777 -3.1311302 0.9641403 18
2.5487251 -2.8909612 1.032688 23
1.5641752 -1.7836001 -0.63565958 11
1.7374231 -1.983245 -0.60871756 10
1.9040871 -2.1765537 -0.5621233 10
2.1122766 -2.4170866 -0.50841206 7
2.454289 -2.8114219 -0.45822877 9
2.7362771 -3.1388643 -0.36431101 37
2.8528059 -3.2759995 -0.22766145 18
2.7613842 -3.1743708 -0.073439725 34
2.8718481 -3.2770216 0.076057591 25
2.8297987 -3.2324531 0.2251493 26
nan nan nan nan
2.7342064 -3.1309686 0.51038885 23
2.6945202 -3.0887861 0.64920312 12
2.5602927 -2.9380229 0.75751179 23
2.6314349 -3.0239201 0.92544872 40
2.6019905 -2.9932473 1.0627111 44
1.5580033 -1.8017827 -0.63824779 6
1.7209874 -1.9923767 -0.60781777 12
1.8875637 -2.188307 -0.56174171 9
2.1082449 -2.446739 -0.51154077 7
2.4307165 -2.8239741 -0.45749757 5
2.7512193 -3.1997168 -0.36919171 26
2.8168547 -3.2806826 -0.22661473 35
2.7313447 -3.184464 -0.073230296 18
2.8475928 -3.2954781 0.076022685 32
2.7693169 -3.2082844 0.22211383 52
2.7504802 -3.189837 0.36849448 62
2.6708329 -3.1018431 0.50258923 10
2.6999416 -3.1389716 0.6557734 60
2.6075306 -3.0347464 0.7777375 31
2.6425214 -3.0787303 0.93669623 37
2.6426327 -3.0832124 1.0880753 11
1.5504 -1.8184963 -0.64031839 10
1.7095633 -2.0073099 -0.60871756 12
1.8662636 -2.1936278 -0.55983365 9
2.0953796 -2.4655478 -0.51247936 6
2.4045203 -2.8333075 -0.45627886 11
2.64378 -3.118542 -0.35768715 15
2.7376661 -3.2327173 -0.22200914 35
2.644484 -3.1271093 -0.071485057 36
2.7355957 -3.2097707 0.073614255 26
2.911845 -3.4201968 0.23540714 15
2.7281442 -3.208961 0.36849448 10
3.3910995 -3.9929929 0.64322644 17
2.6273961 -3.0970232 0.64325857 37
2.5367885 -2.9944551 0.7628544 12
2.5001123 -2.9542971 0.89350563 30
3.3225038 -3.9302602 1.3789879 6
1.521823 -1.8097856 -0.63358909 9
1.7033811 -2.027853 -0.611417 12
1.849642 -2.2050991 -0.559452 10
2.0831907 -2.4861724 -0.51373082 6
2.4081132 -2.8770087 -0.46066615 9
2.5989449 -3.109406 -0.35454956 40
2.665108 -3.1919589 -0.21792693 29
2.5219522 -3.0237198 -0.068727575 37
2.5343039 -3.0159872 0.068762481 9
nan nan nan nan
3.3155897 -3.9541683 0.45146674 27
2.6367328 -3.1490266 0.50429535 7
3.4231644 -4.092607 0.8450591 13
2.4471133 -2.9287913 0.7418654 18
2.5118864 -3.0105834 0.9052031 22
2.5182388 -3.0214117 1.0539112 1
1.519015 -1.8322637 -0.63773018 11
1.6978831 -2.0502014 -0.61456633 11
1.8442119 -2.2300615 -0.56250495 10
2.0620091 -2.4960864 -0.51279223 8
2.3955507 -2.9029365 -0.46212861 9
2.621521 -3.1812899 -0.36065045 22
2.6592605 -3.2305331 -0.21928766 35
2.5604744 -3.1138468 -0.070368104 43
2.6841342 -3.239953 0.073439725 7
2.714824 -3.2804925 0.22316055 35
3.8337722 -4.6375294 0.52642071 8
4.3131552 -5.2248397 0.83188021 7
2.395385 -2.9048011 0.59632826 9
2.4016416 -2.9154973 0.73423308 9
3.3920543 -4.1236811 1.2327319 10
nan nan nan nan
1.507409 -1.8443192 -0.63824779 8
1.678599 -2.0559671 -0.61276674 12
1.8323202 -2.247447 -0.56364983 11
2.0457804 -2.5119531 -0.51310509 6
2.3865006 -2.9334486 -0.46432224 8
2.5891972 -3.1871428 -0.35925597 38
2.7159305 -3.3467228 -0.22588199 46
2.6822295 -3.3087335 -0.07434725 18
2.5159812 -3.0805039 0.069425672 12
2.643877 -3.2405584 0.21918301 8
2.7893004 -3.4224584 0.38627425 30
4.2740679 -5.2517443 0.83139277 2
2.3650787 -2.9091909 0.59382528 22
2.4121704 -2.9702928 0.74377352 24
2.6205821 -3.231534 0.96054101 13
4.1149969 -5.0797849 1.7516873 31
1.4920725 -1.8517895 -0.63721251 4
1.664205 -2.0676355 -0.61276674 12
1.8264247 -2.2724261 -0.56670272 11
2.0343776 -2.5338757 -0.51466948 7
2.3709311 -2.9562321 -0.46529719 8
2.6005113 -3.2471292 -0.36396238 28
2.6251252 -3.2813842 -0.22022973 35
2.6490784 -3.3148816 -0.074068017 33
2.4818728 -3.0824182 0.069076627 30
2.5072787 -3.1173115 0.20965785 56
2.4621003 -3.064425 0.34391654 16
2.3478446 -2.9263997 0.46066615 16
2.3533587 -2.9364212 0.59601539 23
3.9533153 -4.9380751 1.2295732 6
3.3657856 -4.2102151 1.2444292 26
3.9998701 -5.0087571 1.7175232 14
1.4839145 -1.8682117 -0.63928306 5
1.6582083 -2.0898893 -0.61591601 11
1.8032006 -2.2758889 -0.56441307 12
2.0215418 -2.5542121 -0.51592094 8
2.3287916 -2.9466462 -0.46115363 9
2.5716059 -3.2573864 -0.36309084 37
2.6169946 -3.31845 -0.22148579 29
2.6191037 -3.3258975 -0.073893487 31
2.6144502 -3.2938886 0.073404826 7
2.4122441 -3.0424035 0.20348223 27
2.4369361 -3.0768535 0.34339362 10
2.8322337 -3.5810869 0.56059903 31
2.325454 -2.9434788 0.59413815 24
3.2551706 -4.1262007 1.0215914 4
3.4050634 -4.3208532 1.2700738 36
nan nan nan nan
1.4788431 -1.8894315 -0.64290655 9
1.6480123 -2.1078424 -0.6177156 10
1.7824342 -2.2822328 -0.56288654 16
2.0141461 -2.5826316 -0.51873678 6
2.3362229 -2.9988496 -0.46675962 6
2.541461 -3.265826 -0.36204496 24
2.5931814 -3.3370917 -0.22148579 38
2.6399632 -3.4009683 -0.075150065 29
2.4275036 -3.1025956 0.068762481 29
2.4383671 -3.1209674 0.20756441 10
2.3731785 -3.0408101 0.33746704 36
2.3726642 -3.0434353 0.47382805 10
2.3249602 -2.9865427 0.59945697 13
nan nan nan nan
3.2540729 -4.1890836 1.2246336 38
2.486496 -3.2055707 1.0870401 12
1.4679762 -1.9027687 -0.64394182 19
1.6392045 -2.1270139 -0.61996514 10
1.7552817 -2.280926 -0.559452 6
2.0008826 -2.6028943 -0.51998824 6
2.3128119 -3.0119379 -0.46627215 4
2.5125363 -3.2755845 -0.36117339 33
2.5601051 -3.3424292 -0.22064841 38
2.5821326 -3.3748469 -0.074172728 30
2.4711704 -3.2054067 0.070647344 28
2.5871258 -3.3594513 0.2222185 42
2.3616104 -3.0699377 0.33886153 27
2.3048728 -3.0005145 0.46456599 36
2.2415218 -2.9212081 0.58318776 27
2.7433941 -3.5791395 0.8765766 11
2.2414494 -2.9274557 0.85121483 13
nan nan nan nan
1.4616727 -1.9221971 -0.64704764 22
1.6207792 -2.1337507 -0.61861545 10
1.725475 -2.2740531 -0.55487263 6
1.7158394 -2.2638149 -0.44990557 4
2.3013124 -3.0406735 -0.46822205 2
2.5100336 -3.3200636 -0.36413667 35
2.5240548 -3.3422456 -0.21949703 28
2.551285 -3.3832116 -0.073963299 33
2.6090317 -3.4322934 0.075254776 31
nan nan nan nan
2.5507801 -3.3641846 0.36936605 52
2.3754838 -3.136399 0.48309013 33
2.266876 -2.9962599 0.5950768 66
nan nan nan nan
2.1775241 -2.8854785 0.8345685 1
2.1338971 -2.8307488 0.94986594 3
1.4531904 -1.9382846 -0.64911819 27
1.6097223 -2.1494126 -0.61996514 10
1.7283692 -2.3111997 -0.56097847 11
1.7023575 -2.2789035 -0.4505313 5
1.7035952 -2.2830524 -0.34976503 3
2.4320347 -3.2640135 -0.35611835 10
2.5483599 -3.4238729 -0.22368389 20
2.7536948 -3.7038 -0.080560312 22
2.5921998 -3.4600267 0.075464211 30
2.4280727 -3.2444911 0.21237932 34
2.8499134 -3.812331 0.41643015 31
2.4877117 -3.3326631 0.51063257 7
2.518671 -3.377825 0.66734952 57
2.1930254 -2.9443133 0.71362567 40
2.1177852 -2.8474452 0.8192718 22
2.6117852 -3.5154898 1.1734856 19
1.4465116 -1.9577051 -0.65222406 27
1.6016207 -2.1700058 -0.62266457 9
1.7133567 -2.32479 -0.56136012 10
1.6922621 -2.2986865 -0.45209566 6
1.6876152 -2.2948899 -0.34976503 3
1.6804179 -2.2884488 -0.24839386 4
1.7282124 -2.3561215 -0.15313502 1
2.5162146 -3.4341972 -0.074312352 7
2.2544076 -3.0533385 0.066249333 4
2.4326293 -3.2983327 0.21478678 19
2.3729775 -3.2209818 0.35001746 16
nan nan nan nan
2.2528942 -3.0658221 0.60258561 13
2.1654465 -2.9500556 0.71133596 31
2.1381762 -2.9171717 0.83501834 37
2.1261201 -2.9039109 0.96435976 2
1.4282604 -1.9615088 -0.65015346 51
1.5761161 -2.1669505 -0.61861545 10
1.6774725 -2.30969 -0.55487263 6
1.6819732 -2.318439 -0.45366001 3
1.6832012 -2.3226898 -0.35220242 7
1.6620646 -2.2968962 -0.24804525 4
1.6543911 -2.2888138 -0.1480061 5
1.6540385 -2.2908516 -0.049320504 2
2.2848032 -3.1401494 0.067785151 4
2.5117025 -3.4557931 0.22389325 41
3.2845199 -4.5240736 0.48911804 4
2.7007616 -3.7254767 0.56498629 12
2.4283957 -3.3534644 0.6557734 15
2.1551545 -2.9794178 0.71477056 6
2.4281199 -3.3617218 0.95739174 30
2.0967529 -2.9061503 0.96021873 10
1.4190366 -1.9777108 -0.65222406 42
1.5450561 -2.155726 -0.61231679 7
1.6624494 -2.3229413 -0.55525422 9
1.651961 -2.3108413 -0.44990557 4
1.666945 -2.334384 -0.35220242 3
1.6483024 -2.3116879 -0.24839386 6
1.6476414 -2.3133223 -0.14884347 5
1.6101834 -2.2632377 -0.048482787 6
2.3840063 -3.3250382 0.071415246 7
2.3781998 -3.3206096 0.21405408 17
2.2651749 -3.166297 0.34060463 29
2.6527634 -3.7135503 0.56035525 13
2.4129567 -3.381592 0.65796345 48
2.7564738 -3.8672888 0.92313397 2
2.0802882 -2.9229259 0.82826984 23
2.2084975 -3.1065097 1.0213 7
1.4152323 -2.0017657 -0.65688276 31
1.5299687 -2.16646 -0.61231679 10
1.6869223 -2.392251 -0.56899244 15
1.6835648 -2.390146 -0.46304604 3
1.6414689 -2.3329766 -0.35025251 3
1.6344143 -2.3263993 -0.24874248 3
1.6303039 -2.3231337 -0.1487388 8
1.6161529 -2.3055351 -0.049145978 7
1.6038233 -2.2701979 0.048517693 5
nan nan nan nan
2.2407191 -3.1787767 0.34025604 16
2.1411798 -3.0420742 0.45676634 6
2.6358311 -3.7490172 0.72585601 10
2.3683457 -3.3723164 0.80101627 55
2.0810902 -2.9676929 0.83681798 11
2.022722 -2.8876731 0.94468951 17
1.4012228 -2.0115972 -0.65688276 46
1.5136939 -2.1754885 -0.61186689 10
1.6701802 -2.4039695 -0.56899244 20
1.8909599 -2.7247918 -0.525307 13
1.621749 -2.3394847 -0.34952128 1
1.6045263 -2.3180943 -0.24665076 3
1.6060948 -2.3229587 -0.1480061 5
1.6091088 -2.3299248 -0.049425215 7
1.5913622 -2.2862628 0.048622403 6
1.5768262 -2.2679107 0.14476126 6
nan nan nan nan
2.041837 -2.9443927 0.43994835 22
2.5769746 -3.7202356 0.71678281 10
2.3447447 -3.3887682 0.80101627 8
2.3150923 -3.3509099 0.94029552 13
3.1414766 -4.5521297 1.481998 3
1.3926108 -2.0292947 -0.65947098 29
1.5050803 -2.1956472 -0.61456633 10
1.6622279 -2.4285319 -0.57204539 22
1.8808103 -2.750972 -0.52780992 8
2.183044 -3.1966259 -0.47529048 17
1.6369891 -2.3997362 -0.25414613 1
1.5808436 -2.320909 -0.14716873 5
1.5669317 -2.3030753 -0.048622403 5
1.5900646 -2.3187563 0.049076166 7
1.5665982 -2.2871027 0.14528462 6
1.564959 -2.2872772 0.24246727 7
1.5430787 -2.2586799 0.33587193 6
nan nan nan nan
nan nan nan nan
nan nan nan nan
3.4962871 -5.1426983 1.6662771 8
1.3794919 -2.0405679 -0.65998858 27
1.492987 -2.2109461 -0.61591601 10
1.6423656 -2.434907 -0.57090056 7
1.868664 -2.77354 -0.52968717 8
2.180619 -3.241436 -0.47967777 16
2.3247259 -3.4595566 -0.36465961 43
2.3909249 -3.5620983 -0.22483528 39
1.5441358 -2.3039918 -0.048412975 6
1.569766 -2.3228984 0.04893655 5
1.5599338 -2.3109562 0.14612199 9
1.5578614 -2.3113642 0.24386176 7
1.5365375 -2.2823043 0.33782184 6
1.5311352 -2.2768521 0.43457499 6
nan nan nan nan
nan nan nan nan
2.2472537 -3.3543737 1.0818636 24
1.3623573 -2.0450873 -0.6584357 28
1.489778 -2.2389035 -0.62086499 11
1.6394507 -2.4675715 -0.57586157 10
1.8579941 -2.7996852 -0.53219014 8
2.1743844 -3.2814016 -0.48333386 11
2.28952 -3.4590876 -0.3629165 31
2.3726072 -3.5886996 -0.22546332 26
3.0439084 -4.611074 -0.096442007 4
1.5291334 -2.2971792 0.048168644 6
1.5360214 -2.310148 0.1453893 4
1.5376834 -2.3152759 0.24316452 7
1.5315378 -2.3095195 0.34025922 8
1.5217476 -2.2973671 0.43645221 6
1.5097315 -2.2826862 0.53197551 8
1.5167186 -2.2958624 0.63526183 1
2.2195251 -3.3635311 1.0797932 31
1.3582832 -2.0709376 -0.66361207 27
1.4683791 -2.2413566 -0.61861545 7
1.6243339 -2.4822426 -0.57662481 10
1.8292686 -2.7996795 -0.52968717 8
2.1818011 -3.3430488 -0.49015856 13
2.3414791 -3.5918214 -0.37511832 69
2.4307613 -3.7344766 -0.23352307 24
2.6061668 -4.0085478 -0.083457403 3
1.5273123 -2.3295383 0.048622403 2
1.5150756 -2.3143964 0.14497061 6
1.5199859 -2.3245523 0.24299021 6
1.5099496 -2.3118453 0.33904055 6
1.5149806 -2.3230889 0.43926802 7
1.4948304 -2.2948155 0.53235716 6
1.484712 -2.2818937 0.62851328 6
1.4607931 -2.2485647 0.71848166 6
1.3532261 -2.0949743 -0.66827077 7
1.4526961 -2.2515531 -0.61861545 7
1.6192886 -2.5136075 -0.58120424 10
1.8289195 -2.842283 -0.53531879 8
2.1594827 -3.3598688 -0.49040228 19
2.3109646 -3.5996974 -0.37424675 46
2.5619929 -3.9968491 -0.24880517 25
2.5608664 -3.9996989 -0.08289893 26
2.358624 -3.6542625 0.075917974 51
nan nan nan nan
1.4961697 -2.3233814 0.24177003 8
1.4826319 -2.3058937 0.33660313 6
1.5029955 -2.3402574 0.44051951 4
1.4883137 -2.3200676 0.5357917 8
1.4729506 -2.2987664 0.63031286 7
1.4440186 -2.257081 0.71796405 4
1.3406411 -2.1076307 -0.6693061 25
1.4432122 -2.2715087 -0.62131482 7
1.5947781 -2.5129676 -0.57853287 10
1.8201064 -2.87135 -0.5384475 8
2.1370354 -3.3765399 -0.490646 12
2.2942953 -3.6292157 -0.37564126 44
2.2820017 -3.6139584 -0.22399792 22
2.490222 -3.9498169 -0.081502736 22
2.2875581 -3.5976713 0.074417062 28
2.5441582 -4.0058599 0.2487005 21
2.0838282 -3.2861228 0.34043032 27
1.4658397 -2.3142552 0.33635944 6
1.4690769 -2.3220549 0.43520072 6
1.471032 -2.3287416 0.53541011 4
1.461026 -2.3155859 0.6321125 9
1.4461321 -2.294642 0.7267639 7
1.3190837 -2.1052477 -0.66568261 27
1.4390892 -2.2994506 -0.6262638 10
1.5803164 -2.5290351 -0.57967776 11
1.8000163 -2.8839869 -0.5384475 8
2.1024511 -3.372478 -0.4879649 18
2.280484 -3.6637509 -0.37755868 28
2.2503889 -3.6196239 -0.22336988 46
2.5223553 -4.0618081 -0.083457403 15
2.1976557 -3.5101635 0.072287865 35
2.4388249 -3.8999057 0.24105945 15
2.0434687 -3.2715039 0.33746704 50
2.2574584 -3.6197135 0.52379447 55
1.4496968 -2.3272243 0.4342621 3
1.4509981 -2.3320329 0.53388357 8
1.4365981 -2.3124866 0.62851328 6
1.4260029 -2.2981157 0.72469336 6
1.3073974 -2.119338 -0.66723549 11
1.4240234 -2.3111002 -0.62671363 12
1.5749668 -2.5600715 -0.58425713 11
1.7860435 -2.9065816 -0.54032475 9
2.1048152 -3.4293697 -0.49405837 10
2.2558916 -3.6812811 -0.37773296 20
2.3043077 -3.7647116 -0.23132494 22
2.5419173 -4.1577992 -0.085063025 5
2.1720476 -3.5237186 0.072252966 42
2.7141595 -4.4083543 0.27130961 17
2.0028369 -3.2568388 0.33450374 38
2.0451698 -3.3308859 0.47992152 24
2.1439259 -3.4958289 0.64951599 57
1.4582689 -2.3806107 0.54266083 1
1.4163516 -2.3158097 0.62671363 10
1.3948182 -2.2832863 0.71692878 4
1.2995893 -2.139972 -0.67085898 23
1.4159395 -2.3343148 -0.63031286 7
1.5601069 -2.5760427 -0.58540201 10
1.7544621 -2.900387 -0.53688318 4
2.0428402 -3.3811154 -0.48504004 17
2.2441645 -3.7187266 -0.37999901 38
2.1882937 -3.6318736 -0.2222185 38
2.5417006 -4.2234178 -0.086040363 22
2.1390948 -3.5251198 0.071973726 42
2.2060759 -3.6397963 0.22305585 2
2.4247634 -4.0053372 0.409632 8
2.032135 -3.362071 0.4823589 32
2.1123216 -3.4988728 0.64732587 19
2.1107168 -3.5003562 0.79452866 1
5.1407342 -8.5353584 2.3003497 4
1.382826 -2.2995906 0.71899933 6
1.2875915 -2.1539671 -0.67241186 25
1.3956127 -2.33745 -0.62851328 7
1.5495754 -2.5984054 -0.58807337 11
1.7417555 -2.9241419 -0.53907323 8
2.046582 -3.4413617 -0.49162099 13
2.2517262 -3.7908313 -0.38575131 26
2.2328196 -3.7634892 -0.2293362 30
2.4397953 -4.1189032 -0.083562121 21
2.1376171 -3.5773635 0.072741628 32
2.6213896 -4.3921909 0.2680648 29
2.3998015 -4.0273027 0.41015494 15
1.8995547 -3.1915965 0.45603511 28
1.9198864 -3.2296033 0.5950768 6
nan nan nan nan
2.9394989 -4.9585633 1.3308105 1
1.9124231 -3.2298698 1.0057708 5
1.2787794 -2.1726708 -0.67551774 13
1.3836201 -2.3536153 -0.63031286 10
1.5244409 -2.5973079 -0.58540201 8
1.7232968 -2.9396384 -0.53969896 12
2.0241134 -3.4569254 -0.49186471 18
2.1826208 -3.7321165 -0.3782559 38
2.2628877 -3.8755724 -0.23519783 35
2.3895397 -4.0974121 -0.082794219 40
nan nan nan nan
2.1000452 -3.5751503 0.21729892 2
2.3128486 -3.9421549 0.39987054 23
1.8982971 -3.2407503 0.46115363 25
2.3372011 -3.9948373 0.73305202 21
2.0226338 -3.461323 0.77926397 20
2.0304394 -3.4788606 0.92994773 12
2.0114071 -3.4517851 1.0704756 28
1.2645488 -2.183217 -0.6760354 23
1.3759381 -2.3783987 -0.63436204 16
1.5165484 -2.6246233 -0.5892182 11
1.7170707 -2.9752531 -0.54407912 17
2.0108316 -3.489892 -0.49454582 33
2.164463 -3.7610776 -0.37965041 44
2.2792535 -3.965344 -0.23969871 18
2.2563691 -3.9318821 -0.079129212 14
2.6922741 -4.6500263 0.093789227 15
2.0696626 -3.5789876 0.21667089 46
2.3231258 -4.0237727 0.40649435 13
1.859336 -3.2243624 0.45701009 37
nan nan nan nan
1.9866766 -3.4549358 0.77468461 6
1.7023244 -2.9640231 0.78912836 15
1.852329 -3.2291191 0.99748862 3
1.2458316 -2.185061 -0.6739648 9
1.3587525 -2.3860159 -0.63391209 9
1.4981885 -2.6351466 -0.5892182 13
1.7001598 -2.9940388 -0.54533058 33
1.988989 -3.5069516 -0.49503332 18
2.1332445 -3.7674279 -0.37877885 40
2.2692118 -4.0124521 -0.2415828 60
2.530499 -4.4799361 -0.089810088 24
2.3222044 -4.0762148 0.081886694 16
2.0624058 -3.6245956 0.21855497 30
2.2887926 -4.0273666 0.40527418 13
1.9445384 -3.4271839 0.48382133 36
1.8173386 -3.2069094 0.58381349 46
nan nan nan nan
1.6739208 -2.9622624 0.78552914 6
1.8544285 -3.2857141 1.0109472 11
1.2390527 -2.2088692 -0.67862362 19
1.3468246 -2.403944 -0.63616163 4
1.4883811 -2.6609626 -0.5926528 12
1.669582 -2.98859 -0.54220194 17
1.9876711 -3.5623562 -0.50088304 10
2.2183926 -3.9823925 -0.39882466 17
2.22755 -4.0037622 -0.2401174 36
2.5059607 -4.5097289 -0.090054423 34
1.9749594 -3.5236578 0.07050772 35
2.01071 -3.5918508 0.21572883 33
nan nan nan nan
1.8122007 -3.2465417 0.45652261 6
1.7583541 -3.153955 0.57192445 26
1.7382809 -3.1217923 0.69454479 20
1.9050615 -3.4269412 0.9052031 1
1.9674199 -3.5434828 1.0860047 42
1.2245351 -2.2191567 -0.67914116 24
1.3253061 -2.4047544 -0.63391209 7
1.4735533 -2.6781685 -0.59417921 11
1.6515313 -3.0053663 -0.54314053 16
1.9723042 -3.5935476 -0.5033204 13
2.0947962 -3.8230546 -0.38139355 38
2.1717386 -3.9684055 -0.2370819 26
