# .PCD v0.7 - Point Cloud Data file format
VERSION 0.7
FIELDS x y z intensity
SIZE 4 4 4 4
TYPE F F F F
COUNT 1 1 1 1
WIDTH 1491
HEIGHT 1
VIEWPOINT 0 0 0 1 0 0 0
POINTS 1491
DATA ascii
nan nan nan nan
nan nan nan nan
-3.5610313 42.765106 2.248981 40
-3.5365844 42.742111 3.752229 19
-3.502809 42.696838 5.2601252 22
-3.4762583 42.647198 6.7770548 32
-3.4490564 42.58884 8.3055344 62
-3.6444974 45.395996 10.514213 53
nan nan nan nan
-0.25134012 3.2590153 -0.87584364 3
-0.28545114 3.7267675 -0.8629123 6
-0.32952487 4.3420119 -0.84642875 5
-0.39088076 5.1864586 -0.82378399 2
-0.4838523 6.4652319 -0.79605067 2
-0.64520371 8.7027826 -0.7634843 3
-1.0486476 14.245853 -0.7486136 17
-2.1628985 29.594549 -0.5179525 54
nan nan nan nan
-3.2599583 42.757057 2.2473061 40
-3.2337396 42.708149 3.747174 19
-3.2005062 42.664822 5.2533007 22
-3.1736183 42.605415 6.7667298 32
-3.2863402 44.432724 8.6604385 35
-3.5194168 48.040218 11.120681 61
nan nan nan nan
-0.22533952 3.2144399 -0.86342037 15
-0.25726229 3.6975651 -0.85571384 5
-0.29650795 4.3050346 -0.83879644 5
-0.3508938 5.1338787 -0.8150236 2
-0.43360335 6.3931913 -0.78678852 2
-0.57926178 8.6075783 -0.75476873 3
-0.95991707 14.414248 -0.757092 27
-1.9536 29.569021 -0.51725441 53
nan nan nan nan
-2.9580476 42.730953 2.2447941 40
-2.9315212 42.672039 3.7421188 18
-2.8974538 42.610867 5.2440386 22
nan nan nan nan
-3.1188717 46.587799 9.0760212 40
nan nan nan nan
nan nan nan nan
-0.20435418 3.2390707 -0.86963201 17
-0.23168729 3.7031605 -0.85661364 2
-0.26598403 4.2873578 -0.83498025 5
-0.31339589 5.0947437 -0.80845338 5
-0.38654998 6.3564334 -0.78191376 2
-0.51148194 8.4841299 -0.74361277 3
-0.87191439 14.589912 -0.76598912 22
-1.7439528 29.528042 -0.516312 26
-1.6345655 25.980667 0.45439085 8
-2.6634073 42.690296 2.2416539 40
-2.6297603 42.629818 3.7367151 18
-2.6039498 42.57412 5.2372136 22
nan nan nan nan
-2.9428196 49.099262 9.5610571 93
nan nan nan nan
nan nan nan nan
-0.18164913 3.2288139 -0.86652619 26
-0.20376244 3.6560092 -0.84536612 4
-0.2341022 4.2538252 -0.82811105 5
-0.275345 5.0514412 -0.80125743 5
-0.33952883 6.2895398 -0.7733829 2
-0.44755161 8.3720207 -0.73350269 3
-0.77961183 14.777143 -0.7755143 4
-1.5481364 29.639076 -0.51805723 27
nan nan nan nan
-2.3617942 42.644035 2.2383044 40
-2.3367984 42.596996 3.7323575 18
nan nan nan nan
-2.5756462 48.023502 7.6171079 45
-2.6868627 50.592449 9.8480349 49
nan nan nan nan
nan nan nan nan
-0.15919167 3.2203281 -0.86393797 28
-0.17744581 3.6281149 -0.83861756 4
-0.20381838 4.2278666 -0.82276845 5
-0.23973134 5.0275474 -0.79719013 5
-0.29586774 6.273859 -0.77118921 2
-0.38702771 8.2992449 -0.72687888 3
-0.66049612 14.379085 -0.75437051 4
nan nan nan nan
-1.2809978 26.0986 0.45610118 8
-2.0679626 42.587311 2.2345362 40
nan nan nan nan
-2.0898888 43.989658 5.4073434 24
-2.3532567 50.273602 7.9712753 49
-2.5021844 54.061195 10.519682 55
nan nan nan nan
nan nan nan nan
-0.13677441 3.2097566 -0.86083221 30
-0.15274413 3.6292391 -0.83861756 4
-0.17414239 4.2075791 -0.81857067 14
-0.20437513 5.0014305 -0.79280996 4
-0.24895678 6.1984162 -0.76168346 2
-0.32418981 8.1783133 -0.71607161 2
-0.54268688 13.936297 -0.73092401 4
-1.235287 32.15538 -0.56168824 33
-1.1067946 26.188631 0.45753229 59
nan nan nan nan
nan nan nan nan
nan nan nan nan
-2.1110847 52.791237 8.3679934 53
-2.2665269 57.686951 11.22186 61
nan nan nan nan
nan nan nan nan
-0.11366402 3.2067921 -0.85979694 32
-0.12588584 3.6049209 -0.83276886 13
-0.14302199 4.179286 -0.81284636 4
-0.16724996 4.9632802 -0.78655261 4
-0.20302425 6.1524224 -0.75583369 2
-0.26203737 8.0689087 -0.70631009 2
-0.42949951 13.516619 -0.70873362 4
nan nan nan nan
-0.92132849 26.251837 0.45850962 34
-1.5269904 44.168961 2.3161802 43
nan nan nan nan
nan nan nan nan
-1.4407368 43.892937 6.9557028 34
nan nan nan nan
nan nan nan nan
nan nan nan nan
-0.090276927 3.1920745 -0.85565579 38
-0.099221267 3.5745614 -0.8255704 28
-0.11194573 4.1370258 -0.80445075 17
-0.13036926 4.9130082 -0.778418 4
-0.15888008 6.108048 -0.75022775 2
-0.20305581 7.9669704 -0.6972459 2
-0.32453969 13.092006 -0.68633378 4
nan nan nan nan
nan nan nan nan
nan nan nan nan
nan nan nan nan
nan nan nan nan
nan nan nan nan
nan nan nan nan
nan nan nan nan
nan nan nan nan
-0.068714425 3.2003405 -0.85772634 43
-0.074195564 3.5420327 -0.81792206 31
-0.083942212 4.1455436 -0.80597723 21
-0.09626212 4.8802071 -0.77309924 9
-0.11577579 6.0295992 -0.74047816 2
-0.14763476 7.9044228 -0.69166797 2
-0.22894892 12.734464 -0.66749287 3
nan nan nan nan
-0.82603937 39.109318 0.68280792 14
nan nan nan nan
nan nan nan nan
-0.85738617 43.856205 5.3858938 48
nan nan nan nan
nan nan nan nan
nan nan nan nan
nan nan nan nan
-0.04692876 3.2007341 -0.85772634 32
-0.049946196 3.5327129 -0.81567258 34
-0.054640662 4.0655327 -0.79033089 22
-0.062607594 4.8471704 -0.76778048 4
-0.074162222 5.9845939 -0.73487222 2
-0.092783377 7.8175859 -0.68399829 2
-0.13865459 12.41219 -0.650536 3
nan nan nan nan
nan nan nan nan
nan nan nan nan
-0.5824371 43.90641 3.8416507 21
nan nan nan nan
nan nan nan nan
nan nan nan nan
nan nan nan nan
nan nan nan nan
-0.025034714 3.1874571 -0.85410291 31
-0.026127134 3.5641501 -0.82287103 38
-0.027044263 4.07759 -0.7926206 34
-0.029624501 4.8494596 -0.76809335 18
-0.03316135 5.9373188 -0.7290225 2
-0.039047822 7.7144337 -0.67493409 2
-0.052699983 12.077311 -0.63295114 3
-0.14987341 39.02977 -0.68127215 52
-0.2937254 39.136936 0.68315697 14
nan nan nan nan
nan nan nan nan
nan nan nan nan
-0.22897989 43.730293 6.9262929 34
nan nan nan nan
nan nan nan nan
nan nan nan nan
-0.0022197666 3.1798272 -0.8520323 27
-0.00061791728 3.5408609 -0.81747216 19
0.002131904 4.0717893 -0.79147577 37
0.0050057899 4.7804093 -0.7571429 15
0.0092293099 5.8758659 -0.72146654 2
0.015956098 7.6188807 -0.66656709 2
0.032519955 11.645973 -0.61034197 3
0.12951382 39.057838 -0.68176085 52
-0.014554163 41.641655 0.72685784 16
nan nan nan nan
0.030567592 43.786736 3.8308434 20
0.061071493 43.74147 5.3707824 48
nan nan nan nan
nan nan nan nan
nan nan nan nan
nan nan nan nan
0.019662578 3.1295381 -0.83857375 27
0.024219653 3.5583172 -0.82152128 23
0.029615512 4.0402689 -0.78536987 30
0.037108298 4.724956 -0.74838257 22
0.050046645 5.8518381 -0.71854174 2
0.068060607 7.4990454 -0.65610844 2
0.10849342 11.301969 -0.59233844 3
0.40169159 39.007992 -0.6809231 52
0.25372598 39.289196 0.68580979 14
nan nan nan nan
0.3362253 43.781467 3.8304946 20
nan nan nan nan
nan nan nan nan
nan nan nan nan
nan nan nan nan
nan nan nan nan
0.04081402 3.1177416 -0.83546793 50
0.047884431 3.5171502 -0.81207335 26
0.05768263 4.0301485 -0.78346181 29
0.068044752 4.5863204 -0.72648174 19
0.089389965 5.8196044 -0.71464187 2
0.11919297 7.4226861 -0.64948457 2
0.18202366 10.977425 -0.57538158 3
0.66663605 38.972363 -0.68036461 52
0.52299309 38.914562 0.67931753 14
nan nan nan nan
nan nan nan nan
nan nan nan nan
nan nan nan nan
nan nan nan nan
nan nan nan nan
nan nan nan nan
0.062499937 3.1135178 -0.83443266 28
0.071994483 3.4952984 -0.80712444 24
0.084855549 3.9845033 -0.77468461 26
0.10070803 4.6153569 -0.73117477 19
0.12828687 5.7414393 -0.70513606 2
0.16945322 7.35395 -0.64355797 2
0.25235596 10.708327 -0.56135553 3
0.93688667 38.890793 -0.67903823 52
0.79343027 38.849979 0.67827034 14
nan nan nan nan
nan nan nan nan
nan nan nan nan
nan nan nan nan
nan nan nan nan
nan nan nan nan
nan nan nan nan
0.084391631 3.118799 -0.8359856 28
0.096609443 3.5025027 -0.80892408 23
0.11166962 3.9484892 -0.76781541 35
0.13218524 4.5888724 -0.72710747 23
0.16714169 5.6987352 -0.70001757 2
0.21863645 7.2808938 -0.63728279 2
0.31954482 10.45876 -0.5483762 3
1.207379 38.851326 -0.67847979 52
1.0635576 38.803516 0.67757225 14
nan nan nan nan
nan nan nan nan
1.2710948 43.597923 5.3554268 23
nan nan nan nan
nan nan nan nan
nan nan nan nan
nan nan nan nan
0.10504539 3.0853112 -0.82718569 22
0.12025122 3.4783721 -0.80352527 23
0.13909414 3.9436889 -0.76705217 37
0.16153321 4.5128212 -0.71521842 26
0.20324782 5.5962558 -0.6875869 2
0.26474091 7.1517653 -0.62612689 3
0.38025975 10.128955 -0.53121001 3
nan nan nan nan
1.3330381 38.755177 0.6768741 14
nan nan nan nan
1.5448984 43.586037 3.8156784 20
nan nan nan nan
nan nan nan nan
nan nan nan nan
nan nan nan nan
nan nan nan nan
0.12626553 3.076782 -0.82511514 30
0.14485559 3.4852362 -0.80532485 24
0.16654 3.9406605 -0.76667058 26
0.19151476 4.4760594 -0.7095868 30
0.23982112 5.5371866 -0.68051845 2
0.30975071 7.0661969 -0.61880577 3
0.43550232 9.7788734 -0.51299709 3
nan nan nan nan
1.6032369 38.736931 0.67673451 14
nan nan nan nan
nan nan nan nan
nan nan nan nan
1.8994049 43.503757 6.8968835 34
nan nan nan nan
nan nan nan nan
nan nan nan nan
0.14839123 3.0893328 -0.82873863 26
0.16786037 3.4568896 -0.79902625 20
0.19104952 3.8923743 -0.75751179 31
0.22236945 4.4825439 -0.71083826 24
0.27328828 5.4322829 -0.66784412 2
0.35725722 7.0280457 -0.61566812 3
0.48792294 9.5004234 -0.49855235 3
nan nan nan nan
1.8682039 38.753086 0.67722315 14
nan nan nan nan
nan nan nan nan
nan nan nan nan
2.1947854 43.476013 6.8946934 34
nan nan nan nan
nan nan nan nan
nan nan nan nan
0.16825078 3.0670326 -0.8230446 26
0.19127743 3.4537213 -0.7985763 22
0.21722934 3.8733041 -0.7540772 34
0.25164846 4.4453826 -0.70520669 24
0.30708534 5.3748055 -0.66101938 2
0.40216884 6.953774 -0.60939294 3
0.54957753 9.4170322 -0.49436548 3
nan nan nan nan
2.1351969 38.675205 0.67610621 14
nan nan nan nan
nan nan nan nan
2.6348538 46.259064 5.689105 28
nan nan nan nan
nan nan nan nan
nan nan nan nan
nan nan nan nan
0.18810938 3.0407171 -0.81631529 26
0.21477921 3.4425769 -0.79632682 30
0.24179067 3.8325059 -0.74644482 27
0.28091908 4.4159174 -0.70082647 26
0.34154892 5.324986 -0.65516967 4
0.44064978 6.7957163 -0.59579664 3
0.60592723 9.2694683 -0.4868291 3
nan nan nan nan
2.4056454 38.667339 0.67624581 14
nan nan nan nan
2.7513127 43.488605 3.8123662 20
nan nan nan nan
nan nan nan nan
nan nan nan nan
nan nan nan nan
nan nan nan nan
0.20920028 3.0374026 -0.81579769 21
0.23732358 3.4196088 -0.79137784 16
0.26703051 3.8091815 -0.74224705 30
0.3092382 4.3783803 -0.69519484 28
0.37195572 5.2274275 -0.64347017 2
0.48294139 6.720933 -0.58952147 3
0.6573602 9.0817442 -0.47719929 3
nan nan nan nan
2.6780031 38.685513 0.6768741 14
nan nan nan nan
nan nan nan nan
3.0800819 43.394127 5.3415337 23
3.1004364 43.359436 6.8849945 33
nan nan nan nan
nan nan nan nan
2.2456784 30.653614 8.2356224 17
0.22747496 2.9973419 -0.8054449 31
0.25851676 3.3828933 -0.7832796 28
0.29256219 3.7935224 -0.73957568 24
0.33979753 4.3761148 -0.69519484 28
0.40503731 5.1811643 -0.6381079 2
0.52138728 6.6101413 -0.58010858 3
0.70904785 8.9296007 -0.46945357 3
nan nan nan nan
2.9662561 38.905144 0.6810627 14
nan nan nan nan
nan nan nan nan
3.3851161 43.399269 5.3449459 23
3.3993554 43.289471 6.8774853 33
nan nan nan nan
nan nan nan nan
2.4552977 30.583269 8.2211285 17
0.24823517 2.9937556 -0.80492729 33
0.27921063 3.3460503 -0.77518135 16
0.31689873 3.765955 -0.73461467 31
0.36767355 4.3421426 -0.69018894 28
0.43765974 5.1366735 -0.63298941 4
0.56160712 6.5508561 -0.57522792 3
0.75829977 8.7732058 -0.46149853 3
nan nan nan nan
3.7266481 44.754272 0.78389227 20
nan nan nan nan
3.6569533 43.367847 3.8076601 20
nan nan nan nan
nan nan nan nan
3.1230593 36.28027 7.0782509 19
1.9777671 22.835596 5.2917485 9
2.6677408 30.553835 8.2180223 17
0.26982173 2.9996457 -0.80699778 32
0.30080763 3.3246114 -0.77068233 20
0.34074435 3.744159 -0.73079848 31
0.38929629 4.252985 -0.67642272 22
0.46840215 5.078145 -0.62616473 3
0.60180277 6.4872599 -0.56999856 3
0.80575061 8.6365919 -0.45459017 3
1.6062716 17.088057 -0.29958799 13
4.0243745 44.652187 0.78256595 20
nan nan nan nan
3.9599912 43.345226 3.8080087 20
nan nan nan nan
nan nan nan nan
2.1308384 22.882858 4.4672203 7
2.8634062 30.576414 7.0900078 17
2.8758342 30.536892 8.2185402 17
0.28464851 2.9400539 -0.79146868 28
0.32173133 3.3050308 -0.76663327 25
0.36476961 3.7201962 -0.72660065 34
0.41684851 4.2285385 -0.67298114 24
0.49865249 5.0313802 -0.62080252 1
0.63837087 6.3956685 -0.56232882 3
0.85705239 8.5413284 -0.44987994 3
1.5533577 15.399497 -0.27016324 5
4.3329129 44.59116 0.78200746 20
nan nan nan nan
nan nan nan nan
4.5569496 46.061535 5.6832557 28
3.043658 30.601677 4.8707442 13
3.0711792 30.715088 6.0001798 84
3.076019 30.547922 7.0882082 34
3.0860333 30.48724 8.2107754 17
0.30217323 2.9091725 -0.7837041 55
0.34338051 3.2891364 -0.76348388 18
0.39032039 3.713654 -0.72583747 22
0.44345197 4.1980233 -0.66860098 22
0.53166795 5.0080366 -0.61836511 1
0.6758101 6.323698 -0.55640227 6
0.91005367 8.4735746 -0.4466351 3
1.5533322 14.392214 -0.25267595 10
4.617558 44.305241 0.77753961 19
nan nan nan nan
nan nan nan nan
3.2586186 30.745611 3.7962303 12
3.2626636 30.630753 4.8788786 13
3.2834463 30.673376 5.9963636 84
3.287524 30.510204 7.084609 52
3.3016961 30.49184 8.2180223 17
0.32332629 2.9146724 -0.78577471 58
0.36417437 3.2672918 -0.75898486 20
0.41361094 3.6874263 -0.72125804 34
0.46898812 4.1614556 -0.66328222 22
0.56125742 4.9568629 -0.61251533 3
0.71542746 6.2792349 -0.55291605 3
0.95146763 8.3122396 -0.43847069 3
1.595052 13.870462 -0.24370541 19
4.9188132 44.200378 0.77628309 19
nan nan nan nan
4.009613 35.690289 3.1421387 11
2.5749507 22.776773 2.814451 7
3.4726372 30.573862 4.87356 13
4.5387678 39.77459 7.7815728 75
3.5006676 30.488445 7.0850592 86
3.5100615 30.429667 8.2076702 17
0.34525144 2.9257741 -0.78939813 51
0.3821584 3.2240307 -0.74953699 23
0.43934399 3.684449 -0.72125804 37
0.49521011 4.1345434 -0.65952778 22
0.59039575 4.9074936 -0.60690933 1
0.75302398 6.2226601 -0.54838395 3
0.99116021 8.1547136 -0.43051565 3
1.6506535 13.521545 -0.23777159 18
5.2169285 44.077583 0.77474725 19
nan nan nan nan
2.7287118 22.849745 2.0132976 6
3.6752684 30.594627 3.783556 23
3.6883647 30.568485 4.8766885 27
3.8854759 32.060955 6.2776165 13
3.7110736 30.443918 7.0805597 86
3.7235889 30.414007 8.2102585 17
0.3635121 2.9060397 -0.78473938 48
0.40052941 3.1884136 -0.74188864 30
0.45841017 3.6287024 -0.71095431 13
0.52331477 4.1251063 -0.65858912 21
0.61887002 4.8579617 -0.60130334 3
0.78227097 6.1065817 -0.5386225 3
1.0343065 8.0406237 -0.42486331 6
1.6725161 12.948442 -0.22789353 8
5.5006261 43.849606 0.77139634 19
nan nan nan nan
3.8756447 30.63587 2.7016537 9
3.8892708 30.572163 3.7840433 23
3.9006817 30.534153 4.8754373 27
4.0957193 31.927889 6.2570086 13
3.9230235 30.413406 7.0796599 86
3.939054 30.412178 8.2169876 17
0.38328493 2.8996007 -0.7837041 30
0.41995874 3.1642902 -0.73693973 32
0.48269525 3.6176293 -0.70942789 21
0.54790616 4.0900264 -0.65358323 22
0.64351124 4.7846646 -0.59277254 11
0.80806303 5.9765835 -0.52764088 6
1.0697262 7.8808155 -0.4168036 5
0.75682569 5.5538173 -0.097838193 17
nan nan nan nan
nan nan nan nan
nan nan nan nan
4.1041956 30.55607 3.785506 23
4.1148109 30.514009 4.8766885 13
4.158905 30.719545 6.0257483 12
4.1378808 30.404583 7.0841589 86
4.152844 30.39542 8.2200937 17
0.39925283 2.8662403 -0.77542186 19
0.44554612 3.1863708 -0.74278843 22
0.5057534 3.598618 -0.70637494 18
0.57092768 4.0469809 -0.64732587 22
0.66966212 4.7289524 -0.58643532 15
0.83835423 5.8979597 -0.52119136 6
0.79453641 5.5618248 -0.29444212 60
0.7907576 5.5147467 -0.097244807 27
1.5078877 10.79756 0.19030103 1
nan nan nan nan
4.2957811 30.527477 2.6971216 49
4.3196263 30.542398 3.7874558 11
4.3257809 30.47085 4.8744984 13
4.3569112 30.575089 6.003233 48
4.3488674 30.404652 7.0909076 52
4.363843 30.358038 8.2180223 17
0.41701427 2.8480918 -0.77128083 23
0.46608037 3.1716146 -0.740089 23
0.52479237 3.5581901 -0.69912422 16
0.59441 4.0156441 -0.64294571 26
0.69360459 4.6632943 -0.57887942 19
0.8277362 5.5451455 -0.49051252 30
0.82882273 5.5325851 -0.29318607 40
0.83102447 5.5209565 -0.097454235 31
1.5706178 10.71384 0.18900958 3
4.5008011 30.590235 1.6204261 17
4.5099788 30.504625 2.697819 59
4.5245228 30.492649 3.7850182 35
4.5371776 30.46805 4.8788786 27
4.575489 30.578876 6.0101018 36
4.5795612 30.496885 7.1197014 100
4.5692315 30.31999 8.2159519 17
0.4346337 2.83373 -0.76817495 15
0.48528653 3.1529601 -0.73648983 15
0.54602194 3.5311568 -0.69454479 17
0.61788869 3.9821165 -0.63825274 14
0.72441655 4.6525803 -0.57814825 15
0.86300397 5.5236349 -0.48911804 42
0.86742729 5.5266643 -0.29318607 32
0.86982703 5.5230742 -0.097593859 44
1.6484147 10.722378 0.18935861 3
2.1837025 14.154894 0.75060236 10
4.7205458 30.492912 2.6995618 59
4.7360568 30.452478 3.7840433 35
4.7482362 30.425877 4.8773141 13
4.7974987 30.636246 6.0276566 12
nan nan nan nan
4.7826009 30.298803 8.219058 17
0.45379385 2.8268118 -0.76713973 24
0.50480741 3.1341038 -0.73289061 13
0.56534535 3.498287 -0.68882048 24
0.64529407 3.9797683 -0.6385656 21
0.75113428 4.6121426 -0.57376093 19
0.90347016 5.529273 -0.49016386 42
0.90599543 5.5265446 -0.29350007 57
0.90609258 5.5030546 -0.097349517 57
1.5725472 9.7849331 0.17298825 1
2.2494786 13.95041 0.74055386 19
4.934586 30.467081 2.7002592 49
4.9476891 30.446964 3.7874558 11
4.9565005 30.400648 4.8785658 13
5.2000384 31.754789 6.2547193 13
5.5900693 34.024857 7.960568 24
4.9899702 30.273172 8.2211285 17
0.46840546 2.7930908 -0.75885749 31
0.52732188 3.1343465 -0.7337904 20
0.58807456 3.4806013 -0.68614918 22
0.66682369 3.9341488 -0.63199526 19
0.77399766 4.551991 -0.56693625 21
0.93970478 5.5090828 -0.4889437 54
0.94686806 5.5277944 -0.29391876 57
0.94245452 5.4847703 -0.097140096 29
1.580882 9.4066315 0.16649596 1
2.338954 13.872902 0.73730898 9
5.1478305 30.435818 2.7006078 39
5.1667652 30.41861 3.7884309 23
5.1762381 30.378033 4.8807559 27
5.422925 31.725452 6.2562456 13
5.2099457 30.383678 7.117002 52
5.2084394 30.248114 8.2242346 17
0.48522973 2.7745292 -0.75471634 37
0.54716909 3.1190727 -0.73109102 31
0.60834861 3.4571826 -0.68233299 16
0.6880917 3.8983948 -0.62698942 19
0.80437189 4.5386577 -0.56596124 15
0.98093224 5.5180812 -0.49033821 36
0.98657632 5.5330181 -0.29454678 40
0.98389405 5.4957724 -0.097454235 31
1.4703865 8.3989649 0.14883412 1
2.4136395 13.744532 0.73134273 29
5.368144 30.444263 2.704617 9
5.3743901 30.386646 3.7889183 35
5.3842759 30.349876 4.8820076 27
5.4194574 30.424683 6.0070491 48
5.4123545 30.292849 7.1044044 35
5.4176335 30.230972 8.2294111 17
0.50306821 2.7654598 -0.75316346 33
0.55824524 3.0596797 -0.7180438 28
0.63034874 3.4412642 -0.68004328 17
0.7131511 3.8818386 -0.62511224 19
0.8291319 4.4998894 -0.56181771 14
1.0158051 5.491508 -0.4885951 6
1.0226272 5.5122509 -0.29381409 40
1.0223799 5.4948454 -0.097558953 40
1.4518878 7.9655299 0.14132959 3
2.4976764 13.662514 0.72788858 19
5.5824203 30.446217 2.7081032 9
5.5871172 30.352289 3.7894058 11
5.5988955 30.327087 4.88451 27
5.6099839 30.298288 5.9894948 36
5.6329508 30.30414 7.1161017 17
5.6292472 30.196215 8.2304459 17
0.52236116 2.7618804 -0.75316346 39
0.57232773 3.017416 -0.70904577 32
0.64995146 3.4136362 -0.67546391 17
0.73875207 3.8690038 -0.62386072 16
0.84596694 4.4179535 -0.5523119 27
1.0398303 5.4099317 -0.48197123 5
1.0603316 5.5010538 -0.29360473 60
1.0614725 5.4915009 -0.097628765 44
1.4259276 7.5249233 0.13368544 1
2.5915062 13.636894 0.72746986 16
5.797091 30.418242 2.7091491 9
5.8011031 30.324244 3.790868 24
5.8145618 30.308605 4.8879519 13
5.8265476 30.285376 5.9948373 36
6.7736683 35.076248 8.2476063 27
5.8487344 30.201696 8.2428694 17
0.53790742 2.7392099 -0.74798709 27
0.59262633 3.0095232 -0.70814598 28
0.65587473 3.3184938 -0.6575278 19
0.7557584 3.8133724 -0.61572611 18
0.87291801 4.3924704 -0.54987448 9
1.0678304 5.353693 -0.47761348 5
1.1014522 5.5072265 -0.29433745 50
1.0978186 5.4741535 -0.097454235 27
2.7059522 13.754213 0.24468274 14
2.6997964 13.685091 0.73102868 9
6.0154958 30.408302 2.7119379 9
6.0157576 30.298582 3.7928181 36
6.0287142 30.280834 4.890142 27
6.0612974 30.361399 6.018116 24
7.081152 35.341476 8.3213902 28
6.0609612 30.167704 8.2449398 17
0.55509025 2.7259231 -0.74539888 13
0.61362374 3.005312 -0.70814598 26
0.68217891 3.3292205 -0.66058075 15
0.77679676 3.7809138 -0.61134595 28
0.89555168 4.3473835 -0.54499972 16
1.0987242 5.3148904 -0.47482449 2
1.1398731 5.4994025 -0.29433745 42
1.1368225 5.4702716 -0.097524047 31
2.7943077 13.697761 0.24401954 31
2.7808557 13.595469 0.72726053 19
6.228425 30.369471 2.7122867 29
6.2303514 30.2714 3.7947681 24
6.2427759 30.251545 4.8923321 27
6.2798743 30.351027 6.0246034 36
7.3494997 35.396122 8.3461342 28
6.272985 30.132227 8.2470102 17
0.57131642 2.7087493 -0.74177545 29
0.6329757 2.9933288 -0.70634633 25
0.70132953 3.305172 -0.65676457 20
0.79947418 3.7580092 -0.6085301 27
0.92415142 4.329216 -0.54353732 14
1.1232935 5.2486415 -0.46959516 2
1.1790738 5.4952173 -0.29454678 45
1.1772003 5.4678612 -0.097628765 38
2.9750223 14.080958 0.25120994 25
2.8881185 13.634339 0.73040068 16
6.4473286 30.358379 2.71525 59
6.4481387 30.258234 3.7986679 24
6.456296 30.218817 4.8942094 13
6.4977241 30.309151 6.0253668 49
7.6828508 35.745949 8.4410639 29
6.4876857 30.108469 8.2527046 17
0.59233397 2.712141 -0.74384594 29
0.64937764 2.9658792 -0.70094752 45
0.723966 3.2982774 -0.65638298 17
0.82379633 3.7406175 -0.60665292 22
0.94664937 4.2877674 -0.53915 17
1.1383808 5.1434054 -0.46087953 5
1.2170676 5.4807901 -0.29423279 40
1.2166454 5.4653659 -0.097733475 38
3.1202254 14.274737 0.25504947 19
2.9834707 13.60357 0.72987735 9
6.6703925 30.338709 2.7176902 59
6.6626415 30.227985 3.8006177 36
6.680903 30.210419 4.9004669 13
6.7100129 30.266882 6.0261297 24
6.7196817 30.235573 7.1507449 89
6.7109585 30.097099 8.2625399 17
0.60870171 2.6966333 -0.74074018 30
0.66533667 2.9403656 -0.69599861 48
0.74363935 3.2757812 -0.65294844 31
0.84331769 3.7058828 -0.60195988 18
0.97126466 4.2578292 -0.53622514 14
1.1653808 5.0964875 -0.45739332 2
1.2553011 5.4721599 -0.29423279 32
nan nan nan nan
3.1460025 13.914616 0.24901094 27
3.0898471 13.633055 0.73259878 9
6.8860068 30.308887 2.719259 9
6.884954 30.206633 3.8040299 36
6.8995533 30.197708 4.9060984 27
6.9014144 30.133186 6.0089569 36
8.3381596 36.318962 8.6030293 30
6.9217796 30.053278 8.2635746 17
0.62137371 2.6659782 -0.73349321 30
0.68230128 2.9204681 -0.69239938 33
0.75562233 3.2266786 -0.64417118 30
0.86897296 3.7019799 -0.60227275 16
0.98958963 4.2026386 -0.5301317 22
1.1904038 5.0436287 -0.45338416 5
1.2957385 5.4770932 -0.29496548 7
2.1534994 9.0745535 -0.16279604 6
3.3115072 14.196676 0.2544561 29
3.1957598 13.668106 0.73563427 19
7.1001506 30.271719 2.720305 9
7.094933 30.178394 3.8064673 24
7.1067414 30.157738 4.9073496 13
7.125165 30.14159 6.0204058 24
nan nan nan nan
7.1310816 30.026144 8.269269 18
0.62686813 2.609092 -0.71899933 54
0.70033956 2.9081779 -0.6905998 42
0.7808947 3.2327754 -0.64646095 31
0.88038504 3.6363063 -0.59257382 18
1.020982 4.2073803 -0.5315941 13
1.2152196 4.9926062 -0.44954932 5
1.5237638 6.2459955 -0.33693892 5
2.1943157 8.9742174 -0.16126025 3
3.3464441 13.906857 0.24967413 18
3.2723718 13.5678 0.7314474 19
8.5560322 35.393421 3.1857166 12
7.3092022 30.143559 3.8084173 24
7.3236542 30.134258 4.9117298 13
7.3352785 30.113375 6.0246034 36
nan nan nan nan
7.3492599 30.01128 8.2791042 18
0.64460456 2.6027765 -0.71848166 52
0.71593082 2.884304 -0.68610078 37
0.79727894 3.2024784 -0.64149988 28
0.89714181 3.5955722 -0.5869422 24
1.0406985 4.161634 -0.52671933 13
1.2485908 4.9782033 -0.44902641 2
1.5483429 6.1596627 -0.33285671 2
2.2124598 8.7822218 -0.1580839 15
3.4078207 13.739531 0.24709117 27
3.3886888 13.631845 0.73615766 9
7.5303416 30.225077 2.7251856 10
7.5242786 30.111055 3.8108549 36
7.5381722 30.099644 4.914546 27
7.5491543 30.076666 6.0276566 24
nan nan nan nan
7.5581274 29.957371 8.2785864 18
0.66180348 2.5944693 -0.71744639 33
0.73411757 2.8716838 -0.68430114 27
0.81815583 3.1911287 -0.64035505 37
0.91632444 3.5662625 -0.58318776 24
1.0677468 4.1465778 -0.52574438 13
1.2655207 4.903996 -0.44309977 2
1.6058166 6.2047768 -0.3358922 5
2.2451012 8.656229 -0.15609433 3
3.5180109 13.771591 0.24810341 30
3.0830388 12.042556 0.65147805 8
3.5616112 13.881638 1.2538224 15
7.7422247 30.088552 3.8147545 24
7.7594681 30.090277 4.921742 13
7.7658234 30.049841 6.032999 24
7.7875423 30.06889 7.1709905 54
7.7787399 29.948748 8.2910089 18
0.67548519 2.5729692 -0.71278769 29
0.75216448 2.8589504 -0.68250155 20
0.83385062 3.1627059 -0.63577563 30
0.93452108 3.537025 -0.57943332 33
1.0829419 4.0872126 -0.51916343 16
1.2511526 4.7121034 -0.4265402 4
1.5679016 5.8926058 -0.31956339 2
2.2786703 8.5398741 -0.15427928 3
3.6279361 13.809215 0.24922037 30
3.1242638 11.866775 0.64310426 2
3.6289437 13.744703 1.2437124 21
7.9539604 30.062019 3.818167 24
7.9711943 30.063494 4.9261217 13
7.9784331 30.006281 6.0352888 36
7.9882269 29.979897 7.1628919 18
7.9898772 29.923109 8.2987747 18
0.69097149 2.5608506 -0.71071708 33
0.75685817 2.7992094 -0.6694544 29
0.84614885 3.1208053 -0.62852484 23
0.95297635 3.507539 -0.57567888 36
1.1060425 4.0625091 -0.5169698 16
1.3109888 4.8053517 -0.43577868 2
1.6079446 5.8776641 -0.31935403 5
2.2933917 8.3660278 -0.15141708 3
3.7461545 13.864631 0.25068635 28
3.1934566 11.794552 0.64038283 14
3.7218888 13.717763 1.2435381 18
8.1709347 30.032576 3.8215792 24
8.1865988 30.028076 4.9295635 27
8.195962 30.000513 6.0452108 24
8.2137346 30.003767 7.1817875 54
8.2047358 29.88895 8.304986 18
0.70883149 2.5559647 -0.71071708 27
0.78681576 2.8314095 -0.67845237 15
0.8642121 3.1036255 -0.62623513 25
0.96992791 3.4762361 -0.57161164 27
1.1295656 4.0374823 -0.51477611 19
1.3359021 4.7653871 -0.43298975 5
1.6965293 6.0396376 -0.32877451 2
2.3040345 8.1804295 -0.14834546 3
3.8762624 13.967914 0.253025 34
3.2886536 11.826419 0.64331365 8
3.8320141 13.743261 1.2482445 15
8.3858404 30.014503 3.8264539 36
8.4019728 30.011606 4.9361334 27
8.4136801 29.972811 6.0513167 37
10.71671 38.100426 9.1375122 35
8.4205561 29.877039 8.3174095 18
0.72039366 2.5306427 -0.70502311 27
0.79965472 2.8035007 -0.67305356 15
0.87776107 3.0692029 -0.62051088 33
0.98818725 3.4484918 -0.56817007 28
1.1482545 3.9991729 -0.51087636 19
1.348742 4.6851039 -0.4265402 9
1.7220436 5.9700761 -0.32563433 2
2.3169122 8.0166349 -0.14565779 6
3.3734419 11.834722 0.21480422 16
3.3881357 11.862708 0.64655846 8
3.8860049 13.578945 1.2356941 20
8.6094112 30.004835 3.8327911 12
8.6145773 29.963604 4.9380112 14
8.6283875 29.952574 6.058949 37
11.07761 38.354191 9.2166948 36
8.6385984 29.850927 8.3267269 18
0.73100007 2.5014455 -0.69829381 30
0.80880427 2.7623153 -0.66450548 21
0.8991667 3.0630002 -0.62051088 32
1.0088938 3.4301383 -0.56629282 23
1.176146 3.9910591 -0.51087636 16
1.3848046 4.6870379 -0.42758605 19
1.7239968 5.8238511 -0.31830731 11
2.3864691 8.0462761 -0.14649549 6
3.4952922 11.945228 0.21724756 12
3.4422133 11.741019 0.64122021 14
3.9852011 13.566776 1.2370886 15
8.8254051 29.966852 3.835716 24
8.8313656 29.929262 4.9423909 14
8.8422813 29.908552 6.0623837 25
11.441464 38.601025 9.2949781 37
8.8402023 29.767666 8.3205156 36
0.75066477 2.5036829 -0.70036435 29
0.825266 2.7472699 -0.66225594 24
0.92279166 3.0641682 -0.62203735 32
1.0293924 3.411664 -0.56441563 20
1.1890453 3.9333465 -0.50453913 21
1.4146034 4.6677227 -0.42671451 26
1.7483653 5.758163 -0.31537652 2
2.4257069 7.973938 -0.14548326 12
3.5561769 11.84584 0.21588628 16
3.6753929 12.21972 0.66874892 6
3.6365969 12.067823 1.1026944 2
9.0435839 29.934916 3.8396161 12
9.0538311 29.912254 4.9499002 14
9.0628309 29.88555 6.0703979 37
nan nan nan nan
9.0641136 29.75882 8.3355265 55
0.76642239 2.4928417 -0.69881141 31
0.84385175 2.7395787 -0.66180605 12
0.94010782 3.0445194 -0.61936599 41
1.0455958 3.3798618 -0.56034833 27
1.2182393 3.9306378 -0.50527036 16
1.441242 4.6387067 -0.4249714 21
1.7736819 5.6981411 -0.3127597 7
2.3807063 7.6341839 -0.13958435 11
3.6223109 11.767212 0.21490893 26
3.6099241 11.705174 0.64195293 8
3.7525132 12.144937 1.1121073 6
9.2652702 29.912766 3.8449781 12
9.2776594 29.897369 4.9580345 14
9.2852383 29.866543 6.0795565 37
9.319622 29.903488 7.2312765 55
9.2866182 29.742764 8.3489857 55
0.77916104 2.4726901 -0.69467032 37
0.8594358 2.7224712 -0.65910661 18
0.96133965 3.0378821 -0.61936599 40
1.0673753 3.3668306 -0.55940974 27
1.2378392 3.8974419 -0.50210178 16
1.4627135 4.5943584 -0.42183378 23
1.801888 5.649466 -0.31077093 2
2.4485524 7.6630931 -0.14042206 21
3.7326512 11.831269 0.21654947 26
3.8041177 12.035809 0.66152656 9
3.7157235 11.734755 1.0768963 14
9.4774637 29.858709 3.8464406 61
9.495719 29.861996 4.9630404 14
9.5113831 29.857115 6.0910048 25
12.603043 39.46677 9.5649195 41
9.504632 29.710325 8.3583031 56
0.78987688 2.4469678 -0.68897635 31
0.86762846 2.6830292 -0.65100837 25
0.97646946 3.0124211 -0.61554986 23
1.0798708 3.325479 -0.55377805 30
1.2588755 3.8698282 -0.49966437 19
1.4990762 4.5972943 -0.42305395 19
1.812137 5.5475178 -0.30585137 13
2.4441526 7.4690638 -0.13717592 11
3.8772736 11.997101 0.22007485 25
3.864058 11.934852 0.65744436 14
3.7741985 11.63651 1.0702726 18
9.6991882 29.833347 3.8518028 73
9.7247763 29.858831 4.9736776 14
9.7269154 29.812378 6.0955844 38
12.926706 39.526005 9.6009111 41
9.7196198 29.667112 8.3650312 37
0.8020916 2.4267192 -0.68483526 28
0.87837666 2.6528566 -0.64515966 42
0.99129236 2.9868977 -0.61173368 36
1.0968287 3.2991142 -0.5506494 39
1.2808431 3.8458779 -0.49771443 19
1.5122064 4.5300212 -0.41782463 23
1.8438518 5.5138969 -0.30469999 2
2.4759076 7.3911428 -0.13605896 20
3.9678397 11.990626 0.22045881 19
3.8586681 11.640277 0.64268559 8
3.8647578 11.638243 1.0728872 18
9.9172735 29.79504 3.8557026 61
9.9373674 29.803328 4.9758677 14
9.9503584 29.7903 6.105125 38
13.224607 39.501328 9.6171083 42
9.9375706 29.6315 8.3743496 37
0.82767946 2.4466805 -0.69208211 19
0.88436574 2.6097472 -0.63616163 28
1.0058068 2.9613149 -0.60791749 23
1.1217446 3.2969863 -0.551588 33
1.297417 3.8067784 -0.49381462 19
1.5399307 4.5080409 -0.41677874 21
1.8616092 5.4404197 -0.30135047 2
2.4963241 7.2828779 -0.13438353 17
4.0495291 11.95695 0.22035408 44
3.9475384 11.635751 0.6439417 8
3.954248 11.635501 1.0751532 16
10.140387 29.770178 3.8615522 61
10.161763 29.781839 4.9840026 28
10.172679 29.762836 6.1139016 25
10.209054 29.801218 7.2726684 19
10.176802 29.656418 8.4012671 19
0.83905399 2.424412 -0.68742341 37
0.91596806 2.6421754 -0.64560956 24
1.0180794 2.9301121 -0.60295647 30
1.1460316 3.2928064 -0.55221373 24
1.3187321 3.7826331 -0.49186471 19
1.5613842 4.4711208 -0.41433838 18
1.8876714 5.3933568 -0.29946637 2
2.5014613 7.1350632 -0.1319751 13
4.1479626 11.971846 0.2211569 23
4.0666571 11.717346 0.65001267 17
4.0386539 11.617022 1.0760248 18
10.362344 29.739901 3.8669145 61
10.383102 29.74934 4.9905729 14
10.393174 29.728159 6.1215343 38
10.385245 29.655632 7.2542219 18
10.404707 29.6448 8.4183483 19
0.85338092 2.4112108 -0.68535286 45
0.94285655 2.6595941 -0.65145832 24
1.033402 2.9101639 -0.60028511 33
1.1644465 3.2737622 -0.55033648 27
1.337109 3.7508962 -0.48893982 22
1.5731307 4.4056969 -0.40928334 15
1.8880157 5.2788324 -0.29381409 2
2.5154512 7.0176573 -0.13012515 19
4.2053256 11.875475 0.21990032 34
4.1636796 11.738335 0.6527341 23
4.1350069 11.63172 1.0800339 18
10.5965 29.758442 3.8786142 37
10.598631 29.715183 4.9968305 14
10.622931 29.717733 6.1345096 39
10.616334 29.650291 7.2708688 37
10.657107 29.715136 8.458725 78
0.86911684 2.4035292 -0.68483526 33
0.94965625 2.6219664 -0.64380997 28
1.0644099 2.9324062 -0.60639101 23
1.1724224 3.2247112 -0.5434534 19
1.3571737 3.7267864 -0.48698995 13
1.5880648 4.3537078 -0.40544853 15
1.9090513 5.2223783 -0.29140663 2
2.5150292 6.8689294 -0.12768181 16
4.2854075 11.838305 0.21976072 21
4.2455273 11.708981 0.6527341 20
4.2032042 11.573341 1.077245 18
10.858312 29.83297 3.8981133 50
10.827475 29.699856 5.0068421 29
10.839783 29.685307 6.1429048 39
10.8728 29.727411 7.3077602 57
10.879603 29.681721 8.4706297 58
0.88989305 2.4082756 -0.68794107 40
0.97064352 2.6225829 -0.64560956 34
1.0672867 2.8790715 -0.59685057 32
1.1943467 3.2166555 -0.5434534 26
1.3713917 3.6855922 -0.48284638 24
1.6086774 4.3163776 -0.40300813 22
1.9312836 5.1737103 -0.28941786 2
2.5390971 6.7875247 -0.12649503 16
4.3846121 11.859503 0.22070314 27
4.3251295 11.679811 0.6527341 17
4.3109274 11.616567 1.0840431 18
11.065262 29.769539 3.8995755 75
11.05625 29.69767 5.0190434 14
11.059114 29.642019 6.1497746 26
14.707034 39.356701 9.6998901 43
8.1112633 21.671503 6.2002692 16
0.90285432 2.3931255 -0.68535286 29
0.98364943 2.6031549 -0.64246029 31
1.0977877 2.8990915 -0.60257488 26
1.2188742 3.2137806 -0.54439199 15
1.3957404 3.6743171 -0.48260266 17
1.6267226 4.2733874 -0.40004486 23
1.9502795 5.1153126 -0.28690574 2
2.5773959 6.7495341 -0.12611109 19
4.4764843 11.852922 0.2211569 34
4.3994989 11.630651 0.65168738 20
4.3828459 11.56832 1.0822999 22
11.284111 29.721251 3.9034755 75
11.279472 29.662224 5.0262399 14
11.286479 29.633938 6.1638942 26
4.2164822 11.047663 2.7300062 8
8.0871534 21.156006 6.0687895 24
0.9174571 2.3813558 -0.68379998 31
0.99759078 2.5853155 -0.63976085 31
1.1165843 2.8876944 -0.60181159 22
1.2320069 3.181246 -0.54032475 15
1.4091543 3.6330206 -0.47845906 22
1.6774487 4.3157811 -0.4050999 20
1.9663811 5.0513196 -0.28407961 14
2.583776 6.6270423 -0.12415642 13
nan nan nan nan
4.5935688 11.89216 0.66812086 3
4.4742789 11.565315 1.0849147 19
11.508551 29.686171 3.9093254 75
11.502724 29.625109 5.0334363 29
4.3084846 11.079248 2.3106971 4
4.2071838 10.796435 2.675118 38
8.0464163 20.616724 5.9300623 22
0.92910898 2.3623083 -0.68017644 37
1.0134715 2.572849 -0.6384111 38
1.1201397 2.837827 -0.59303439 28
1.2345796 3.1229665 -0.53187722 17
1.4330233 3.6194024 -0.47797161 22
1.7023926 4.2910028 -0.4038797 18
1.9735705 4.9669375 -0.28010207 7
2.5708249 6.4602051 -0.12136403 26
nan nan nan nan
4.6479068 11.78734 0.66403866 9
4.5878434 11.617188 1.0927588 17
13.795793 34.862 4.6034932 15
11.719455 29.569792 5.037816 14
4.3929706 11.067147 2.3145132 29
4.1664987 10.475268 2.6026838 32
8.0092764 20.105988 5.7990994 28
0.9333449 2.3252864 -0.67137665 39
1.0357699 2.5765595 -0.64111054 24
1.1369886 2.822654 -0.59150791 31
1.2748276 3.1600697 -0.53969896 13
1.4500766 3.5890634 -0.47529048 26
1.7128708 4.2309952 -0.3993476 17
2.0089507 4.9548883 -0.28020674 4
2.5790017 6.3513126 -0.1196537 21
4.241365 10.556054 0.19857347 5
5.7068205 14.181862 0.80115891 3
4.6591535 11.560852 1.0904927 23
14.048502 34.788769 4.6066618 15
4.4815397 11.081071 1.8931701 22
4.4686475 11.032572 2.31375 17
4.1545177 10.236465 2.5504951 24
4.1914773 10.312033 2.9826307 36
0.957609 2.3383791 -0.67707068 60
1.0330275 2.5187819 -0.62851328 23
1.1454732 2.7874091 -0.58578366 26
1.287835 3.1291728 -0.53594452 15
1.4614798 3.5458179 -0.47090316 27
1.7104249 4.1415901 -0.39202651 21
2.0892947 5.0514803 -0.28648707 14
2.6355233 6.3627129 -0.12021218 15
4.1708469 10.174636 0.19194156 5
4.7794213 11.641845 0.65953779 9
4.7753634 11.614648 1.0986853 17
8.8884172 21.575613 2.8651483 48
4.5700922 11.076905 1.8978633 4
4.2464218 10.277134 2.1614842 28
4.2161851 10.183806 2.5446465 34
4.2382045 10.221847 2.9650311 46
0.9753986 2.3352025 -0.67810595 67
1.0423132 2.4917333 -0.62356436 32
1.158075 2.7630484 -0.58234906 32
1.3012395 3.10007 -0.53250295 17
1.4869679 3.5373583 -0.47114691 24
1.7284679 4.1038427 -0.38958618 23
2.1027732 4.9852448 -0.28355622 19
2.6549761 6.285213 -0.11909522 18
4.1862388 10.012435 0.18942842 5
5.0503387 12.061398 0.68528712 9
4.8694253 11.612264 1.1016486 19
9.0203819 21.469109 2.8592989 72
4.4940925 10.680575 1.8352894 19
4.3356056 10.288847 2.1702616 24
4.21138 9.9745951 2.4996562 18
4.5013127 10.64574 3.0970287 16
0.9878937 2.3194487 -0.67551774 34
1.0596845 2.4843955 -0.62356436 29
1.1773353 2.7548966 -0.58234906 38
1.3259578 3.098175 -0.53375447 17
1.4991149 3.4976981 -0.4672471 16
1.761863 4.1047983 -0.39080635 23
2.1312134 4.9557652 -0.28271887 21
2.6711063 6.2022429 -0.11787355 7
4.0254722 9.442153 0.17916641 10
5.2246079 12.237082 0.69732434 6
4.9542923 11.587147 1.1025201 17
9.1731615 21.412914 2.8602738 8
4.5529656 10.612636 1.8290319 21
4.4716487 10.408048 2.201936 22
nan nan nan nan
4.0654378 9.4307709 2.7517643 27
1.0002154 2.3036351 -0.67292953 45
1.0770031 2.4769368 -0.62356436 27
1.1944937 2.7432184 -0.58158582 27
1.3391213 3.0709698 -0.53062576 17
1.5250864 3.4907854 -0.46773461 16
1.8064488 4.1289048 -0.39429256 19
2.137645 4.8789444 -0.27916002 28
2.6749561 6.0937223 -0.11616322 10
4.3007803 9.9005766 0.18841618 12
5.3500023 12.298306 0.70287192 3
5.1289997 11.767797 1.1230888 13
9.3568192 21.437307 2.8719733 8
4.6330099 10.599499 1.8321607 18
4.3394361 9.9090004 2.1027153 20
4.5175638 10.301069 2.5968351 24
4.0969062 9.3285933 2.7300234 36
1.0018057 2.2649727 -0.66361207 34
1.0985721 2.4802399 -0.6262638 27
1.2120233 2.7312233 -0.58082259 27
1.3412755 3.0182223 -0.52311689 19
1.5544618 3.4930186 -0.46944076 28
1.8239685 4.092855 -0.39202651 21
2.1667688 4.8529596 -0.27853197 30
2.7082107 6.0571184 -0.11581416 15
4.2783232 9.6636868 0.18447194 10
5.2544098 11.851662 0.67942542 18
5.2534475 11.832766 1.132676 9
4.6833344 10.528843 1.4149032 29
4.6747398 10.49472 1.819646 28
4.5187535 10.130248 2.1561418 13
4.5510154 10.188232 2.5761397 20
4.5249376 10.110892 2.9681368 34
1.0295001 2.2843423 -0.67137665 33
1.1046392 2.4476421 -0.61996514 31
1.227352 2.7157543 -0.57929617 27
1.3593453 3.0036237 -0.52217829 17
1.5681516 3.4585791 -0.46627215 16
1.8524956 4.0800223 -0.39202651 21
2.189003 4.8144641 -0.27717125 28
2.7205894 5.9725513 -0.11455759 17
4.242898 9.4101181 0.18017864 7
5.3333111 11.811984 0.67921609 18
5.262845 11.634241 1.1171623 19
4.7041144 10.384609 1.3997915 30
4.7778974 10.532814 1.8318479 13
4.6803408 10.298636 2.1988828 34
4.7350397 10.404531 2.6391258 48
4.5824394 10.055246 2.9608901 20
1.0361623 2.2579677 -0.66568261 45
1.1220868 2.4418378 -0.62041503 38
1.2471025 2.7089026 -0.57967776 26
1.3860706 3.006618 -0.52436841 22
1.5949868 3.4550331 -0.4672471 24
1.8792639 4.0633726 -0.39167792 21
2.194865 4.7392554 -0.27371708 33
2.7174325 5.8595614 -0.11274255 15
4.3418765 9.4529562 0.18157484 7
5.5241404 12.010351 0.69282347 15
4.9018202 10.642647 1.0251257 5
4.7532048 10.301048 1.3929666 40
4.6855931 10.140562 1.769274 12
4.7058096 10.170326 2.1782756 28
4.9501662 10.678856 2.7174089 28
5.1462474 11.08664 3.2750962 4
1.0519006 2.2506788 -0.66568261 45
1.1349764 2.4251196 -0.61816555 41
1.2493138 2.6645794 -0.57204539 30
1.4019885 2.9861403 -0.52249116 28
1.6199116 3.445611 -0.46749085 19
1.8948514 4.0231166 -0.38906324 23
2.2227862 4.7129788 -0.27308905 22
2.7582736 5.8404469 -0.11274255 15
4.0934129 8.7504168 0.16862516 4
5.5985403 11.951594 0.69167209 9
4.9886975 10.635221 1.0277405 33
4.8765049 10.377207 1.4078349 35
4.6847825 9.9556761 1.7426801 13
4.7490816 10.078619 2.1656821 11
4.8033109 10.175279 2.5977349 22
4.4078321 9.324851 2.76367 18
1.0675867 2.2432809 -0.66568261 37
1.1619394 2.4382472 -0.62356436 41
1.2678857 2.6557925 -0.57204539 38
1.4176896 2.9655864 -0.52061397 26
1.6456412 3.437799 -0.46797833 13
1.9125518 3.9882331 -0.38697147 18
2.2374766 4.6595378 -0.27089092 22
2.7053897 5.6264143 -0.10897283 16
4.3840036 9.2036552 0.17794473 12
5.6938739 11.937458 0.69313747 12
5.158133 10.799699 1.0470891 6
4.9094248 10.260536 1.3966229 14
4.6713839 9.7499237 1.7123318 9
3.4351013 7.1599817 1.5436448 24
4.8362432 10.062458 2.5774894 22
4.4677978 9.2834053 2.7605641 9
1.0747995 2.2183874 -0.66050619 34
1.1678754 2.4072831 -0.6177156 30
1.2863958 2.6468763 -0.57204539 27
1.4323078 2.9431832 -0.51842386 32
1.6469922 3.3798296 -0.4616411 20
1.9228677 3.9389746 -0.38348526 24
2.2576723 4.6186829 -0.26942554 22
2.7507572 5.6199622 -0.10921716 7
4.401906 9.0774622 0.17609477 15
5.735199 11.811178 0.68811321 9
5.121016 10.532281 1.0246029 9
4.8853126 10.029704 1.3698115 14
4.9436965 10.136084 1.7861689 6
3.6624813 7.4992347 1.6222582 48
4.7094045 9.6258392 2.4740117 32
7.6924229 15.702181 4.6851425 28
1.0936784 2.2177601 -0.66257679 58
1.1863786 2.4025657 -0.61861545 33
1.3091955 2.6466298 -0.57395351 31
1.4405454 2.9083304 -0.51404375 25
1.6749579 3.3771408 -0.46285981 24
1.9434316 3.9133036 -0.38226506 24
2.2889724 4.6010208 -0.26932088 20
2.7319686 5.4842772 -0.10694835 19
4.5457129 9.2096882 0.17927112 17
5.1184235 10.356343 0.60542244 25
5.1051664 10.315919 1.0069975 13
5.1474266 10.383073 1.4229466 9
4.8615112 9.7934542 1.7317297 9
3.6701798 7.383822 1.6027957 13
4.7999935 9.6441565 2.4870591 14
4.5383649 9.1025572 2.7253647 11
1.1108676 2.2135241 -0.66361207 59
1.1917478 2.3715885 -0.61276674 29
1.3192384 2.6218734 -0.57051897 36
1.4727517 2.9231551 -0.51842386 32
1.6832889 3.3352382 -0.45871624 27
1.9671097 3.8925276 -0.38156784 28
2.3022022 4.5496917 -0.26722744 27
2.8009291 5.5257144 -0.1081351 21
4.422565 8.8086042 0.17204583 13
5.1179276 10.180291 0.59715331 17
5.2263436 10.377899 1.0165845 48
5.0115113 9.9383526 1.366643 16
3.9415584 7.806345 1.3850709 3
3.4690995 6.8587255 1.4940345 10
4.7377768 9.3548517 2.4209232 44
4.8850565 9.6331434 2.8941145 8
1.1267873 2.2076323 -0.66412973 56
1.2043158 2.3564804 -0.6109671 41
1.3366144 2.6108522 -0.57013732 27
1.4859132 2.8987398 -0.51592094 25
1.699278 3.3092782 -0.45676634 22
1.9814824 3.8538933 -0.3791275 26
2.3265953 4.5193019 -0.26639003 18
2.8146908 5.4580388 -0.10719268 16
4.5148826 8.8380604 0.17323259 13
5.192513 10.151425 0.59757197 23
5.1569986 10.068989 0.98974061 5
4.9702263 9.6876431 1.3369068 16
4.9085236 9.5550556 1.7013814 24
3.6076243 7.0106549 1.532578 33
4.8877611 9.4861202 2.4636641 12
nan nan nan nan
1.1202914 2.1566541 -0.65118873 36
1.2310379 2.3668203 -0.61591601 25
1.3430202 2.5788209 -0.56517625 37
1.514841 2.9037952 -0.51873678 26
1.7122284 3.2779803 -0.4540852 26
1.9880233 3.8011258 -0.37529263 18
2.3421917 4.4706926 -0.26450595 18
2.8109252 5.3585682 -0.10562197 16
4.4381523 8.5401678 0.16799687 9
5.2640996 10.112237 0.5974673 5
5.1948447 9.9664564 0.98329109 3
5.0845795 9.7424603 1.3493375 3
5.168961 9.8873091 1.7670839 7
3.7065594 7.0809617 1.5535669 20
3.6755993 7.0128765 1.8279524 29
5.0315223 9.5836496 2.9003263 22
1.1362239 2.1504881 -0.6517064 40
1.2447987 2.3530002 -0.61456633 36
1.3605201 2.5674098 -0.56479466 29
1.5193367 2.8634846 -0.51341796 12
1.739368 3.272656 -0.45506018 37
2.003005 3.7639377 -0.37302658 16
2.3761613 4.4595213 -0.26481998 11
2.8341331 5.3100901 -0.10506349 21
4.0233417 7.6084046 0.15023032 1
5.0822277 9.5986643 0.56920594 17
5.1999002 9.8084879 0.97126353 1
5.5209889 10.396595 1.4453706 27
5.0848432 9.5631971 1.7154605 9
3.7174501 6.9797463 1.5371574 22
3.6853409 6.9107361 1.8081566 14
nan nan nan nan
1.1442648 2.12869 -0.64756525 33
1.2532923 2.3285887 -0.6105172 38
1.3681672 2.5388372 -0.56059688 31
1.5228986 2.82125 -0.50778633 27
1.7593414 3.2551939 -0.45432895 20
2.0330262 3.7568712 -0.3737238 16
2.4013493 4.4301124 -0.26408726 9
2.845381 5.2427211 -0.10412105 24
4.4267907 8.2317686 0.1631451 11
5.5002947 10.210891 0.60782987 8
5.3815584 9.9779501 0.99183232 11
3.6956265 6.8434849 0.95496827 20
5.1005144 9.4292669 1.6979399 10
3.6305156 6.7033067 1.4818227 36
3.65082 6.7323761 1.7681154 2
5.2015409 9.5760708 2.9199965 38
1.1726215 2.146282 -0.65532982 34
1.2625657 2.3080366 -0.60736787 31
1.3849136 2.5275025 -0.56021523 27
1.5354161 2.7986953 -0.50559622 27
1.7766794 3.2344437 -0.45311025 16
2.0393484 3.7080302 -0.37023759 18
2.4073579 4.3699288 -0.26147047 14
2.8887277 5.2372398 -0.1044003 18
4.0860081 7.4725347 0.1486596 13
5.5169187 10.076861 0.60207289 20
3.7877307 6.909843 0.68940192 1
3.7242045 6.7827168 0.95009351 8
5.4100995 9.8409414 1.7786602 3
3.6429217 6.6182437 1.4684662 21
3.6617556 6.6442227 1.751469 19
4.923965 8.9197454 2.7300234 20
1.1885148 2.1397319 -0.65584749 33
1.2786481 2.299166 -0.60736787 31
1.3954 2.5060103 -0.55754393 25
1.5457736 2.7726512 -0.50278044 25
1.8050239 3.2323604 -0.45457271 27
2.0612965 3.6867466 -0.36954033 20
2.4233871 4.3290439 -0.26000506 8
2.9320662 5.2291546 -0.10464463 20
4.333952 7.7993846 0.15574528 11
5.6028605 10.070492 0.603957 11
5.4546089 9.7879372 0.98032773 10
3.9530947 7.0848427 0.99616015 20
5.2601929 9.4158697 1.7082645 39
3.6746566 6.5669513 1.4627419 16
3.6689999 6.5487933 1.733023 40
5.2123399 9.2920771 2.8547742 25
1.1983044 2.1231804 -0.65325934 45
1.2875575 2.278533 -0.60421854 30
1.4060909 2.4842484 -0.55487263 24
1.5787275 2.7858522 -0.5071606 23
1.8142507 3.1975532 -0.45140409 27
2.079109 3.6584082 -0.36814582 18
2.4594767 4.3224349 -0.26063308 6
2.9458127 5.1708512 -0.10387672 20
4.0912843 7.2431149 0.14520402 16
5.5471802 9.8086023 0.59055901 8
5.498528 9.7107067 0.9763186 5
3.7644861 6.6374807 0.93693155 15
nan nan nan nan
3.6377635 6.3984227 1.4306859 26
3.7522418 6.5890603 1.7505692 25
5.3038759 9.3024511 2.8692679 25
1.2092528 2.1080601 -0.65118873 45
1.3053743 2.2728684 -0.60511833 30
1.4361274 2.4964938 -0.55983365 23
1.5941943 2.7679157 -0.50590914 23
1.8256199 3.165894 -0.44872296 31
2.1026042 3.6403549 -0.36779723 16
2.4546008 4.2446437 -0.25696957 19
2.9608014 5.1138163 -0.10314372 22
4.0889807 7.1224642 0.14335407 21
5.7508793 10.005136 0.60479438 5
5.4250655 9.4268723 0.95156634 17
2.5874124 4.4887643 0.63615805 8
5.2795725 9.1481771 1.6729103 10
3.6587713 6.3320737 1.421527 20
3.7717917 6.5171666 1.7384218 21
5.3841829 9.2919445 2.8775504 40
1.227831 2.1062431 -0.65325934 45
1.3261206 2.2721157 -0.60736787 31
1.4346958 2.4542041 -0.55258286 29
1.6084902 2.7481947 -0.50434476 21
1.8466738 3.1513586 -0.44847921 28
2.1081803 3.5933068 -0.36448529 24
2.4649465 4.1946878 -0.2549808 14
2.9791899 5.0637231 -0.10255034 22
4.1224818 7.0661077 0.14279559 24
5.7964158 9.9233503 0.60228223 5
nan nan nan nan
2.5775478 4.4003644 0.62616473 12
3.8963065 6.6437578 1.2198761 24
4.0706887 6.9327836 1.5627258 13
3.7340951 6.3519058 1.70108 21
nan nan nan nan
1.2444746 2.1009443 -0.65429455 45
1.3439388 2.2661545 -0.60826772 22
1.4704109 2.4764562 -0.55983365 27
1.6160544 2.7185051 -0.50090319 25
1.8696437 3.1400964 -0.44872296 26
2.1199524 3.5562532 -0.36221924 30
2.4801352 4.1555171 -0.25362006 4
3.0062604 5.0290694 -0.1022711 20
4.1348042 6.9776721 0.14157392 34
4.2292085 7.1284709 0.43438846 5
2.6035283 4.3813562 0.44588876 11
2.5414705 4.2718267 0.61032176 13
4.0031061 6.7206049 1.2389611 7
4.0817757 6.8418112 1.5486058 23
3.8842745 6.5030217 1.7487695 23
5.9996071 10.03256 3.1322281 7
1.2557589 2.0874584 -0.65274167 31
1.3482732 2.2385914 -0.60331875 10
1.4856369 2.4627674 -0.55907035 37
1.6329527 2.703774 -0.50027746 30
1.8694057 3.0916238 -0.44360444 27
2.1416299 3.5362546 -0.3616963 29
2.4945865 4.1141925 -0.25215468 6
3.0279684 4.9879794 -0.10185225 20
4.1462855 6.886961 0.14031734 26
2.6126893 4.3345275 0.26523864 13
2.4407852 4.0445428 0.41329253 13
2.5486403 4.2166042 0.60495949 25
5.9112573 9.7683372 1.8083826 16
3.7620194 6.2093859 1.4112234 25
3.9437327 6.4990702 1.7550683 23
4.1977963 6.9095941 2.1663156 15
1.2622426 2.0654533 -0.64860052 40
1.3750564 2.2474091 -0.60826772 24
1.4761233 2.408813 -0.54914832 30
1.6517888 2.6923079 -0.50027746 26
1.8971777 3.0886467 -0.44506687 27
2.1547837 3.5025499 -0.35977891 29
2.5085862 4.0728679 -0.25068927 14
3.0606201 4.9633121 -0.10178243 22
4.1932211 6.8561401 0.14028244 19
2.610554 4.2633791 0.26199383 9
2.3544171 3.8405569 0.39411828 12
2.5468533 4.1479602 0.59764731 11
4.4720645 7.2749314 1.3525326 17
3.8114488 6.1930046 1.4135132 15
3.9583318 6.4216123 1.7415712 31
6.1593914 9.9806938 3.142581 7
1.2654239 2.0385363 -0.64290655 31
1.3876266 2.2327893 -0.60691798 46
1.4980901 2.4067836 -0.55105644 27
1.6663642 2.6740053 -0.499026 25
1.9102865 3.0618539 -0.44311696 17
2.1696811 3.472214 -0.35821009 21
2.5051806 4.0044584 -0.24754909 20
3.0835199 4.9231825 -0.10139848 18
4.2536502 6.8470812 0.14070129 9
2.4482763 3.9363797 0.24294353 18
2.3411541 3.7597558 0.38749442 16
2.5358315 4.0660725 0.58838522 11
4.2821169 6.8581495 1.2805728 80
nan nan nan nan
4.0537357 6.4747577 1.7636163 14
5.4706926 8.7278042 2.7600465 22
1.2847753 2.0378239 -0.64549476 35
1.3886173 2.1999772 -0.60061932 19
1.4707953 2.3265688 -0.53502846 20
1.6765403 2.6489537 -0.49652308 26
1.9199286 3.0299978 -0.44043583 27
2.1949348 3.4586654 -0.3583844 26
2.5202215 3.9666433 -0.24629304 18
3.114593 4.8964753 -0.10129377 22
2.6932757 4.2685843 0.088099748 12
2.4874291 3.937767 0.24409491 13
