# .PCD v0.7 - Point Cloud Data file format
VERSION 0.7
FIELDS x y z intensity
SIZE 4 4 4 4
TYPE F F F F
COUNT 1 1 1 1
WIDTH 1484
HEIGHT 1
VIEWPOINT 0 0 0 1 0 0 0
POINTS 1484
DATA ascii
-0.14467691 3.5710602 -0.82512051 6
-0.1682677 4.207818 -0.81857067 8
-0.19754784 5.0056586 -0.79343569 4
-0.23960742 6.1809053 -0.75948983 2
-0.31200582 8.1588488 -0.71432841 2
-0.52189726 13.837159 -0.72569048 4
nan nan nan nan
-1.0702169 26.190151 0.45753229 59
nan nan nan nan
-1.7445325 44.009197 3.8533297 21
nan nan nan nan
-1.6950461 43.923389 6.9619603 35
-2.1862805 57.69791 11.223386 61
nan nan nan nan
nan nan nan nan
-0.10961419 3.2030671 -0.85876161 32
-0.12121926 3.5972815 -0.83096927 15
-0.13727072 4.1598353 -0.80903018 4
-0.16080408 4.9516349 -0.78467536 4
-0.19721565 6.172472 -0.7582711 2
-0.2526738 8.0851545 -0.70770466 2
-0.4144868 13.489114 -0.70726818 4
nan nan nan nan
-0.8895154 26.260939 0.45864925 43
-1.4724764 44.154827 2.3153429 43
nan nan nan nan
nan nan nan nan
-1.3874257 43.904541 6.9572673 35
nan nan nan nan
nan nan nan nan
nan nan nan nan
-0.086986937 3.1940985 -0.8561734 35
-0.095165983 3.5629754 -0.82287103 31
-0.10797098 4.1508789 -0.80712205 19
-0.1249706 4.9032679 -0.77685362 4
-0.15203531 6.0903516 -0.74803412 2
-0.19322991 7.9632292 -0.69689733 2
-0.30902913 13.016465 -0.6823563 4
nan nan nan nan
nan nan nan nan
-1.2284129 46.599838 2.4430428 47
nan nan nan nan
nan nan nan nan
nan nan nan nan
nan nan nan nan
nan nan nan nan
nan nan nan nan
-0.064804658 3.2004223 -0.85772634 43
-0.069637768 3.5304303 -0.81522268 31
-0.078352891 4.1181622 -0.80063456 21
-0.090370864 4.8842707 -0.77372491 7
-0.10815695 6.0158429 -0.73877203 2
-0.13741803 7.8727241 -0.68887895 2
-0.21252157 12.682812 -0.66477138 3
nan nan nan nan
nan nan nan nan
nan nan nan nan
nan nan nan nan
-0.79689574 43.897053 5.390769 24
nan nan nan nan
nan nan nan nan
nan nan nan nan
nan nan nan nan
-0.042408671 3.1969333 -0.85669106 37
-0.045063503 3.5366764 -0.81657237 33
-0.049458068 4.0479283 -0.78689629 21
-0.05670907 4.8492188 -0.76809335 4
-0.065656655 5.9707971 -0.73316604 2
-0.081580162 7.7898154 -0.68155789 2
-0.12281549 12.344448 -0.64697713 3
-0.35929009 38.840424 -0.67799109 52
nan nan nan nan
nan nan nan nan
-0.52057052 43.861359 3.8376415 20
nan nan nan nan
nan nan nan nan
nan nan nan nan
nan nan nan nan
nan nan nan nan
-0.02053453 3.1797616 -0.8520323 32
-0.021162482 3.5661318 -0.82332087 35
-0.021310072 4.0697708 -0.79109418 34
-0.022760667 4.8297429 -0.76496464 18
-0.024788603 5.9175086 -0.72658509 2
-0.028112734 7.6706481 -0.67109919 2
-0.035565224 11.985499 -0.62813622 3
-0.095341615 39.013943 -0.6809929 52
nan nan nan nan
nan nan nan nan
nan nan nan nan
nan nan nan nan
-0.16797745 43.744392 6.928483 34
nan nan nan nan
nan nan nan nan
nan nan nan nan
0.001661857 3.174032 -0.85047942 27
0.0037016773 3.535013 -0.81612247 17
0.0063801934 4.0619678 -0.78956765 32
0.0099701481 4.7606478 -0.75401419 15
0.016418681 5.8798208 -0.72195405 4
0.025184464 7.5949478 -0.66447538 2
0.044398271 11.562048 -0.60594577 3
0.17710197 39.029655 -0.68127215 52
0.029092439 41.673641 0.72741628 16
nan nan nan nan
0.084109642 43.812569 3.8331096 20
0.10688435 43.74535 5.3712697 48
nan nan nan nan
nan nan nan nan
nan nan nan nan
nan nan nan nan
0.022967935 3.1333795 -0.83960903 30
0.02782324 3.5427005 -0.81792206 19
0.034653977 4.0520091 -0.78765959 29
0.042846937 4.7209558 -0.74775684 22
0.055869404 5.8200231 -0.71464187 2
0.077221811 7.4989572 -0.65610844 2
0.12156567 11.233925 -0.58877957 3
0.44226575 38.983551 -0.6805042 52
0.3006795 39.152885 0.68343627 14
nan nan nan nan
0.38198322 43.77113 3.8296232 20
nan nan nan nan
nan nan nan nan
nan nan nan nan
nan nan nan nan
nan nan nan nan
0.044761036 3.1273477 -0.83805609 45
0.052036598 3.5073464 -0.80982387 23
0.062299177 4.0104446 -0.77964556 29
0.074089453 4.6138854 -0.73086196 23
0.096397944 5.8135362 -0.7139107 2
0.12778246 7.3946462 -0.64704424 2
0.19472831 10.937255 -0.57328814 3
0.71345878 38.927532 -0.67959672 52
0.57025838 38.893898 0.67896843 14
nan nan nan nan
nan nan nan nan
nan nan nan nan
nan nan nan nan
nan nan nan nan
nan nan nan nan
nan nan nan nan
0.066346154 3.1153703 -0.83495027 27
0.076266147 3.4952078 -0.80712444 27
0.089678973 3.9824336 -0.7743029 26
0.10552724 4.5796833 -0.72554308 25
0.13553469 5.7512012 -0.7063548 2
0.17756365 7.3178854 -0.64042038 2
0.26444271 10.668079 -0.5592621 3
0.98409361 38.877628 -0.67882884 52
0.84063131 38.836987 0.67806089 14
nan nan nan nan
nan nan nan nan
nan nan nan nan
nan nan nan nan
nan nan nan nan
nan nan nan nan
nan nan nan nan
0.087655522 3.0993826 -0.83080912 28
0.10055156 3.4906945 -0.80622464 27
0.11672671 3.9561992 -0.76934189 37
0.1367261 4.5531664 -0.72147578 24
0.17356057 5.6806688 -0.69782394 2
0.22653529 7.2487588 -0.63449377 2
0.33003801 10.386497 -0.544608 3
1.2532917 38.801853 -0.67764205 52
1.1099129 38.766212 0.67694396 14
nan nan nan nan
nan nan nan nan
1.3253803 43.63007 5.35957 23
nan nan nan nan
nan nan nan nan
nan nan nan nan
nan nan nan nan
0.10949544 3.1044869 -0.83236206 21
0.12373369 3.4568002 -0.7985763 34
0.14398348 3.9454787 -0.76743382 34
0.16653469 4.4988022 -0.71302837 24
0.20948859 5.5801344 -0.685637 2
0.27271974 7.1315265 -0.62438375 3
0.38985318 10.056634 -0.5274418 3
1.462442 37.221607 -0.65020686 47
1.3811129 38.773502 0.67722315 14
nan nan nan nan
1.6003553 43.643848 3.8209078 20
nan nan nan nan
nan nan nan nan
nan nan nan nan
nan nan nan nan
nan nan nan nan
0.13043204 3.0862761 -0.82770336 37
0.14853013 3.4714277 -0.80217552 22
0.17067167 3.924763 -0.76361769 29
0.19715653 4.4797692 -0.71021259 36
0.24508406 5.5031767 -0.67637491 2
0.31997961 7.0737185 -0.61950302 3
0.44599232 9.7464123 -0.51132232 3
nan nan nan nan
1.6510699 38.746937 0.67694396 14
nan nan nan nan
nan nan nan nan
nan nan nan nan
1.9515082 43.47773 6.8931293 34
nan nan nan nan
nan nan nan nan
nan nan nan nan
0.15181549 3.0930345 -0.8297739 22
0.17186633 3.4644973 -0.80082583 23
0.19541179 3.8842945 -0.75598526 31
0.22794782 4.4842415 -0.71115112 22
0.27887464 5.4300113 -0.66760033 2
0.36273211 6.9679127 -0.61043882 3
0.49931455 9.4958315 -0.49834302 3
nan nan nan nan
1.9155639 38.750774 0.67722315 14
nan nan nan nan
nan nan nan nan
2.2249172 43.470222 5.3444591 23
2.2473862 43.46344 6.8931293 34
nan nan nan nan
nan nan nan nan
nan nan nan nan
0.17134993 3.0552521 -0.81993878 27
0.19516777 3.447648 -0.79722661 27
0.22106239 3.8573554 -0.75102425 36
0.25605252 4.4273229 -0.70239085 24
0.31376687 5.3764071 -0.66126311 2
0.40690804 6.8896317 -0.60381496 3
0.55799717 9.3645153 -0.491644 3
1.9666141 32.715954 -0.57208991 35
2.1837766 38.696526 0.67652506 14
nan nan nan nan
nan nan nan nan
2.6932316 46.287514 5.6930046 28
nan nan nan nan
nan nan nan nan
nan nan nan nan
nan nan nan nan
0.19121432 3.0308449 -0.81372708 27
0.21848817 3.4345326 -0.79452717 30
0.24685235 3.8380854 -0.74758971 24
0.28567663 4.405715 -0.69926214 26
0.34766805 5.3186221 -0.65443844 2
0.44593146 6.7674174 -0.59335625 3
0.61459672 9.2288647 -0.48473567 3
nan nan nan nan
2.4513626 38.640427 0.67582703 14
2.4898736 38.924923 2.044138 33
nan nan nan nan
nan nan nan nan
nan nan nan nan
nan nan nan nan
nan nan nan nan
nan nan nan nan
0.21277423 3.0352175 -0.81528002 23
0.24067722 3.4076529 -0.78867847 17
0.27060288 3.803025 -0.74110222 28
0.31339908 4.3721433 -0.69425625 31
0.37891483 5.2348886 -0.64444512 2
0.48997882 6.7204237 -0.58952147 3
0.66365159 9.0372295 -0.47489652 3
nan nan nan nan
2.7193515 38.694656 0.67708355 14
nan nan nan nan
nan nan nan nan
3.1252344 43.386917 5.3410459 47
3.1449802 43.344341 6.8831177 33
nan nan nan nan
nan nan nan nan
2.273767 30.597301 8.2211285 17
0.23076166 2.9990282 -0.8059625 32
0.26190844 3.3806779 -0.78282976 27
0.29638135 3.7912567 -0.7391941 24
0.34422469 4.3737874 -0.69488198 28
0.41093281 5.1866736 -0.63883913 4
0.52779198 6.6176286 -0.5808059 3
0.71487403 8.8850555 -0.46715081 3
nan nan nan nan
3.014699 39.001705 0.68280792 14
3.844831 49.404613 2.5970151 52
nan nan nan nan
3.4246144 43.320507 5.3356838 23
3.446877 43.31345 6.8818655 33
nan nan nan nan
2.4693618 30.624445 7.0931573 17
2.4879475 30.588383 8.2231989 17
0.25185487 2.999269 -0.80648017 35
0.28320649 3.3515816 -0.7765311 16
0.31901875 3.7519839 -0.73194337 33
0.3670823 4.2906475 -0.68205434 16
0.44184414 5.1223688 -0.63128328 4
0.56846648 6.5502644 -0.57522792 3
0.76334912 8.7426949 -0.45992842 3
nan nan nan nan
3.7616971 44.703178 0.78305459 20
nan nan nan nan
3.7003293 43.340168 3.8055682 20
nan nan nan nan
nan nan nan nan
3.1532087 36.187016 7.0606966 19
2.0006568 22.821865 5.2890496 9
2.69542 30.563042 8.2211285 17
0.27051833 2.9782457 -0.8013038 31
0.30317828 3.3185256 -0.76933265 25
0.34412485 3.7379353 -0.7296536 33
0.39047334 4.2171693 -0.67079103 22
0.47173136 5.0658755 -0.62470233 3
0.6067344 6.4667897 -0.56825542 3
0.81348056 8.6218243 -0.45385748 3
1.6190964 17.064753 -0.29920405 6
4.0714922 44.651932 0.78263569 20
nan nan nan nan
3.9976096 43.339775 3.8078344 20
nan nan nan nan
4.0385985 43.206741 6.873105 33
2.1447423 22.816486 4.454627 7
2.8967085 30.586979 7.0931573 17
2.9054277 30.508862 8.2118111 17
0.28603336 2.9224505 -0.78680992 35
0.32423776 3.2949953 -0.76438373 27
0.36943945 3.7276268 -0.72812718 33
0.42029688 4.2182717 -0.67141682 22
0.50372285 5.0288796 -0.62055874 1
0.64506763 6.3949966 -0.56232882 3
0.86660433 8.5463867 -0.45019394 3
1.5611757 15.316297 -0.26873216 10
4.3776484 44.566696 0.78165841 20
nan nan nan nan
nan nan nan nan
4.6075492 46.080441 5.6861801 28
3.0788612 30.629919 4.8757501 13
3.1017613 30.696232 5.9971271 84
3.1105697 30.569889 7.0940571 17
3.1177595 30.482071 8.2102585 17
0.30521935 2.9088545 -0.7837041 57
0.34580261 3.2790852 -0.7612344 23
0.39441612 3.7151957 -0.72621906 27
0.44659021 4.1857715 -0.66672373 22
0.53670007 5.0055032 -0.61812133 1
0.68414176 6.3388338 -0.55779672 3
0.91375756 8.424962 -0.44412294 3
1.5623356 14.334918 -0.25169861 15
4.6614366 44.27652 0.77712077 19
nan nan nan nan
nan nan nan nan
3.2810922 30.651384 3.7850182 11
3.292412 30.605715 4.8754373 27
3.3151417 30.666019 5.9956002 84
3.3186274 30.498999 7.0828094 69
3.3340437 30.49221 8.219058 17
0.32831323 2.9316108 -0.79043341 60
0.36672541 3.2591624 -0.75718528 18
0.41769281 3.688942 -0.72163963 30
0.47379208 4.1648874 -0.663908 22
0.56081253 4.9069667 -0.60642189 3
0.72109181 6.270565 -0.55221879 3
0.95971274 8.307271 -0.43826136 3
1.5985098 13.773439 -0.24202998 19
4.9655404 44.199173 0.77635282 19
nan nan nan nan
nan nan nan nan
2.6019504 22.801676 2.8178632 7
3.5087142 30.605532 4.8791914 13
4.5840282 39.801022 7.7876787 75
3.5298994 30.461535 7.0796599 86
3.546391 30.464352 8.2180223 17
0.34877312 2.9292471 -0.79043341 51
0.38669279 3.2333035 -0.75178647 18
0.44226384 3.6761901 -0.71973157 21
0.49882829 4.128139 -0.65858912 21
0.59649092 4.9147553 -0.60788435 3
0.75760818 6.2060471 -0.54698944 3
0.99969882 8.1536703 -0.43051565 3
1.6440381 13.35111 -0.23480467 13
5.2545447 44.000618 0.77349067 19
nan nan nan nan
2.7469175 22.799402 2.0091143 6
3.7073033 30.590763 3.783556 11
3.7198946 30.560684 4.8760629 13
3.9109454 31.990608 6.2646413 13
3.7429504 30.440018 7.0805597 86
3.7568696 30.421595 8.2133636 17
0.36582956 2.8999078 -0.7831865 43
0.4038679 3.1879928 -0.74188864 35
0.4584882 3.5990078 -0.70523006 21
0.52713478 4.1206374 -0.65796345 21
0.61814165 4.8120251 -0.5956974 3
0.78662306 6.089952 -0.53722799 3
1.041698 8.0316133 -0.42444465 3
1.6858158 12.9447 -0.22785862 4
5.5465398 43.843822 0.77139634 19
nan nan nan nan
3.9062095 30.619938 2.7006078 29
3.9207766 30.564135 3.783556 35
3.932653 30.530052 4.8754373 27
4.1304097 31.933323 6.2589169 13
3.9558735 30.417009 7.0814595 86
3.9698968 30.400373 8.2149172 17
0.38453484 2.8857937 -0.78008062 25
0.42353037 3.1657801 -0.73738962 38
0.48726821 3.6229591 -0.71057272 22
0.55060267 4.0777044 -0.6517061 22
0.64798766 4.7800536 -0.59228504 11
0.81028551 5.9461217 -0.5250262 6
1.0741917 7.8519874 -0.41533819 8
0.76128566 5.5431151 -0.097663663 23
nan nan nan nan
nan nan nan nan
nan nan nan nan
4.1361899 30.551758 3.785506 23
4.1467614 30.509684 4.8766885 27
4.1916013 30.719063 6.0265117 12
4.1691866 30.396374 7.0832591 86
4.1836157 30.383398 8.2180223 17
0.40010574 2.8505161 -0.77128083 19
0.44806683 3.1801136 -0.74143875 25
0.50979668 3.6000307 -0.70675659 18
0.57405317 4.0385585 -0.64607441 26
0.6768567 4.7439699 -0.58838522 19
0.84782124 5.9127083 -0.52258581 6
0.79922187 5.5530815 -0.29402342 67
0.79796135 5.5238113 -0.097419336 27
1.5256023 10.841518 0.19110386 3
1.5534415 10.997586 0.58208054 2
4.3283186 30.526905 2.6974702 59
4.3482456 30.514277 3.7845309 11
4.3593636 30.478035 4.8763757 13
4.3850193 30.543303 5.9978905 48
4.3904753 30.430176 7.0981059 35
4.396184 30.357277 8.219058 17
0.42140573 2.8572094 -0.77386898 23
0.46825981 3.1634138 -0.73828942 20
0.52653939 3.5400691 -0.69568962 16
0.59989864 4.0188227 -0.6435715 29
0.69878131 4.6645284 -0.5791232 21
0.83302969 5.5342789 -0.48964092 51
0.83558369 5.5315681 -0.29318607 37
0.83740455 5.5240374 -0.097524047 34
1.5787385 10.678283 0.18841618 7
4.5375967 30.580761 1.6202167 17
4.5442662 30.515652 2.6992133 59
4.5611696 30.483177 3.7845309 35
4.5746884 30.464436 4.8791914 13
4.6195159 30.653662 6.0257483 24
4.6150498 30.47971 7.117002 100
4.6062546 30.314388 8.2159519 17
0.44075343 2.850379 -0.7728337 12
0.49003589 3.1581416 -0.73783952 13
0.55033374 3.5304873 -0.69454479 17
0.62427747 3.991117 -0.63981706 19
0.72578847 4.6242366 -0.57473588 15
0.87288457 5.536201 -0.49033821 42
0.87386632 5.5236278 -0.2930814 35
0.87469262 5.5101576 -0.09738443 46
1.65845 10.700596 0.18900958 3
2.1923993 14.096956 0.74767154 10
4.7584085 30.491058 2.6999104 59
4.7769599 30.4702 3.7869682 35
4.7872591 30.431757 4.8791914 27
4.835855 30.636177 6.028801 24
5.3785849 33.920822 7.9290752 24
4.8208265 30.300568 8.2211285 17
0.4563213 2.8205342 -0.76558679 22
0.51238269 3.1565673 -0.73828942 13
0.56959718 3.493619 -0.6880573 20
0.6514895 3.9827619 -0.63919127 19
0.75773478 4.6170979 -0.57449216 17
0.90763754 5.5124378 -0.48876941 45
0.91436231 5.5292153 -0.29370943 62
0.9121576 5.4979987 -0.097279713 55
1.5561217 9.5971804 0.16970721 1
2.2728021 13.970912 0.7418099 9
4.9711604 30.457094 2.6999104 59
4.9882665 30.428276 3.7859933 11
4.9995818 30.397594 4.8791914 27
5.2362704 31.732916 6.2516661 13
5.6475635 34.114136 7.9830637 25
5.033514 30.273796 8.2231989 17
0.46956447 2.7791827 -0.755234 34
0.53180194 3.1375427 -0.73469019 20
0.59138978 3.4780478 -0.68576753 20
0.66828579 3.9178708 -0.62949234 19
0.78425002 4.578434 -0.57034856 15
0.94575948 5.504004 -0.4885951 51
0.9536764 5.5327039 -0.29423279 55
0.94949806 5.4855847 -0.097175002 23
1.5593832 9.2196312 0.16321491 1
2.3414516 13.799558 0.73354083 16
5.1833353 30.419683 2.6997364 29
5.1986151 30.413185 3.7884309 23
5.2043734 30.351179 4.8773141 27
7.3446479 42.654186 8.4131508 32
5.2457333 30.36961 7.1152024 52
5.2394509 30.238836 8.2231989 17
0.48947391 2.7816298 -0.75678688 34
0.54467648 3.0858734 -0.72344261 30
0.61462885 3.468035 -0.6846227 17
0.69216406 3.893661 -0.62636369 19
0.80947256 4.5397668 -0.56620502 14
0.986359 5.5150895 -0.49016386 27
0.99262899 5.5278773 -0.29433745 45
0.99035722 5.4986749 -0.097524047 34
1.4601587 8.2809725 0.14677474 1
2.4318202 13.74944 0.7317614 26
5.4048929 30.466091 2.7070572 9
5.4104638 30.374195 3.788187 35
5.4231009 30.352999 4.8835716 27
5.445786 30.388067 6.0009432 84
5.4433827 30.283329 7.1035047 35
5.4559193 30.231937 8.2314816 17
0.50714236 2.7686434 -0.75419873 40
0.56233484 3.0609124 -0.71849376 27
0.63466328 3.4444635 -0.68080652 17
0.71649754 3.8772044 -0.62448645 19
0.82774669 4.4617891 -0.55718666 15
1.023018 5.4982748 -0.48929232 9
1.0280375 5.509212 -0.29370943 42
1.0290892 5.4935927 -0.097558953 40
1.4501303 7.9089322 0.14035226 3
2.5137877 13.669711 0.72841191 19
5.6185403 30.433495 2.7075803 9
5.6174512 30.338615 3.7884309 23
5.631731 30.327034 4.8854489 27
5.6502323 30.308783 5.992929 36
5.6625319 30.286734 7.1134028 35
5.6665602 30.220682 8.2387276 17
0.52489197 2.7594342 -0.75264585 37
0.57548708 3.0168154 -0.70904577 32
0.65131027 3.4013844 -0.67317414 17
0.74280304 3.868228 -0.62386072 15
0.84910929 4.4052219 -0.55084944 22
1.043226 5.3971028 -0.48092538 5
1.0672317 5.5058227 -0.29391876 62
1.0681806 5.4902 -0.097628765 44
1.4278202 7.4919958 0.13312696 1
2.6016667 13.612592 0.72631848 6
5.8293152 30.414112 2.7093234 9
5.8328533 30.318153 3.790868 24
5.844799 30.294741 4.8867002 13
5.8643026 30.282087 5.9956002 24
6.8178248 35.107403 8.2566042 27
5.8799872 30.193659 8.2423515 17
0.53750771 2.719599 -0.74281067 27
0.5970602 3.01262 -0.70904577 30
0.6551398 3.2966239 -0.65333003 27
0.75964546 3.8085713 -0.61510038 19
0.8790642 4.3952932 -0.55036199 9
1.0722606 5.3467116 -0.47709054 5
1.1073912 5.5019608 -0.29412812 50
1.1037142 5.4688878 -0.09738443 31
2.7176366 13.73764 0.24443841 20
2.7184513 13.69158 0.73155206 6
6.051847 30.397024 2.7115893 9
6.0498271 30.303944 3.7942803 36
6.0633736 30.261824 4.8882647 27
6.1003175 30.363596 6.0200238 12
7.1243305 35.364605 8.3285885 28
6.0989599 30.16596 8.2464924 17
0.55803216 2.72335 -0.74488121 14
0.61964637 3.0160136 -0.71084535 26
0.68426341 3.3187706 -0.65867269 11
0.78021544 3.7741585 -0.61040735 30
0.89920324 4.3344669 -0.54353732 14
1.1003499 5.2901354 -0.47273275 2
1.1494449 5.511693 -0.29507017 40
1.1452781 5.4725938 -0.097593859 31
2.8082314 13.680623 0.2437752 28
2.7982743 13.595972 0.72746986 3
6.2687573 30.377447 2.7136812 29
6.2721434 30.287094 3.7976928 36
6.282927 30.259373 4.894835 27
6.3206425 30.334543 6.023077 36
7.3967376 35.406189 8.3506336 28
6.3113904 30.132101 8.2490807 17
0.5750978 2.7079492 -0.74177545 29
0.63471931 2.9810064 -0.70364696 22
0.70495689 3.3023925 -0.65638298 22
0.80348086 3.7510946 -0.60759157 27
0.928608 4.3242021 -0.54304987 14
1.124675 5.2238922 -0.4675034 2
1.1854824 5.4877086 -0.29423279 37
1.1855724 5.474237 -0.097768381 38
2.9809968 14.024502 0.25026751 28
2.9413211 13.790466 0.73898381 16
6.4897223 30.349346 2.71525 49
6.4851136 30.25033 3.7986679 24
6.5022049 30.227158 4.8970251 27
6.5339041 30.297356 6.0246034 49
7.7569723 35.877491 8.4743567 29
6.531354 30.106932 8.254775 17
0.59517366 2.7115195 -0.74384594 30
0.6499716 2.9537778 -0.69824809 41
0.73011112 3.3069761 -0.65829104 23
0.82728583 3.7378237 -0.60634005 21
0.94898862 4.2770839 -0.53793132 17
1.1472293 5.1577697 -0.46227407 2
1.224111 5.4853601 -0.29454678 42
1.2232407 5.4679918 -0.097803287 38
3.121774 14.198653 0.25375798 21
2.9972837 13.598488 0.72977263 13
6.7021575 30.331707 2.7176902 59
6.6978607 30.212069 3.7996428 36
6.718533 30.230404 4.9048467 13
6.7344456 30.227266 6.0196428 24
6.751339 30.228518 7.1507449 100
6.7390914 30.074974 8.2583981 17
0.6128071 2.7016463 -0.742293 27
0.6692794 2.9434679 -0.6968984 57
0.74562341 3.2713034 -0.6521852 37
0.84962934 3.718626 -0.60415 16
0.9730615 4.2451997 -0.53476268 14
1.1751784 5.1146822 -0.45913643 5
1.263216 5.4846854 -0.29496548 35
nan nan nan nan
3.1404424 13.833859 0.24761474 30
3.1008623 13.626456 0.73238945 19
8.0937557 35.452942 3.1815331 12
6.9113097 30.200613 3.8040299 36
6.9254603 30.189751 4.9057851 27
6.9378076 30.14699 6.013155 36
8.3779373 36.317802 8.6048288 30
6.9479876 30.04723 8.2635746 17
0.61709619 2.6372194 -0.72572863 31
0.68618309 2.9255636 -0.69374907 28
0.75720221 3.2182415 -0.64264476 28
0.87330252 3.7029908 -0.60258561 15
0.99462664 4.2075701 -0.53086293 21
1.1938457 5.0346251 -0.45268691 5
nan nan nan nan
2.140559 8.985137 -0.16122533 6
3.3240895 14.183465 0.25428155 34
3.1949971 13.600589 0.73218012 22
7.1293173 30.277142 2.7213509 10
7.1265588 30.17094 3.8064673 24
7.1397109 30.15604 4.9082885 27
7.1523857 30.139179 6.0211692 24
nan nan nan nan
7.1616225 30.014904 8.2682333 17
0.62914783 2.6065557 -0.71848166 56
0.70521736 2.9150193 -0.69239938 37
0.78659588 3.2414951 -0.64836901 27
0.87532413 3.5989132 -0.58662933 19
1.0263274 4.210166 -0.5320816 13
1.2142949 4.9661708 -0.44728327 5
1.5607288 6.368547 -0.34363794 2
2.1951258 8.9369593 -0.16063195 3
3.3797994 13.981092 0.25107032 18
3.2879882 13.570188 0.7317614 9
8.5930891 35.384445 3.1857166 12
7.3445206 30.151316 3.8103671 24
7.3537998 30.120817 4.9107914 13
7.3658743 30.101864 6.0238404 36
nan nan nan nan
7.3788505 29.996063 8.2770338 18
0.64872885 2.6077244 -0.7200346 51
0.71895063 2.883553 -0.68610078 42
0.80301487 3.2111645 -0.643408 33
0.898507 3.5850501 -0.58537781 28
1.0489246 4.1759443 -0.52866924 13
1.2489357 4.9575725 -0.44728327 2
1.57386 6.2335606 -0.33693892 2
2.2245979 8.7915316 -0.15829334 9
3.4338078 13.782523 0.24792889 18
3.4097419 13.655417 0.73762304 6
7.5678067 30.240366 2.7272775 10
7.5558047 30.103161 3.8108549 24
7.5711317 30.097479 4.9154844 13
7.585444 30.08778 6.0314727 24
nan nan nan nan
7.5947127 29.970039 8.2842808 18
0.66739786 2.6050034 -0.72055227 36
0.73518705 2.863363 -0.68250155 27
0.81806993 3.1769617 -0.63768369 33
0.9205519 3.5672135 -0.58350062 25
1.068609 4.1320043 -0.5240382 14
1.2700101 4.8966608 -0.44257683 5
1.6108086 6.1972919 -0.33557817 11
2.2551723 8.6577425 -0.15616412 3
3.553302 13.849252 0.24956942 36
3.0812235 11.983225 0.64844257 8
3.5741565 13.870183 1.2531252 15
7.7707477 30.068895 3.813292 36
7.7875061 30.068748 4.9195518 27
7.7992573 30.049294 6.0345254 24
7.8169065 30.031063 7.1642418 18
7.8149719 29.95928 8.2961855 18
0.68064165 2.5816004 -0.7153759 28
0.7526688 2.8487408 -0.68025202 16
0.83469832 3.1502976 -0.63348591 26
0.93732232 3.5301526 -0.57849473 36
1.0882422 4.0899134 -0.51965094 16
1.2704592 4.7646947 -0.43142092 5
1.5761309 5.8945446 -0.31977272 2
2.2731199 8.4834003 -0.15330194 3
3.6351042 13.768037 0.24855718 30
3.8595903 14.587334 0.7907964 3
3.6387386 13.723563 1.2421436 21
7.988493 30.065186 3.8196292 24
8.0017986 30.03083 4.9223676 13
8.0164347 30.022568 6.0402498 37
8.0196152 29.971516 7.1628919 36
8.0242071 29.925919 8.3018799 18
0.69112659 2.5508027 -0.70812893 37
0.76489496 2.8172219 -0.67395335 39
0.84529036 3.104763 -0.62547189 30
0.9592483 3.516068 -0.57724321 33
1.1113448 4.0651774 -0.51745731 16
1.311811 4.7886028 -0.4343842 2
1.620976 5.9010139 -0.32071477 11
2.3010893 8.3597651 -0.15134728 3
3.765907 13.880001 0.25103542 28
3.211045 11.810473 0.64142954 14
3.7320614 13.69848 1.2421436 18
8.2033978 30.048418 3.8245041 24
8.2196026 30.025202 4.9305019 13
8.2304888 30.003277 6.0475006 37
8.254446 30.028973 7.1898861 54
8.2369699 29.904131 8.3111982 18
0.709508 2.5497618 -0.70916426 27
0.78980958 2.8325992 -0.67890233 20
0.86640435 3.0989375 -0.62547189 26
0.97090316 3.4657078 -0.57004726 26
1.1293309 4.0231171 -0.51306999 18
1.3349533 4.7428889 -0.43107229 5
1.6974313 6.0186348 -0.32772776 2
2.3090007 8.1707172 -0.14820585 3
3.8994875 13.994664 0.25358346 34
3.2956645 11.803731 0.64226693 11
3.8504539 13.762937 1.2503363 15
8.4236994 30.028641 3.8293788 24
8.4323263 29.998989 4.9355078 27
8.4419613 29.973019 6.0528436 24
10.76825 38.13044 9.1474104 35
8.4528894 29.871925 8.3184452 18
0.7219826 2.5261714 -0.70398778 31
0.79990882 2.7932942 -0.67080408 21
0.88368338 3.0777171 -0.62241894 36
0.99343622 3.45315 -0.56910866 30
1.1507921 3.9922462 -0.51014513 21
1.3580729 4.6990018 -0.42793471 14
1.7182946 5.9337382 -0.32375026 2
2.3253052 8.014204 -0.14565779 6
3.3759291 11.796576 0.21417592 14
3.3889945 11.818835 0.64436036 8
3.9018724 13.580613 1.236217 17
8.6408405 29.9958 3.8327911 12
8.6470451 29.958363 4.9386368 14
8.6553841 29.928434 6.0558963 37
11.130791 38.387493 9.2274923 37
8.6741629 29.856705 8.3308678 18
0.73633808 2.5099473 -0.70088202 28
0.80949813 2.7539883 -0.66270584 27
0.90459341 3.0695896 -0.62203735 30
1.0119257 3.4271855 -0.56597996 23
1.1769458 3.978404 -0.5094139 18
1.3908449 4.6894059 -0.42793471 19
1.7295251 5.8201284 -0.31820264 11
2.3891871 8.0246067 -0.14614646 6
4.0944982 13.938856 0.25358346 9
3.4499948 11.72208 0.64038283 8
4.0027862 13.574062 1.2381344 12
8.8545284 29.94998 3.8347411 24
8.8694344 29.942728 4.9461455 14
8.8797388 29.919981 6.0665812 37
11.501904 38.656254 9.3111744 38
8.8763342 29.775051 8.3251734 55
0.75551319 2.5102952 -0.70243496 30
0.82645446 2.7408068 -0.66090626 28
0.92429686 3.0575621 -0.62089252 33
1.0369725 3.4238183 -0.56660569 22
1.1943163 3.9358981 -0.50502658 19
1.4177507 4.6605201 -0.4261916 26
1.7497356 5.741045 -0.31453913 5
2.4235437 7.9369683 -0.14485498 12
3.5783873 11.874659 0.21647964 18
3.6760643 12.175713 0.66655082 12
3.6509626 12.06973 1.1032174 2
9.0749245 29.925428 3.8396161 12
9.0845737 29.900867 4.9495869 28
9.0952635 29.879797 6.0711608 37
9.1357479 29.937765 7.2263279 18
9.1009188 29.767788 8.340703 55
0.75649995 2.4514267 -0.68742341 37
0.85247612 2.7573116 -0.66630507 18
0.94678253 3.054785 -0.62165576 35
1.04972 3.3806515 -0.5606612 27
1.2217649 3.9274645 -0.50502658 16
1.443728 4.6295857 -0.42427412 21
1.7802432 5.6981869 -0.31286436 5
2.4179718 7.7251973 -0.14129469 18
3.6428957 11.790161 0.21539761 22
3.6398969 11.758626 0.64509302 11
3.6725731 11.842234 1.0847404 12
9.3001232 29.914421 3.8464406 12
9.307786 29.883867 4.9574089 14
9.3211861 29.871798 6.0826097 50
9.3567486 29.912312 7.2357759 55
9.3177586 29.733021 8.3489857 55
0.78174984 2.4718728 -0.69467032 34
0.85993183 2.7141387 -0.65730703 10
0.96511453 3.0387452 -0.61974764 36
1.0667076 3.3525348 -0.55721962 24
1.2413167 3.8942516 -0.501858 18
1.4675237 4.5928245 -0.42183378 21
1.8011051 5.6266522 -0.30961955 2
2.453522 7.6510038 -0.14024754 18
3.7860918 11.956987 0.21892299 27
3.7412298 11.793847 0.64844257 14
3.7117164 11.679588 1.0721899 16
9.5111341 29.856333 3.8474154 73
9.5329895 29.870855 4.9661694 28
9.5402508 29.839659 6.0894785 37
12.658637 39.498093 9.575717 41
9.5369167 29.704031 8.3593378 56
0.79541552 2.4553282 -0.6915645 34
0.85960966 2.6487548 -0.64291012 34
0.97962332 3.0113971 -0.61554986 30
1.0858006 3.3318591 -0.55502951 30
1.2641591 3.8722818 -0.50015181 18
1.5032698 4.5938287 -0.42287967 16
1.8154564 5.5380259 -0.30543268 10
2.4532199 7.4702997 -0.13724573 11
3.8886003 11.98923 0.22000504 25
3.8092799 11.723753 0.64603513 8
3.7851481 11.628762 1.0699239 18
9.7328987 29.830719 3.852778 73
9.7566519 29.850512 4.9739909 28
9.7605715 29.809641 6.0971112 38
12.969305 39.516155 9.6018114 41
9.7543011 29.667931 8.3681374 37
0.80888957 2.4387133 -0.68845868 34
0.88053972 2.6500862 -0.64470977 46
0.99752122 2.9951713 -0.61364174 38
1.1009078 3.2998374 -0.55096221 38
1.2798361 3.8294733 -0.49576455 16
1.5118862 4.5133219 -0.41643015 23
1.8324687 5.4608378 -0.3018738 2
2.4823713 7.3847551 -0.13598914 20
3.9696794 11.954201 0.21986541 23
3.8670721 11.624859 0.6420576 8
3.8794622 11.64175 1.0735844 22
9.9484673 29.784639 3.8557026 49
9.9735842 29.807894 4.9783711 14
9.9821701 29.781725 6.1055064 38
13.261018 39.472672 9.6135092 42
9.9796848 29.654034 8.383667 37
0.83148295 2.4494712 -0.69311744 18
0.8927443 2.6254249 -0.64021075 30
1.0127085 2.9714093 -0.6102072 28
1.1296639 3.3088958 -0.55377805 37
1.2924095 3.7791219 -0.49040228 22
1.5419289 4.50104 -0.4162558 21
1.8666565 5.4365783 -0.30124578 2
2.5078511 7.2916059 -0.13459297 17
4.063334 11.956491 0.22042391 48
3.9706624 11.663753 0.64572108 8
3.9606421 11.614383 1.0735844 16
10.17027 29.755789 3.8610649 61
10.193583 29.773052 4.9843154 28
10.207662 29.763313 6.1161919 25
10.229989 29.777554 7.2690692 56
10.216656 29.671318 8.408514 19
0.83842355 2.4144075 -0.68483526 29
0.91681361 2.6356933 -0.64425987 28
1.020636 2.9292226 -0.60295647 37
1.1391404 3.2638295 -0.5475207 23
1.3200706 3.7737551 -0.49088979 19
1.5601377 4.4525599 -0.41276959 15
1.8804712 5.3577862 -0.29758227 2
2.4976509 7.1003714 -0.13138172 11
4.1492195 11.941777 0.22066824 31
4.0525894 11.644 0.6461398 20
4.0435977 11.592093 1.0741073 20
10.39222 29.74209 3.868377 49
10.409072 29.740263 4.9905729 14
10.428197 29.728378 6.1238241 38
10.426629 29.674158 7.2614207 18
10.450439 29.692207 8.4343958 38
0.85548466 2.4104652 -0.68535286 45
0.94517696 2.6587703 -0.65145832 27
1.0436966 2.9294238 -0.60448295 37
1.166546 3.26882 -0.54971075 27
1.3437226 3.7590744 -0.49015856 21
1.5770714 4.4021716 -0.40910906 18
1.8989389 5.2918911 -0.29465145 2
2.5127773 6.9909973 -0.12967138 19
4.2224455 11.884254 0.22014466 25
4.1605668 11.69069 0.65032667 25
4.1458244 11.629985 1.0802083 18
10.631677 29.758539 3.8800764 24
10.63974 29.731964 5.0015235 14
10.644898 29.697357 6.1322198 26
10.66187 29.679504 7.280766 57
10.687576 29.702135 8.4582062 58
0.87229204 2.404434 -0.68535286 37
0.94840801 2.6099811 -0.64111054 25
1.0688235 2.9349794 -0.60715425 27
1.1717401 3.2123458 -0.54157621 19
1.3590354 3.7197685 -0.48625872 13
1.5831047 4.3237009 -0.40283385 13
1.9117681 5.2128754 -0.29098797 2
2.5235994 6.8700457 -0.12775162 16
4.2950706 11.826292 0.21962108 21
4.2502756 11.683883 0.65158272 14
4.2398758 11.636326 1.0835202 16
10.888183 29.817854 3.8976257 37
10.865354 29.707054 5.0099707 29
10.872212 29.677629 6.1436687 26
10.912481 29.723251 7.31001 19
10.914013 29.679382 8.4732189 59
0.89241433 2.4073424 -0.68794107 39
0.96050102 2.5868542 -0.63706142 27
1.0749111 2.8888056 -0.59914029 30
1.200345 3.220747 -0.54439199 24
1.3745561 3.6822944 -0.48260266 23
1.6181358 4.3256068 -0.40405402 20
1.9319991 5.1563845 -0.28858051 2
2.5525331 6.8017097 -0.12680918 19
3.8793819 10.45369 0.19462924 1
4.3157306 11.610868 0.64917523 8
4.3230896 11.612046 1.0840431 16
11.096085 29.741114 3.8976257 75
11.086313 29.667484 5.0162282 14
11.094965 29.643293 6.1524458 26
14.755104 39.338703 9.6998901 43
8.1166706 21.605515 6.1842227 25
0.90509313 2.3902142 -0.68483526 29
0.98890203 2.6074178 -0.64380997 38
1.1041198 2.9050882 -0.6041013 26
1.2171788 3.1975193 -0.54188907 15
1.3959867 3.6614795 -0.4811402 22
1.6397637 4.2918696 -0.40196225 23
1.9508166 5.0980029 -0.28606835 2
2.572758 6.71277 -0.12548281 21
4.4852853 11.832488 0.22087765 25
4.4094505 11.614063 0.65105933 20
4.4068894 11.58903 1.0847404 23
11.324638 29.718576 3.9049377 75
11.319222 29.65765 5.0278044 14
11.32758 29.632965 6.1665654 26
4.0703406 10.625771 2.6269786 16
8.0811605 21.063139 6.0449777 23
0.91339731 2.362215 -0.67862362 28
1.0021547 2.5877295 -0.64066064 31
1.1158496 2.8753467 -0.59952188 26
1.2351782 3.1778967 -0.54001182 16
1.4200743 3.6479447 -0.48065275 22
1.6848922 4.3192973 -0.40562281 18
1.9732776 5.0507741 -0.28418428 14
2.5751107 6.5810499 -0.12335361 15
nan nan nan nan
4.6297574 11.942405 0.67126101 9
4.487689 11.557981 1.0847404 27
11.55631 29.701691 3.9132249 75
11.538907 29.611034 5.0334363 29
4.3291545 11.092266 2.3145132 29
4.1422944 10.591652 2.6256289 30
8.0434141 20.534925 5.9093566 22
0.92703044 2.3485928 -0.67655301 33
1.0173316 2.5734208 -0.63886106 39
1.1250504 2.8401074 -0.59379762 28
1.2311077 3.1030953 -0.52874857 19
1.4374423 3.6176496 -0.47797161 22
1.7010022 4.2722588 -0.40231091 15
1.970022 4.9404039 -0.27874133 9
2.5720434 6.4403453 -0.1210499 26
4.0849662 10.338538 0.19403586 3
4.6667132 11.792794 0.66466671 9
4.5895576 11.580083 1.0897954 21
13.840586 34.850647 4.6042242 15
11.773092 29.599504 5.0453253 14
4.3897772 11.019823 2.3057361 19
4.1092114 10.294614 2.5590434 34
8.0058661 20.02623 5.7789121 21
0.93835026 2.3295202 -0.67292953 29
1.0316273 2.5572197 -0.63661152 24
1.1360215 2.8103418 -0.5892182 30
1.2757221 3.1511858 -0.5384475 15
1.4484934 3.5725725 -0.47334057 27
1.7157867 4.2233624 -0.39882466 14
2.0293016 4.9875813 -0.28219551 7
2.5950563 6.3685293 -0.12003765 18
nan nan nan nan
4.7085443 11.659923 0.65901446 3
4.6934423 11.605021 1.0951991 17
14.082808 34.751335 4.6039805 15
4.4928503 11.070094 1.8922316 19
4.3771529 10.768839 2.2595603 36
4.1604052 10.215138 2.5464461 22
4.2069902 10.31406 2.9847014 30
0.95973068 2.3354206 -0.67655301 68
1.0331371 2.5103097 -0.62671363 21
1.1488791 2.7860072 -0.58578366 26
1.2901502 3.123945 -0.53531879 15
1.463536 3.5385261 -0.47017199 26
1.7131931 4.1339765 -0.39150357 19
2.0939331 5.0452347 -0.28627771 16
2.6409919 6.3539486 -0.12010746 18
4.1049185 9.9790506 0.18834637 7
4.8834062 11.853909 0.67188907 9
4.8146195 11.669587 1.1044376 21
8.8920164 21.509705 2.8578362 48
8.8944607 21.483751 3.6827807 47
4.2567177 10.266498 2.1603396 33
4.221899 10.162449 2.5405974 14
4.2499518 10.214876 2.9645135 44
0.97750503 2.332227 -0.67758828 63
1.0453576 2.4904578 -0.62356436 32
1.1591663 2.7562022 -0.58120424 33
1.3088596 3.1075807 -0.53406733 17
1.4866593 3.524565 -0.46968448 16
1.7327642 4.1020303 -0.38958618 21
2.1073072 4.9789925 -0.28334689 19
2.6548517 6.2635522 -0.11874618 18
4.2007837 10.012848 0.18953314 12
5.0797749 12.090201 0.68727589 12
4.8697047 11.573249 1.098511 23
9.051219 21.469051 2.8607612 88
4.5040584 10.667801 1.8340379 19
4.3481669 10.283545 2.1702616 11
4.2210622 9.9683847 2.4992063 22
nan nan nan nan
0.98844796 2.3129113 -0.6739648 30
1.0673182 2.493849 -0.6262638 27
1.1794472 2.7518573 -0.58196747 35
1.3260862 3.0895231 -0.53250295 19
1.513582 3.5195711 -0.47041571 15
1.7684525 4.1063032 -0.39115497 23
2.1332374 4.9461946 -0.28230017 21
2.6723359 6.1842899 -0.11759432 5
4.4134998 10.322336 0.19595562 8
5.2578588 12.279343 0.70004582 6
4.9739423 11.593903 1.1037403 12
nan nan nan nan
4.5789094 10.642338 1.8349764 33
4.5232244 10.492718 2.2210169 12
4.4241781 10.248194 2.5770395 18
4.096776 9.4761591 2.766258 40
0.99568588 2.2866457 -0.66827077 40
1.0780383 2.4722352 -0.62266457 27
1.1970581 2.739958 -0.58120424 30
1.3397048 3.0620925 -0.5293743 19
1.5279442 3.4873681 -0.46749085 15
1.806769 4.1178885 -0.39342102 17
2.1379778 4.8635306 -0.2784273 28
2.6756959 6.0781069 -0.11591888 15
4.2984948 9.8623171 0.18778789 10
5.4169607 12.410741 0.70967561 3
5.1117945 11.694872 1.1166394 14
4.7197695 10.777482 1.4446392 1
4.6546822 10.61373 1.8356022 13
4.3719144 9.9547815 2.1134005 24
4.1674609 9.4757662 2.3898802 4
4.0989518 9.3023663 2.7238116 15
1.0116254 2.2796385 -0.66827077 33
1.0968543 2.4682105 -0.62356436 29
1.2172772 2.7353337 -0.58196747 27
1.3380023 3.0023818 -0.52061397 23
1.5619651 3.4983673 -0.47041571 26
1.8354732 4.1051745 -0.39342102 21
2.1685846 4.8433967 -0.27811331 30
2.7057872 6.0319109 -0.11539531 20
3.8624361 8.6996775 0.1661469 1
5.3130674 11.950179 0.68539172 18
5.2849188 11.864563 1.1363366 13
4.6838489 10.500363 1.4117346 24
4.6937876 10.507853 1.8227745 30
4.5896697 10.255534 2.1839998 46
nan nan nan nan
4.5339403 10.102623 2.9671018 26
1.0334837 2.2867832 -0.67241186 39
1.1023808 2.435832 -0.61726576 31
1.2330996 2.7196174 -0.580441 27
1.3703623 3.0181494 -0.52499413 16
1.5717723 3.4569352 -0.46627215 17
1.8476855 4.0581341 -0.39010909 21
2.1907406 4.8026991 -0.2766479 28
2.7135487 5.9405971 -0.11399912 20
4.2593408 9.4158573 0.18038808 7
5.337029 11.781806 0.67785537 9
5.2774935 11.634167 1.1176852 17
4.6929789 10.326445 1.392723 35
4.8136716 10.577312 1.8406081 12
4.6968212 10.306234 2.2015543 32
nan nan nan nan
4.6099825 10.083023 2.9707251 30
1.0429604 2.2654738 -0.66827077 46
1.1242542 2.4386947 -0.61996514 39
1.2450013 2.6969006 -0.57738805 23
1.3917048 3.0105441 -0.525307 24
1.5916985 3.4368706 -0.46505347 19
1.8860321 4.0668244 -0.39220083 19
2.2073977 4.7532582 -0.27465913 27
2.724586 5.8562384 -0.11274255 15
4.2731361 9.2776718 0.17829379 8
5.5576262 12.049901 0.69544029 9
4.908968 10.62399 1.0239056 18
4.774826 10.319487 1.3961353 40
4.6754479 10.090841 1.7614522 27
4.7157559 10.159225 2.1771307 26
4.9564166 10.663064 2.7147095 62
nan nan nan nan
1.0534371 2.2478271 -0.66516501 40
1.139171 2.427458 -0.61906534 41
1.251268 2.6614928 -0.57166374 30
1.4067973 2.9882448 -0.52311689 28
1.6232746 3.4418333 -0.4672471 19
1.8931072 4.0085192 -0.38784304 20
2.2293961 4.7120652 -0.27319372 24
2.7499955 5.804544 -0.11211426 15
4.2291069 9.0158777 0.17382596 6
5.6619997 12.054191 0.69795239 9
5.0330687 10.695824 1.0341899 41
4.9025989 10.404418 1.412222 27
4.6842465 9.9275417 1.7386128 6
4.7781701 10.108308 2.1733146 13
4.8273029 10.198425 2.6049335 6
4.4142585 9.3089828 2.7605641 24
1.0678307 2.2367446 -0.66412973 39
1.1665982 2.4403422 -0.62446415 36
1.2745212 2.6613245 -0.57357186 41
1.4127699 2.9460406 -0.51748526 26
1.6470026 3.42834 -0.46700338 13
1.9148334 3.9805062 -0.38644853 20
2.2405117 4.6492128 -0.27047226 22
2.7080278 5.6118255 -0.1087634 16
4.381454 9.1694221 0.17738625 12
5.7360439 11.988144 0.69648695 18
5.181818 10.810452 1.0488322 6
4.9236689 10.258112 1.3971103 17
4.6747298 9.726408 1.7092031 6
3.4323158 7.1286473 1.5379206 40
4.8603806 10.081119 2.5837882 16
nan nan nan nan
1.0787406 2.218622 -0.66102386 40
1.1635579 2.3898811 -0.61366653 29
1.2849262 2.6344903 -0.56975567 24
1.4303477 2.9287555 -0.5162338 33
1.6490933 3.3721769 -0.46090987 19
1.931183 3.9437799 -0.38418248 22
2.2509265 4.5886278 -0.26785544 22
2.7303917 5.5586796 -0.10810021 7
4.3655739 8.9706154 0.17414011 9
5.7543082 11.808544 0.68842721 3
5.1164947 10.485728 1.020768 3
4.8897214 10.003256 1.3671304 14
4.7641845 9.7335148 1.7163991 4
3.647027 7.4412265 1.6108096 20
4.9117537 10.008453 2.5738902 22
7.7023993 15.667159 4.6778955 16
1.0993444 2.2214255 -0.66412973 64
1.1793487 2.3799534 -0.61321658 30
1.3098099 2.6397524 -0.57280862 30
1.4476131 2.9136446 -0.51529521 22
1.6725953 3.3605819 -0.46090987 22
1.9426724 3.898104 -0.38104489 30
2.2856734 4.5803499 -0.26827416 22
2.743202 5.4876108 -0.10708796 16
4.5046124 9.0983953 0.17721173 14
5.1275229 10.342924 0.60500371 25
5.0779128 10.224911 0.99880481 3
5.1185651 10.293237 1.4114909 22
4.9016476 9.8440933 1.7417415 1
3.5954838 7.2082782 1.5657787 18
3.6440527 7.2960749 1.8828405 17
4.5857782 9.1695719 2.7471054 11
1.113571 2.2121654 -0.66361207 61
1.1981527 2.3770914 -0.61456633 28
1.3184732 2.6112659 -0.56861085 34
1.4697014 2.9069929 -0.51592094 28
1.6846725 3.3278663 -0.45798501 24
1.969161 3.8847902 -0.38104489 22
2.3094561 4.5482535 -0.26733211 27
2.8076775 5.5222888 -0.1081351 19
4.4222622 8.7774181 0.17155716 14
5.1240396 10.157086 0.59621125 23
5.2120733 10.318153 1.0113552 16
5.031661 9.9437418 1.3683491 11
3.9435253 7.7832136 1.3819423 1
3.4899113 6.8789935 1.4993771 7
4.7439065 9.3386326 2.4182241 18
4.916029 9.6607456 2.9044673 24
1.1237038 2.1940205 -0.66050619 55
1.2164972 2.3721368 -0.61546612 46
1.3308363 2.5917523 -0.56632113 29
1.4876482 2.8934083 -0.51529521 25
1.7078643 3.3160238 -0.45798501 24
1.9770572 3.8337622 -0.37738436 26
2.3247838 4.5022597 -0.26555267 18
2.8103352 5.4332814 -0.10677383 16
4.5521212 8.8841486 0.17424482 13
5.2039986 10.143297 0.5974673 20
5.1637611 10.047605 0.9883461 5
4.9820528 9.6815662 1.3369068 13
4.9238076 9.5560789 1.7026329 6
nan nan nan nan
4.8912983 9.4645576 2.459615 24
4.8129802 9.3010702 2.8061163 57
1.1287954 2.167474 -0.65481222 39
1.238923 2.3758972 -0.61861545 23
1.3434427 2.5719576 -0.56403142 34
1.5114723 2.8899543 -0.51654667 23
1.716581 3.2779443 -0.45432895 27
1.9935926 3.8004577 -0.37546691 18
2.3580163 4.4894557 -0.265762 18
2.8174658 5.3573918 -0.10565687 19
4.512362 8.657094 0.1704053 11
5.3162694 10.186398 0.60217756 5
5.4147449 10.361855 1.0228598 16
3.5609057 6.8027067 0.94278133 21
5.1655564 9.8556471 1.762391 6
3.7039371 7.0579538 1.5493692 20
3.674186 6.9894085 1.8230034 29
5.0667491 9.6262417 2.9148202 20
1.1411879 2.1544185 -0.65325934 34
1.2408705 2.3396442 -0.611417 34
1.3595235 2.5590487 -0.56326818 32
1.5186236 2.8549161 -0.5121665 12
1.7468904 3.2798967 -0.45627886 35
2.0031939 3.7548065 -0.37232932 16
2.3695371 4.4358907 -0.2635639 9
2.8434811 5.3164315 -0.10523801 19
4.442492 8.3798008 0.16555353 9
5.2655144 9.9197006 0.58857024 25
5.4196224 10.197129 1.0103093 5
5.5244098 10.376791 1.4434206 16
5.0957837 9.5596104 1.7157733 24
3.5321853 6.6179752 1.4581624 37
3.5777283 6.6920547 1.751919 12
5.9771643 11.166078 3.3936355 6
1.1433734 2.1225884 -0.64601237 31
1.2553228 2.3274946 -0.6105172 33
1.3726913 2.5408578 -0.56136012 27
1.527241 2.8233941 -0.50841206 33
1.7508383 3.2327106 -0.45140409 20
2.0391548 3.760349 -0.37424675 18
2.3956811 4.4104648 -0.26304054 6
2.8604643 5.2595601 -0.10450501 24
4.4913964 8.3309803 0.16520448 9
5.4133821 10.028576 0.59725797 11
5.3457389 9.890871 0.98363966 5
3.7056255 6.8448486 0.9556995 25
5.1125016 9.4317617 1.6991913 4
3.6092055 6.6500959 1.4707558 21
3.6511104 6.7189145 1.765416 19
nan nan nan nan
1.1720841 2.1399696 -0.65377688 33
1.2621709 2.3015873 -0.60601819 30
1.3748349 2.5039213 -0.55525422 38
1.5378577 2.7973545 -0.50559622 26
1.7829381 3.2377982 -0.45384148 17
2.0470798 3.7128708 -0.37093481 18
2.4150314 4.3748207 -0.26188916 15
2.8806634 5.2097125 -0.10391163 18
4.3702307 7.9757824 0.15874709 13
5.5391588 10.096559 0.60353833 20
3.7671406 6.8552337 0.68434685 11
3.7224696 6.7655487 0.94814354 21
5.2709503 9.5680313 1.7301654 28
3.6564894 6.6264582 1.4711374 7
3.7393901 6.7683144 1.7852117 42
4.9569902 8.9610891 2.7439995 18
1.1885026 2.1353183 -0.65481222 33
1.2834998 2.3031561 -0.60871756 33
1.3913252 2.492548 -0.55487263 23
1.5602406 2.791723 -0.50653487 23
1.8097825 3.2342489 -0.45506018 27
2.0632076 3.6811099 -0.36919171 20
2.4318285 4.3334703 -0.26042375 8
2.9317279 5.2178783 -0.1044701 22
4.2389646 7.6096663 0.15204537 6
5.7106886 10.23905 0.61442417 8
5.4582911 9.774477 0.97945625 10
3.8558569 6.8935876 0.96983629 30
5.3424459 9.5396175 1.7317297 12
nan nan nan nan
3.6624987 6.5211587 1.7267245 17
5.1974483 9.2428322 2.8413155 27
1.1957706 2.1135175 -0.65067112 48
1.2918637 2.2805746 -0.60511833 33
1.4086938 2.4827733 -0.55487263 25
1.5777422 2.7773266 -0.50590914 25
1.8234863 3.2060046 -0.45286649 26
2.0809662 3.6527669 -0.36779723 20
2.4640017 4.3198571 -0.26063308 6
2.9542007 5.1729736 -0.10398144 18
4.0998521 7.2405667 0.14523894 16
5.5712385 9.8271132 0.59202439 8
3.787534 6.6726894 0.67127347 7
nan nan nan nan
3.8766296 6.8102608 1.2411512 1
3.6707089 6.4406643 1.4409896 21
3.7678344 6.600359 1.7546183 36
5.2733521 9.226449 2.8475273 14
1.2133856 2.1101422 -0.65222406 47
1.305809 2.2681224 -0.60421854 33
1.43776 2.4932878 -0.559452 28
1.600055 2.7713771 -0.50684774 21
1.8309211 3.1674178 -0.44921044 30
2.1087756 3.6436908 -0.36832017 18
2.451031 4.2282476 -0.25613219 21
2.9731812 5.1228199 -0.10338806 27
4.0894547 7.1060467 0.14310974 22
4.0602679 7.046793 0.42622405 2
5.4359293 9.4229116 0.95174068 19
2.577214 4.4602704 0.6325019 11
3.8805556 6.7077966 1.2273849 3
3.6604795 6.3197451 1.4196191 3
3.7520597 6.4700427 1.7267245 10
5.3997312 9.2963228 2.880656 38
1.2300359 2.1049562 -0.65325934 48
1.325547 2.2656798 -0.60601819 33
1.4457662 2.4681981 -0.5560174 24
1.6088878 2.7433829 -0.50371903 22
1.8389131 3.1305952 -0.4457981 22
2.1089115 3.5859447 -0.36396238 20
2.4665792 4.1890936 -0.25477144 8
2.9804275 5.0537114 -0.10241073 20
4.1276407 7.06078 0.14276068 22
5.8050728 9.9182892 0.60228223 2
nan nan nan nan
2.5683267 4.3758569 0.62299615 12
3.9161167 6.664196 1.2242563 26
nan nan nan nan
3.8327541 6.5041313 1.7429209 42
nan nan nan nan
1.2502524 2.1065018 -0.6563651 48
1.3419347 2.2582791 -0.60646808 22
1.4699911 2.4698539 -0.55868876 34
1.6199114 2.7185082 -0.50121611 23
1.8683164 3.1316438 -0.44774801 23
2.1220334 3.5526917 -0.36204496 33
2.4824345 4.1494894 -0.25341073 4
3.0065379 5.0195827 -0.10213149 20
4.137002 6.9647417 0.1413994 30
4.2754641 7.189271 0.43836603 5
2.5920594 4.353405 0.44327411 12
2.5296741 4.2418842 0.60642189 13
4.0030522 6.7045364 1.236771 14
4.0837154 6.8315072 1.5470794 30
3.85392 6.4394326 1.732573 40
5.9554811 9.9351397 3.1037581 7
1.2449756 2.0646355 -0.64601237 26
1.3536382 2.2421832 -0.6046685 20
1.4806764 2.4497089 -0.55639905 32
1.637357 2.7057281 -0.50090319 30
1.8788158 3.0998504 -0.44506687 27
2.1333473 3.5156474 -0.35977891 26
2.4909186 4.1000648 -0.25142196 8
3.0165603 4.9574714 -0.10129377 20
4.1471329 6.8747773 0.14014283 27
2.6298959 4.3544703 0.26659939 17
2.4388316 4.0317554 0.41224664 15
2.5420337 4.1974001 0.60252208 23
6.2802868 10.357753 1.9185126 13
3.7328522 6.1467113 1.3978667 13
3.9494026 6.4956264 1.7550683 21
4.2018147 6.9026279 2.1652801 27
1.2556814 2.0490847 -0.64394182 31
1.380859 2.25071 -0.60961735 27
1.4842043 2.4153714 -0.55105644 28
1.6509364 2.683558 -0.499026 28
1.9082367 3.0981579 -0.44677305 24
2.1542668 3.4935076 -0.35908166 29
2.5188055 4.0782976 -0.25121263 10
3.0519555 4.93576 -0.10129377 20
4.2036848 6.854423 0.14035226 19
2.5938146 4.2244439 0.25979573 11
2.3309355 3.7918496 0.38941187 17
2.5373504 4.1211791 0.594235 11
4.2860827 6.9533238 1.2937132 17
nan nan nan nan
3.8974504 6.3080468 1.7118776 23
4.254334 6.8749275 2.1663156 9
1.2709757 2.041909 -0.64445943 36
1.3841695 2.221169 -0.60421854 46
1.4943744 2.3952198 -0.54876673 24
1.6555588 2.6504788 -0.4949587 23
1.9150801 3.0611999 -0.44336072 16
2.179661 3.4800715 -0.35925597 22
2.5051281 3.9950645 -0.24713041 18
3.0895321 4.9194117 -0.10139848 22
4.2608175 6.8426232 0.14070129 3
2.4460571 3.9236445 0.2423155 16
2.3457434 3.7568941 0.38749442 15
2.5432448 4.0684648 0.58911645 12
nan nan nan nan
3.9205122 6.2546864 1.4348837 13
4.0170078 6.4011831 1.7447206 17
5.5157986 8.7793245 2.7781637 18
1.2879404 2.0381103 -0.64601237 27
1.3846711 2.1886396 -0.59791994 24
1.482688 2.3399525 -0.538463 25
1.6729641 2.6371882 -0.49464583 20
1.9252287 3.0313373 -0.44092333 20
2.1889315 3.4412355 -0.35681561 22
2.5039899 3.9319942 -0.24430427 16
3.1175685 4.8898387 -0.10122395 22
2.6614037 4.2082992 0.086912982 9
2.4862089 3.9267232 0.24357156 12
2.3765953 3.7492542 0.38836598 27
2.5907393 4.0807753 0.59350377 21
nan nan nan nan
3.9408648 6.1930699 1.4268698 48
4.0888295 6.4157104 1.756418 19
6.0123467 9.4229784 2.995054 16
1.3042253 2.03232 -0.64704764 31
1.3957024 2.1723619 -0.5961203 38
1.5074866 2.3427522 -0.54151595 18
1.6934741 2.6287658 -0.49527156 20
1.9280553 2.9894621 -0.43677977 15
2.1858761 3.3840299 -0.35245782 21
2.5476477 3.939574 -0.24587436 18
3.1244609 4.8259902 -0.10035134 6
2.5588834 3.9843416 0.082654595 15
2.3796208 3.7009554 0.23059224 15
2.3358502 3.6287026 0.37755868 16
2.581516 4.0041957 0.58497292 13
4.1938906 6.4976807 1.224882 3
4.1097341 6.3599839 1.4719007 7
4.1165824 6.3608303 1.7492195 78
5.9908009 9.2462053 2.95209 8
1.3131082 2.0150728 -0.64445943 36
1.4150934 2.1690938 -0.59791994 18
1.5463564 2.3666852 -0.54952991 27
1.7366562 2.6549006 -0.50246757 22
1.9695406 3.0074825 -0.44141081 22
2.2061698 3.3636889 -0.35193488 19
2.5400093 3.8682673 -0.24252485 16
2.6659677 4.05546 -0.084713981 5
2.556052 3.9194808 0.081677265 9
2.4370646 3.7327514 0.23362774 16
2.3415046 3.5822873 0.37442106 23
2.6050589 3.9794321 0.58399796 23
6.3755102 9.7279739 1.8421725 1
4.1518807 6.3278546 1.4711374 5
4.1009555 6.2407374 1.724025 23
5.7897615 8.8006792 2.8226805 34
1.3228804 1.9994121 -0.64238888 36
1.4377351 2.1705341 -0.60106927 42
1.5563294 2.3460159 -0.5472402 24
1.7540557 2.6410661 -0.50215465 22
1.9871914 2.9887002 -0.44067958 16
2.2395377 3.3631303 -0.3535037 15
2.5492268 3.8238511 -0.24085009 18
2.6031849 3.9003627 -0.08185178 19
2.4166477 3.6497757 0.076406635 11
2.4067831 3.6307466 0.22828946 19
2.3741689 3.5774739 0.37564126 31
2.5580571 3.8487287 0.5674237 17
6.2802167 9.4381866 1.795555 1
4.2090173 6.3183212 1.4757168 15
4.1563206 6.2297869 1.7289739 42
6.8350015 10.233173 3.2973547 18
1.3346512 1.9869212 -0.64135361 30
1.4224033 2.1151659 -0.58847201 31
1.5704765 2.3318369 -0.54647696 29
1.7536772 2.6009128 -0.49683592 22
2.0246673 2.999434 -0.44433567 16
2.2406449 3.3144011 -0.35001746 35
2.5277236 3.7348371 -0.23634921 14
2.559685 3.7777989 -0.079652779 6
2.4019089 3.5730696 0.075150065 31
2.3740876 3.5276923 0.22284654 22
2.3679147 3.5145462 0.37076053 13
2.5559936 3.7879937 0.56108648 21
6.3791227 9.4432211 1.8049411 16
4.2211304 6.241622 1.4646499 21
4.1756692 6.1651216 1.719076 19
6.1939645 9.1347065 2.9572666 32
1.3441366 1.9711708 -0.63928306 36
1.458012 2.1357632 -0.59702015 34
1.5856084 2.3191962 -0.54609537 36
1.763981 2.5771964 -0.49464583 27
2.0197487 2.9475636 -0.43872967 26
2.2795122 3.3216767 -0.35245782 14
2.5673079 3.7368536 -0.23760527 14
2.565599 3.7301803 -0.079024501 14
2.4763904 3.6288908 0.076685868 15
2.3862643 3.4928913 0.22169513 28
2.3957677 3.5028629 0.37128347 26
2.5195575 3.6783433 0.54743713 13
6.5599651 9.5662546 1.8371665 4
