# .PCD v0.7 - Point Cloud Data file format
VERSION 0.7
FIELDS x y z intensity
SIZE 4 4 4 4
TYPE F F F F
COUNT 1 1 1 1
WIDTH 1433
HEIGHT 1
VIEWPOINT 0 0 0 1 0 0 0
POINTS 1433
DATA ascii
0.79014844 2.8223877 -0.67665279 23
0.87017947 3.0999186 -0.62585354 27
0.97399676 3.4627879 -0.56973439 26
1.1297735 4.0085583 -0.5113638 18
1.344504 4.7608967 -0.4328154 5
1.7069978 6.0283842 -0.32835582 2
2.3142803 8.1567526 -0.14799641 3
3.9098296 13.975167 0.25330424 28
3.3064058 11.794505 0.64195293 8
3.8546257 13.722451 1.2470243 18
8.4540615 30.015982 3.8288913 36
8.4658804 29.997746 4.9367595 27
8.4754925 29.971714 6.0543699 24
10.816414 38.173523 9.1600075 36
8.4809961 29.851906 8.3153391 18
0.72249621 2.5179865 -0.70191729 31
0.80283463 2.7924547 -0.67080408 28
0.88637018 3.0769444 -0.62241894 35
1.0002853 3.4655666 -0.57129872 37
1.151661 3.9795978 -0.50868267 18
1.3632823 4.7016416 -0.4282833 14
1.7201284 5.9207287 -0.32312223 2
2.329222 7.9964051 -0.14537854 6
3.3867733 11.795548 0.21421084 18
3.3915761 11.789001 0.64289492 11
3.9376259 13.651179 1.2430152 18
8.664793 29.980629 3.8318162 24
8.6775646 29.96599 4.9411397 14
8.6954765 29.949522 6.0620022 37
11.19152 38.471317 9.2499886 37
8.6980648 29.841702 8.3287973 18
0.73743719 2.5055974 -0.69984674 24
0.81631047 2.768234 -0.66630507 24
0.90727168 3.068799 -0.62203735 32
1.0132328 3.420619 -0.56504136 22
1.1822431 3.9809742 -0.50990134 16
1.3915296 4.6767316 -0.42688882 19
1.7414529 5.8415837 -0.31945869 11
2.3964434 8.0182686 -0.14607665 9
4.0998764 13.91226 0.25316462 18
3.4579601 11.711403 0.63996416 14
4.0248036 13.604955 1.2412721 15
8.8840466 29.953661 3.8362033 12
8.8933067 29.927401 4.9448938 14
8.9099426 29.906902 6.0658183 37
11.571285 38.765717 9.3399677 38
8.9017601 29.765444 8.3246565 36
0.75423056 2.4965575 -0.69881141 31
0.82932407 2.7399397 -0.66090626 27
0.93095279 3.0699055 -0.62356383 30
1.0342368 3.4019408 -0.56316411 23
1.2030642 3.949837 -0.50697654 19
1.4206538 4.6554699 -0.42584294 23
1.7545778 5.7353897 -0.3143298 5
2.4242392 7.9095697 -0.14440121 12
3.5771751 11.833249 0.21578155 20
3.5596337 11.745613 0.64320898 8
3.6635993 12.065901 1.1032174 2
9.0998783 29.913696 3.8391283 12
9.1245222 29.91968 4.9542804 28
9.1299896 29.881525 6.0734506 25
9.1641502 29.937233 7.2281275 18
9.1252966 29.736071 8.3344908 55
0.75678021 2.4432518 -0.68535286 30
0.85536289 2.7564175 -0.66630507 14
0.95406306 3.0669146 -0.62432706 27
1.0538472 3.3814363 -0.56097406 26
1.228835 3.9356573 -0.50624532 18
1.4479821 4.6261697 -0.42409983 19
1.7838213 5.6886959 -0.3124457 2
2.4380462 7.7608166 -0.14199278 18
3.645762 11.75578 0.21483912 24
3.6628749 11.78914 0.64697713 17
3.6618831 11.764188 1.0779423 14
9.3255291 29.885715 3.8440032 12
9.3473253 29.900499 4.9617891 14
9.3501139 29.854525 6.0810828 50
9.3880653 29.902496 7.2357759 18
9.3512058 29.730619 8.3510561 55
0.78842908 2.4839425 -0.69829381 39
0.85450584 2.6872373 -0.65100837 12
0.96710348 3.0339918 -0.6189844 28
1.067814 3.3438885 -0.55596817 26
1.2423695 3.8834963 -0.50063932 19
1.4784161 4.6102571 -0.42357689 16
1.8014979 5.6076488 -0.30867749 2
2.452343 7.6198783 -0.13972397 18
3.8022442 11.964451 0.21913242 25
3.7693307 11.839404 0.651164 17
3.7178903 11.656714 1.0704468 18
9.538765 29.835012 3.845953 73
9.5636597 29.858974 4.9658561 28
9.5727205 29.833384 6.0902419 37
12.704763 39.499657 9.5793171 41
9.5727568 29.70874 8.3634796 56
0.79977804 2.4600058 -0.69311744 29
0.86298752 2.6497059 -0.64336008 39
0.98216695 3.0085034 -0.61516827 31
1.0935873 3.343863 -0.55721962 27
1.2669771 3.8671834 -0.49966437 16
1.5035479 4.5811577 -0.42183378 16
1.820006 5.5323272 -0.30522332 7
2.4522784 7.4411378 -0.13675706 17
3.9110553 12.015575 0.22056352 25
3.7998827 11.653296 0.64237159 8
3.806603 11.653201 1.0725386 16
9.7628956 29.816736 3.8522902 73
9.7848253 29.830891 4.9724264 14
9.7991343 29.821785 6.1016903 25
13.014769 39.538136 9.6099091 42
9.7890091 29.668705 8.3712435 37
0.81022263 2.4341989 -0.68742341 37
0.88639617 2.658406 -0.6469593 41
0.99329424 2.9738159 -0.60944396 35
1.1037884 3.2988749 -0.55096221 35
1.2857406 3.8337765 -0.49649575 15
1.5120193 4.500668 -0.41538426 20
1.8518879 5.5027738 -0.30428126 2
2.4837151 7.3632026 -0.1356401 23
3.978214 11.945042 0.21976072 25
3.8841679 11.642322 0.64320898 8
3.8903866 11.633903 1.0732358 20
9.9832659 29.802303 3.8591151 61
10.000834 29.802929 4.9789968 14
10.017106 29.782421 6.1077962 38
13.30168 39.479553 9.6180077 42
10.006793 29.648975 8.3847017 38
0.82739437 2.4304569 -0.68794107 18
0.90069574 2.6412446 -0.64425987 27
1.0203793 2.9853868 -0.61326015 27
1.1306298 3.3023026 -0.55283946 33
1.298925 3.7873819 -0.49162099 27
1.54003 4.4827347 -0.41468704 20
1.8694518 5.4292812 -0.30093178 2
2.5155206 7.2931948 -0.13466278 17
4.0647402 11.926439 0.21993522 40
3.9885879 11.682963 0.64697713 8
3.9740047 11.620347 1.074456 12
10.200093 29.758171 3.8625274 61
10.221484 29.769751 4.9852543 28
10.231075 29.746967 6.1146655 25
10.269919 29.809153 7.2789669 57
10.238759 29.651434 8.4054079 19
0.84307134 2.4209723 -0.68690574 29
0.9139784 2.620172 -0.64066064 27
1.0270773 2.9394515 -0.60524619 36
1.1419896 3.2628336 -0.5475207 22
1.3266482 3.7819674 -0.49210843 18
1.558076 4.4342804 -0.41120079 15
1.8871323 5.3617959 -0.2978963 2
2.4925373 7.0661306 -0.13078834 8
4.1556907 11.926822 0.22045881 29
4.0607743 11.634803 0.64582574 20
4.0563436 11.596082 1.0748047 20
10.418183 29.733006 3.868377 49
10.444832 29.759125 4.995266 28
10.452846 29.715555 6.1230607 38
10.451886 29.663204 7.2609701 18
10.48729 29.714041 8.4431953 58
0.86341721 2.4260979 -0.69001162 40
0.94357055 2.6469309 -0.64875889 28
1.0449327 2.9248133 -0.60371965 36
1.1727275 3.2770998 -0.55127513 23
1.342985 3.7466877 -0.48869613 18
1.5788914 4.3951688 -0.40858611 18
1.8954439 5.2676802 -0.2933954 2
2.5161681 6.9812756 -0.12953176 19
4.2435522 11.910706 0.22070314 25
4.1633825 11.666364 0.64917523 28
4.1539593 11.620734 1.0796853 18
10.664322 29.767946 3.882514 24
10.664331 29.718956 5.0008979 14
10.682083 29.719471 6.1387072 39
10.694383 29.688519 7.2852654 57
10.721359 29.714605 8.4644184 58
0.87637103 2.4091182 -0.68690574 40
0.95535517 2.6219692 -0.64425987 22
1.0707122 2.9322009 -0.6067726 27
1.1799694 3.2261641 -0.54407912 17
1.3602304 3.7129898 -0.48552752 15
1.5813859 4.3073549 -0.40143937 14
1.9170079 5.213079 -0.2910926 2
2.5185385 6.8378167 -0.12719314 16
4.3183842 11.858243 0.22028428 21
4.2584214 11.674538 0.65126866 17
4.2835364 11.724319 1.0920614 17
10.922388 29.830711 3.9005504 12
10.888552 29.690144 5.0087194 29
10.898781 29.669971 6.1440496 26
14.514519 39.428104 9.6998901 43
10.93655 29.660788 8.4706297 39
0.89114815 2.3975093 -0.68535286 29
0.96887606 2.6024523 -0.64111054 34
1.0822353 2.9007423 -0.60181159 27
1.2052294 3.2252493 -0.54533058 24
1.3784645 3.6829524 -0.48284638 22
1.6177136 4.3129992 -0.40300813 22
1.944924 5.1771331 -0.28983656 2
2.55776 6.7976093 -0.12677428 16
4.4219918 11.884029 0.22133142 27
4.3181939 11.58651 0.6480239 17
4.3262582 11.589602 1.0822999 16
11.128974 29.750017 3.9000633 75
11.117064 29.670744 5.0184183 29
11.120842 29.633596 6.1524458 26
14.789425 39.325813 9.6998901 43
8.1041975 21.515265 6.1604114 24
0.90375113 2.3803926 -0.68224704 29
0.98910016 2.601089 -0.64246029 36
1.1066531 2.9041243 -0.6041013 25
1.2178553 3.1909194 -0.54095048 19
1.4027252 3.6695311 -0.4823589 20
1.6427956 4.2885771 -0.40178797 23
1.9495412 5.0813808 -0.28523099 4
2.5757453 6.7030554 -0.12534317 21
nan nan nan nan
4.4195833 11.610211 0.65105933 23
4.4148712 11.579595 1.0842174 24
11.353415 29.716099 3.9059129 75
11.350746 29.662521 5.0303073 14
11.346407 29.604734 6.1627488 39
4.151576 10.809591 2.6733186 14
8.0662556 20.969528 6.0201311 23
0.9161576 2.3632178 -0.67914116 37
0.99806553 2.5705044 -0.63661152 33
1.1233413 2.8871794 -0.60219324 30
1.2350819 3.1694555 -0.53876036 15
1.4225352 3.6448545 -0.480409 22
1.6835809 4.3048368 -0.40440264 18
1.9689429 5.0267334 -0.2829282 14
2.5742795 6.5620456 -0.12303946 18
4.2243047 10.885284 0.2038092 3
4.6329412 11.919744 0.67021435 6
4.5071683 11.578197 1.0870063 23
11.574303 29.671247 3.9105437 37
11.572649 29.621193 5.0368776 14
4.3345404 11.077515 2.3122237 34
4.1479778 10.578961 2.6233795 36
8.0316715 20.452377 5.8876157 22
0.93618679 2.3657463 -0.68172938 33
1.0195768 2.5725319 -0.63886106 41
1.1268051 2.8372996 -0.59341598 26
1.239657 3.1167035 -0.53125149 17
1.4332541 3.5979514 -0.47553423 20
1.7069435 4.2763247 -0.40283385 15
1.973591 4.9368286 -0.27863666 7
2.5687428 6.4158206 -0.12063103 28
4.0483255 10.219701 0.19187176 3
4.6534328 11.729311 0.66131723 3
4.5974483 11.570521 1.0892724 19
13.873196 34.844093 4.6049557 15
8.7163887 21.858883 3.7272079 8
4.4023042 11.023282 2.3072627 17
4.1167498 10.287403 2.5581436 46
8.003933 19.970819 5.7649355 28
0.9411062 2.330492 -0.67344719 29
1.0331265 2.5545123 -0.63616163 23
1.1296265 2.7875147 -0.58463877 31
1.2859001 3.1683755 -0.54157621 16
1.4508628 3.569468 -0.47309685 30
1.7066977 4.1904945 -0.39586139 14
2.0510049 5.0283422 -0.28460297 7
2.602128 6.3699636 -0.12010746 18
nan nan nan nan
4.7299647 11.683576 0.66058451 3
4.7357631 11.680314 1.1026944 12
14.114605 34.742718 4.6044679 15
4.4891028 11.033237 1.8865999 12
4.3383884 10.646841 2.234755 54
4.1626873 10.195267 2.542397 26
4.2233009 10.328266 2.9898779 30
0.95661718 2.3220787 -0.67292953 73
1.0375569 2.5148115 -0.62806338 24
1.1520584 2.7868183 -0.58616525 26
1.2883404 3.1118677 -0.5334416 16
1.4696627 3.5445828 -0.47114691 23
1.7038071 4.1012001 -0.3885403 18
2.0975676 5.0415616 -0.28617305 16
2.6380749 6.331337 -0.11972351 15
4.1921511 10.165876 0.19194156 10
4.905952 11.879178 0.67356384 9
4.8080535 11.624874 1.1006026 17
8.9100227 21.500103 2.8575926 64
8.9132147 21.475977 3.6827807 47
4.2799969 10.297222 2.1675904 37
nan nan nan nan
4.2551408 10.20225 2.9619253 42
0.97729599 2.3260293 -0.6760354 67
1.0452642 2.4841554 -0.62221462 34
1.1653845 2.7642353 -0.58311236 31
1.3061923 3.0936983 -0.53187722 17
1.5021037 3.5525203 -0.47358429 16
1.7355042 4.0965447 -0.38923752 23
2.1100888 4.9734759 -0.28313756 21
2.6540573 6.2465105 -0.11846693 22
4.2296801 10.057101 0.19044067 8
5.0926433 12.091289 0.68758982 12
4.8859906 11.583684 1.0999055 25
9.0691881 21.459312 2.8605175 88
4.5326185 10.709342 1.8418596 31
nan nan nan nan
4.2246428 9.9478168 2.4951572 20
3.9898133 9.3811941 2.7315764 11
0.98590255 2.3013928 -0.67085898 28
1.0656536 2.4839618 -0.62401426 24
1.1862048 2.7596393 -0.58387554 31
1.3238548 3.0754313 -0.5303129 20
1.5205833 3.5273626 -0.47163439 13
1.7798611 4.1209102 -0.39272377 19
2.128901 4.9219608 -0.28104413 21
2.6697831 6.1636062 -0.11724527 5
4.3297362 10.097166 0.19176705 7
5.2762308 12.286675 0.70077848 9
5.070641 11.790893 1.1229146 13
nan nan nan nan
4.5830078 10.621215 1.8321607 18
4.5027809 10.420285 2.2065153 2
4.4341326 10.241766 2.5765896 6
4.0982432 9.4523668 2.7605641 29
1.0034915 2.2979946 -0.67189431 45
1.082188 2.4746759 -0.62356436 27
1.1983508 2.7351067 -0.580441 27
1.3429105 3.060688 -0.5293743 19
1.5331923 3.4894009 -0.46797833 15
1.815092 4.1251125 -0.39429256 17
2.1422658 4.8594608 -0.27832264 30
2.6764088 6.0624948 -0.11567455 15
4.2014999 9.6122818 0.18311065 8
5.1712704 11.814084 0.6758666 3
5.1144395 11.667617 1.1145476 14
4.7542009 10.825243 1.4517077 6
4.6848798 10.652248 1.843111 13
4.3965797 9.9825392 2.1202698 3
4.1907501 9.501708 2.3975286 22
4.1180601 9.3192739 2.7300234 15
1.0108701 2.2715182 -0.66620022 33
1.1010246 2.4706206 -0.62446415 27
1.2121398 2.7161293 -0.57815129 30
1.3306679 2.9775338 -0.51654667 27
1.5550818 3.473177 -0.4672471 22
1.8332497 4.088706 -0.39202651 19
2.1769273 4.8484111 -0.27853197 28
2.7038984 6.0108376 -0.11504627 22
4.342473 9.7533531 0.1863568 10
5.3337107 11.96285 0.68643844 21
5.2989702 11.862658 1.1366851 11
4.7045689 10.517199 1.4146595 21
4.7023659 10.497524 1.821836 25
nan nan nan nan
nan nan nan nan
4.5540309 10.119011 2.9733133 18
1.0279034 2.2681041 -0.66723549 46
1.1113735 2.4488726 -0.62086499 29
1.2326963 2.7111759 -0.57891452 27
1.3767961 3.0239038 -0.52624559 16
1.5778618 3.4607058 -0.46700338 17
1.8477982 4.0471339 -0.38923752 21
2.2049072 4.8203812 -0.27779928 28
2.7114401 5.9195709 -0.11365007 20
4.2898502 9.4569197 0.18126069 10
5.3526678 11.783484 0.6782741 15
5.305347 11.663092 1.1209971 10
4.6914415 10.29443 1.3890669 39
4.8509884 10.629771 1.85062 13
4.7174029 10.322738 2.2061336 18
nan nan nan nan
4.6124921 10.060626 2.9655488 28
1.0420933 2.2573645 -0.66620022 46
1.127625 2.439285 -0.62041503 38
1.249474 2.6991584 -0.57815129 23
1.3923643 3.0037086 -0.52436841 27
1.6028215 3.4514055 -0.4672471 20
1.8852491 4.0540085 -0.39115497 19
2.2090011 4.7437019 -0.27424043 22
2.7366347 5.8660674 -0.11298689 15
4.3088455 9.3294687 0.17937584 10
5.5878534 12.082141 0.69763839 9
4.920928 10.620652 1.02408 20
4.7881355 10.319883 1.3968666 34
4.6851797 10.084149 1.7611394 33
4.7272196 10.156061 2.1775124 30
4.9667568 10.656101 2.7142596 18
4.3785539 9.3812904 2.7740226 4
1.0566119 2.248471 -0.66568261 33
1.1383934 2.4192109 -0.61726576 36
1.2624259 2.6779394 -0.57547992 35
1.4082392 2.9831977 -0.52249116 30
1.6288207 3.4458003 -0.46797833 16
1.9042741 4.0230742 -0.38941187 19
2.2275167 4.6974854 -0.27246103 20
2.7319007 5.7533698 -0.11117183 16
4.3849368 9.3226843 0.1798296 7
5.6269622 11.94707 0.69209075 12
5.0432553 10.693228 1.0343643 33
4.887207 10.343637 1.4046662 13
nan nan nan nan
4.7853131 10.100584 2.1725514 13
4.7560191 10.025184 2.5617428 14
4.4215465 9.3033848 2.7600465 29
1.0739521 2.2445247 -0.66671789 34
1.1653602 2.4322929 -0.62266457 31
1.2687371 2.6445026 -0.57013732 34
1.4173937 2.9503946 -0.51842386 23
1.6442287 3.4164577 -0.46554092 15
1.9184749 3.9809644 -0.38662288 18
2.2351332 4.6318493 -0.26953021 20
2.7162962 5.6189351 -0.10893792 16
4.3697186 9.1284866 0.17665327 10
5.787571 12.074191 0.7017206 9
nan nan nan nan
4.9222264 10.236782 1.3946729 27
3.4989274 7.266994 1.277444 15
3.459471 7.172224 1.5478426 13
3.5910268 7.4350166 1.9062352 17
5.086165 10.516553 3.1301577 13
1.077365 2.212846 -0.65947098 42
1.1690788 2.3980298 -0.61591601 30
1.2897518 2.6408737 -0.57128215 22
1.4414268 2.9475267 -0.51967537 35
1.6488286 3.3656764 -0.4601787 17
1.9277954 3.9299088 -0.38296232 20
2.248842 4.5763016 -0.26722744 20
2.6530442 5.3917027 -0.10488896 7
4.5305743 9.2972927 0.1805277 8
5.7622418 11.80912 0.6886366 9
3.3415031 6.8359537 0.66569555 7
4.9045577 10.020307 1.3698115 6
4.7527623 9.6973171 1.7104547 15
nan nan nan nan
3.6015732 7.3258238 1.88464 19
4.7754946 9.6965389 2.8961852 12
1.0948883 2.2085414 -0.66050619 58
1.1870753 2.3913484 -0.61636597 27
1.3103646 2.6350925 -0.57204539 27
1.4519159 2.9159167 -0.51592094 23
1.6772993 3.362674 -0.46139738 22
1.9442946 3.8928413 -0.38069627 30
2.291362 4.5797396 -0.26837882 22
2.7488828 5.4870048 -0.10712288 19
4.4769969 9.0228081 0.17581554 14
5.1392126 10.343813 0.60531777 25
5.1338844 10.315011 1.0080433 11
5.1381702 10.310086 1.4144157 61
3.7636025 7.5420294 1.3350118 17
3.6166995 7.2349896 1.5722662 10
3.6181443 7.228415 1.8661941 21
5.3755612 10.720719 3.2134974 8
1.1097938 2.1989255 -0.65998858 65
1.2006412 2.3758354 -0.61456633 28
1.3203202 2.6081326 -0.5682292 33
1.4655998 2.8913569 -0.51341796 31
1.6971422 3.3438008 -0.4604224 24
1.9623978 3.8614111 -0.37895316 20
2.3142178 4.5458331 -0.26733211 27
2.7962039 5.4854956 -0.10747192 16
4.4025993 8.7156668 0.17044021 13
5.1400819 10.16241 0.59683931 25
5.217474 10.302025 1.0103093 7
nan nan nan nan
5.1451378 10.128479 1.7993095 13
3.5077937 6.8963342 1.5039566 7
3.6853199 7.2359738 1.8747423 14
4.9164853 9.6366644 2.8987734 18
1.1233532 2.1876869 -0.65895331 46
1.2154162 2.3639293 -0.61366653 46
1.3398398 2.6025758 -0.56899244 30
1.4888672 2.8883374 -0.51466948 23
1.7067817 3.3054144 -0.45676634 26
1.9838158 3.8369992 -0.37790731 30
2.3230698 4.4874072 -0.26481998 15
2.8261492 5.449863 -0.10715777 14
4.5093379 8.7779913 0.17225526 13
5.2137036 10.136066 0.59736264 20
6.4728689 12.562481 1.2363913 2
3.5040948 6.7919617 0.93839401 21
3.5158687 6.8060346 1.2133058 5
nan nan nan nan
4.9047923 9.4663515 2.4614146 32
nan nan nan nan
1.1364301 2.1765649 -0.65791804 32
1.2260618 2.3452394 -0.6109671 24
1.3452244 2.5688105 -0.56364983 36
1.5126629 2.884871 -0.51592094 23
1.7144759 3.2655995 -0.45286649 27
2.0031354 3.8089485 -0.3765128 18
2.3450353 4.4534068 -0.26377326 15
2.8184109 5.3455939 -0.10548234 19
4.5529132 8.7126217 0.17159207 11
5.2500801 10.033944 0.59348977 2
5.4782944 10.456775 1.0327955 16
3.5671046 6.7972159 0.94253755 30
5.1207433 9.7453136 1.7436188 1
3.6272264 6.8942256 1.5142603 11
3.6524355 6.9303865 1.8086065 17
5.0966702 9.658515 2.9262083 20
1.1352887 2.1378665 -0.64860052 31
1.2442344 2.340064 -0.61186689 37
1.359435 2.5524247 -0.5621233 31
1.5234725 2.8568094 -0.51279223 17
1.750324 3.2780654 -0.45627886 35
2.0165229 3.7702749 -0.37407246 16
2.3760686 4.4369273 -0.26377326 9
2.8282576 5.2746792 -0.1044701 15
4.4475107 8.3680811 0.16541392 9
5.2411828 9.8489456 0.58469737 14
5.4443507 10.217825 1.0129241 7
nan nan nan nan
5.1057916 9.5542698 1.7157733 28
3.5706053 6.6731281 1.4711374 29
3.5920982 6.7020454 1.7555182 23
5.6143217 10.461899 3.1814039 11
1.1419237 2.1145906 -0.64394182 31
1.2633204 2.3364639 -0.61321658 30
1.3734812 2.5359664 -0.56059688 23
1.5264299 2.8148472 -0.5071606 28
1.7551696 3.2326198 -0.45164782 19
2.0364301 3.745959 -0.37302658 18
2.3974349 4.4026904 -0.26272655 9
2.8678846 5.2600727 -0.10457481 24
4.4240541 8.1855373 0.16241211 13
5.5664639 10.286385 0.61295879 14
3.7235434 6.8722143 0.68382394 1
nan nan nan nan
nan nan nan nan
3.5570548 6.5376682 1.4467138 24
3.6488216 6.6979747 1.7609171 42
5.2902465 9.6949463 2.9593372 32
1.1687456 2.1285808 -0.65067112 33
1.265519 2.3019722 -0.60646808 36
1.3859766 2.5179598 -0.55868876 30
1.5455532 2.8043926 -0.5071606 28
1.7892071 3.2411423 -0.45457271 19
2.0509665 3.7107251 -0.37093481 16
2.4176767 4.368794 -0.2616798 14
2.8812699 5.1979485 -0.1037371 15
4.0416183 7.3577633 0.14653042 6
5.5843778 10.153753 0.60730648 11
5.3692203 9.7464151 0.97352958 7
3.7870772 6.8659401 0.9627679 23
5.2752366 9.5521317 1.7282882 60
nan nan nan nan
3.7899075 6.8428135 1.8059072 29
5.0160251 9.0454359 2.7714343 24
1.1935616 2.1391332 -0.6563651 34
1.2840101 2.2984083 -0.60781777 33
1.3987279 2.4996562 -0.5567807 24
1.565094 2.7935343 -0.5071606 25
1.8180257 3.2410076 -0.45627886 28
2.068037 3.6806846 -0.36936605 18
2.4402816 4.3378844 -0.26084244 8
2.936209 5.2130637 -0.1044352 22
3.9914906 7.1477923 0.1429003 9
5.6726727 10.1459 0.60919058 2
5.7721677 10.311174 1.0338414 16
3.8455975 6.8583798 0.96544904 36
4.0102143 7.1431932 1.2974676 15
nan nan nan nan
3.6865339 6.5478859 1.7348226 10
5.1739216 9.178484 2.8231983 21
1.2075136 2.1290684 -0.65584749 46
1.2904019 2.2724426 -0.60331875 33
1.4083807 2.4761772 -0.55372775 21
1.5845597 2.7825391 -0.5071606 23
1.8209432 3.1937466 -0.45140409 26
2.0936828 3.6661575 -0.36936605 18
2.4645584 4.3103395 -0.26021439 8
2.938755 5.1334314 -0.10324844 15
4.0985479 7.2206187 0.14492479 14
5.6002755 9.8542662 0.59401315 8
4.030014 7.082593 0.71293396 25
5.6302166 9.8788366 1.3961353 13
3.8827796 6.804482 1.2408383 19
3.6891379 6.4572725 1.445569 13
3.7902298 6.6234727 1.7618167 40
5.2590013 9.1790161 2.8345864 12
1.2155945 2.1088705 -0.65222406 45
1.3111056 2.2718174 -0.60556829 36
1.4246498 2.4645853 -0.5533461 31
1.6158193 2.7919261 -0.51091504 18
1.823289 3.1466055 -0.44652933 27
2.0982256 3.615263 -0.36570549 20
2.4534504 4.2222252 -0.25592285 17
2.968488 5.1024189 -0.10303901 27
4.1058865 7.1173491 0.14342389 34
4.0766354 7.058104 0.42716613 2
5.4458022 9.4172096 0.95174068 10
2.565964 4.4300857 0.62860215 12
3.8806407 6.6917677 1.2251948 17
nan nan nan nan
3.7795544 6.499146 1.7357225 10
5.4152946 9.3006811 2.8837619 27
1.2302866 2.1003332 -0.65222406 45
1.3397487 2.2844625 -0.611417 25
1.4517646 2.4715075 -0.55716228 23
1.6032268 2.72609 -0.50090319 23
1.8442048 3.1320894 -0.44628558 17
2.1041818 3.5679202 -0.36239356 24
2.4757571 4.1929564 -0.25519016 8
2.9989469 5.0729651 -0.10286448 20
4.1322179 7.048831 0.14262106 24
4.1520996 7.074254 0.42988759 2
2.5679536 4.3699789 0.44344842 4
2.5817254 4.3864021 0.62494606 12
3.9192405 6.650898 1.2226919 24
nan nan nan nan
3.8476369 6.5111885 1.7460703 38
3.8334095 6.4793644 2.0172358 2
1.2455434 2.0935698 -0.65274167 46
1.3482877 2.2635698 -0.60826772 21
1.477607 2.4767425 -0.56059688 33
1.6197196 2.7117221 -0.50027746 25
1.8624251 3.1143525 -0.44555435 19
2.1233006 3.5449688 -0.36152202 33
2.4836969 4.1417499 -0.25309673 6
3.0097334 5.0130024 -0.10206167 20
4.1381545 6.9500966 0.14118996 27
4.2686758 7.1607704 0.43690062 2
2.5241215 4.2292171 0.43089798 11
2.519855 4.2153788 0.60300958 18
4.0161572 6.7105112 1.2386482 14
4.066648 6.786809 1.5379206 28
3.8537619 6.4213524 1.7289739 46
5.9917502 9.9719524 3.1172168 5
1.2531337 2.0732501 -0.64911819 34
1.3479151 2.2274261 -0.60106927 24
1.4836682 2.4478981 -0.55639905 32
1.636562 2.6969707 -0.49965176 28
1.8696922 3.077523 -0.44214204 19
2.1376407 3.5130384 -0.35977891 26
2.4907298 4.0884895 -0.2508986 12
3.0102956 4.9355302 -0.10090981 20
4.1596646 6.8765512 0.14028244 26
2.6341767 4.3495464 0.26649469 22
2.4409862 4.0257926 0.41189805 15
2.5358272 4.1756268 0.599841 18
3.7919788 6.2367101 1.1560508 10
4.1088257 6.7498679 1.5360124 16
3.9563203 6.4891329 1.7546183 21
4.2162833 6.907383 2.168386 27
1.2716194 2.0710368 -0.65118873 29
1.3777187 2.241204 -0.60736787 29
1.4863114 2.4140754 -0.55105644 24
1.6532773 2.6821163 -0.499026 30
1.9098972 3.0948026 -0.44652933 24
2.1704943 3.5115876 -0.36117339 28
2.5097532 4.055716 -0.24995655 12
3.0478384 4.9194942 -0.10101452 15
4.2075739 6.8473415 0.14028244 19
2.5692456 4.1762481 0.25696957 9
2.3373797 3.7949021 0.38993478 21
2.5346904 4.1088281 0.59277254 11
4.2599673 6.8974819 1.2840142 17
4.0742769 6.5891047 1.5058646 31
3.9943442 6.4497571 1.751469 34
5.8137999 9.3767014 2.9562314 8
1.2778686 2.048995 -0.64704764 38
1.3861071 2.2199605 -0.60421854 38
1.490636 2.383666 -0.54647696 19
1.6604298 2.6520925 -0.49558446 28
1.9082605 3.0443907 -0.44116706 16
2.1811852 3.4744122 -0.35890734 22
2.5156872 4.0025854 -0.24775843 16
3.0853038 4.9031739 -0.10111924 24
2.6353269 4.2223206 0.086878076 5
2.4427559 3.9092247 0.2415828 15
2.3532495 3.761601 0.38819164 13
2.5622618 4.0893488 0.59252882 17
4.1841545 6.6701126 1.2470957 29
3.9719138 6.3244138 1.4516749 24
4.0693617 6.4695535 1.7645162 19
5.5239592 8.7719088 2.7776461 24
1.2828399 2.0253353 -0.64238888 26
1.3921801 2.1954172 -0.60016948 27
1.504083 2.3682294 -0.54533213 22
1.672545 2.630434 -0.49370724 20
1.9454578 3.0561128 -0.44482315 17
2.1861072 3.4288616 -0.35576975 21
2.5252995 3.9563065 -0.24597903 20
3.109766 4.8663516 -0.1008051 22
2.5330539 3.9960792 0.082584791 9
2.4646354 3.8836455 0.24105945 10
2.3591506 3.71313 0.38487977 27
2.5992739 4.0847592 0.59447873 25
nan nan nan nan
4.0307498 6.3197036 1.4570175 28
4.0882049 6.3999271 1.7532686 19
6.0222154 9.4166756 2.995054 18
1.2979922 2.0179555 -0.64290655 33
1.3969213 2.169261 -0.59567046 39
1.5227094 2.3609705 -0.54609537 23
1.7015845 2.6352878 -0.49683592 22
1.949505 3.0157824 -0.44092333 15
2.1915841 3.3850842 -0.35280645 19
2.5398223 3.918468 -0.24472295 14
3.0925024 4.7656813 -0.099164575 4
2.5132654 3.904314 0.081048973 15
2.4213624 3.7572203 0.23425576 18
2.3277667 3.6078386 0.37564126 17
2.5760112 3.9864845 0.58277923 13
4.2060571 6.5015779 1.2264463 15
4.1302652 6.3770986 1.4768617 6
4.124301 6.358151 1.7496694 61
5.9889064 9.222105 2.9463961 18
1.3204997 2.0217838 -0.64704764 31
1.4109651 2.1578245 -0.59522051 19
1.5542117 2.3732767 -0.55143803 23
1.7361858 2.6481247 -0.50152892 22
1.9715993 3.0037589 -0.44116706 20
2.2123866 3.3667576 -0.35245782 21
2.5451584 3.8672726 -0.24262951 14
2.6427078 4.010921 -0.083841361 1
2.5262382 3.8649127 0.08059521 9
2.4344101 3.7201695 0.2329997 18
2.3430712 3.5765004 0.37407246 30
2.5830884 3.9368687 0.57814825 31
6.3173671 9.6172771 1.8224617 12
4.0959382 6.228364 1.4490036 18
4.1214023 6.2599435 1.7303237 25
5.8053555 8.8042898 2.8257864 29
1.3335146 2.010906 -0.64653003 36
1.4303064 2.1544156 -0.59702015 38
1.5496821 2.3315768 -0.54418731 27
1.761831 2.6477575 -0.50371903 18
1.9980258 2.9981809 -0.44238573 15
2.2480001 3.3694613 -0.35437521 17
2.5581093 3.8299296 -0.24137343 16
2.5839193 3.8627307 -0.081118785 17
2.3988297 3.6160035 0.075743444 12
2.3933778 3.6036878 0.22671939 12
2.3889482 3.5915754 0.37738436 26
2.546011 3.8233633 0.56401139 18
6.2654395 9.3981867 1.7889848 1
4.214541 6.3122783 1.4753352 22
4.146594 6.203476 1.7226753 44
6.6881404 9.9944029 3.2222972 6
1.3320711 1.9793444 -0.63928306 30
1.4384048 2.1349332 -0.59432071 25
1.5681171 2.3239565 -0.54495054 24
1.7570509 2.6010191 -0.49714881 22
2.0283961 2.9993107 -0.44457942 13
2.2435362 3.3124447 -0.35001746 28
2.5377073 3.7425487 -0.23697723 14
2.5382717 3.7391648 -0.078884877 6
2.449708 3.637316 0.076546252 17
2.3827477 3.5338991 0.22336988 24
2.3587191 3.4943137 0.36884311 15
2.5226111 3.7314906 0.55304313 25
6.3641138 9.4032946 1.7983708 13
4.2915483 6.3338284 1.4871653 12
4.1515069 6.1179357 1.7069287 31
6.1910815 9.1133156 2.95209 32
1.341498 1.963616 -0.63721251 36
1.4642757 2.1409242 -0.59881973 30
1.5831947 2.311332 -0.5445689 32
1.7628789 2.5707681 -0.49370724 26
2.0268154 2.9523454 -0.43970463 22
2.2778933 3.3131204 -0.35176057 12
2.5705659 3.7346132 -0.23760527 14
2.5836055 3.7493451 -0.079478264 6
2.4784255 3.6250787 0.07665097 15
2.3825412 3.4809198 0.22106709 27
2.3954432 3.4958415 0.37076053 23
2.5418608 3.7039678 0.55158067 12
6.5347533 9.5116825 1.8277806 4
4.2844839 6.2293053 1.4696109 31
4.259336 6.1834912 1.7334729 27
6.1832638 8.9665012 2.9184437 18
1.355173 1.9542034 -0.63721251 41
1.4691834 2.1162431 -0.59477061 39
1.5802397 2.27282 -0.53808141 39
1.7773979 2.5535343 -0.49276862 23
2.0462425 2.9364951 -0.4394609 15
2.279305 3.2660923 -0.34844866 9
2.5759881 3.6871045 -0.23572117 24
2.5845013 3.6951673 -0.078710355 3
2.4854314 3.5814025 0.076092489 16
2.3828533 3.4297564 0.21886899 23
2.3526704 3.3825285 0.36047614 21
2.5619826 3.6779888 0.55036199 13
3.2202725 4.6178746 0.89167655 3
4.5447645 6.5099306 1.5432632 28
4.5313115 6.4810095 1.8257028 46
6.2468185 8.9246979 2.9189613 30
1.3665591 1.9415354 -0.63617724 35
1.4805543 2.1011555 -0.59342092 30
1.611915 2.2841904 -0.54342401 27
1.7997396 2.547518 -0.4940201 23
2.0449131 2.8913455 -0.43482983 19
2.3089604 3.2598553 -0.34949452 10
2.5623868 3.6136367 -0.23216233 22
2.9829607 4.2020917 -0.089949705 6
2.4654648 3.5002031 0.074731201 33
2.3756645 3.3689661 0.21604285 16
2.3601408 3.3432338 0.3580358 21
2.5486345 3.6049025 0.54207492 13
2.9853911 4.2179837 0.81846523 27
4.5378933 6.4043541 1.5257088 13
4.5256948 6.3777022 1.8054572 25
nan nan nan nan
1.3845718 1.9382354 -0.63824779 35
1.500856 2.0986934 -0.59567046 36
1.6221067 2.2649004 -0.54151595 42
1.8128766 2.5284698 -0.49276862 23
2.0488429 2.8544214 -0.43141752 22
2.3072398 3.2096841 -0.34583399 11
2.5980518 3.61025 -0.23310436 22
2.5680468 3.5646169 -0.076685868 4
2.4154117 3.378794 0.072497301 25
2.3758774 3.3198161 0.21394941 26
2.3973465 3.3461118 0.36012751 21
2.5818422 3.5983109 0.5437811 11
3.0366635 4.2275205 0.82440978 13
4.287921 5.9628792 1.4276329 36
7.671133 10.651964 3.0305409 16
6.3165846 8.7613916 2.8941145 28
1.3742582 1.8956761 -0.62737739 40
1.5166148 2.0897419 -0.5961203 38
1.637879 2.253521 -0.54151595 24
1.8316468 2.517349 -0.49308151 21
2.0780723 2.8528838 -0.43336743 19
2.3166749 3.1757922 -0.34391654 16
2.637326 3.6113808 -0.23436043 18
2.8076618 3.8404045 -0.083038554 12
2.510571 3.4605837 0.07462649 12
2.3907802 3.2918365 0.21321672 31
2.4007299 3.3018987 0.3571642 15
2.5671699 3.5256381 0.53549391 11
2.9218161 4.0082774 0.78561401 13
4.5597477 6.2483897 1.503575 29
7.6544785 10.473851 2.9949987 36
nan nan nan nan
1.3794457 1.8751429 -0.62375391 26
1.5288557 2.0759647 -0.59522051 30
1.6617289 2.2530916 -0.54418731 24
1.8397897 2.4917872 -0.49057853 22
2.086139 2.8223431 -0.43093005 15
2.3328626 3.1515343 -0.343045 17
2.6660411 3.5976946 -0.23467445 20
2.8784895 3.8801308 -0.08433003 15
2.4730217 3.3592336 0.072811447 23
2.4006691 3.2573793 0.21206531 15
2.3941514 3.244977 0.35280645 40
2.5999784 3.5188057 0.53720009 12
2.8451757 3.8464401 0.75776863 18
4.7457924 6.4088945 1.5501324 28
nan nan nan nan
3.5582819 4.7929769 1.5995017 17
1.3682352 1.8329566 -0.61288351 47
1.5421449 2.0636797 -0.59477061 39
1.6797705 2.2445793 -0.54495054 30
1.839375 2.4551685 -0.4858855 31
2.096262 2.795007 -0.42898014 19
2.3332715 3.1064947 -0.33990738 14
2.6310794 3.4991765 -0.22944085 18
2.6036522 3.4589286 -0.075568922 8
2.5347075 3.3931532 0.073928393 12
2.3695242 3.1685648 0.20735508 27
2.5767505 3.4419055 0.37616417 6
2.5744684 3.4338613 0.52696311 25
2.9940946 3.9892113 0.78999412 12
4.6241341 6.1542964 1.4963243 11
4.6551399 6.1865644 1.7874613 12
3.567245 4.7356162 1.5886314 1
1.382164 1.8249007 -0.61340117 56
1.5400301 2.0311241 -0.58847201 22
1.6894635 2.2249796 -0.54304242 42
1.849298 2.432832 -0.48400828 28
2.0880752 2.7439704 -0.42337415 15
2.346447 3.0790379 -0.33868721 13
2.6384823 3.458493 -0.22797546 22
2.5864682 3.3866351 -0.074382156 12
2.4001009 3.1666045 0.069355868 20
2.3831379 3.1408067 0.20662238 20
2.4283788 3.1969538 0.35123762 36
2.5298717 3.3257494 0.51306999 23
3.1535161 4.1410861 0.82440978 12
4.5598664 5.9813442 1.4619786 28
4.7017646 6.1585612 1.7888108 2
nan nan nan nan
1.400756 1.8228658 -0.61598933 33
1.5506089 2.0156887 -0.58712232 46
1.6977657 2.2038 -0.54075271 34
1.8662361 2.419863 -0.48400828 25
2.1180975 2.7434685 -0.42556778 27
2.3544803 3.0452433 -0.33676979 14
2.6967921 3.4842126 -0.23090626 18
2.5745287 3.3226545 -0.073369913 15
2.5038226 3.2559791 0.071694486 23
2.437902 3.1668236 0.20944853 19
2.4141526 3.1325786 0.3460083 24
2.5154319 3.2592888 0.50551409 22
2.9516759 3.8204007 0.76465172 28
4.9978819 6.4618416 1.5879126 24
4.7577715 6.1425333 1.7937598 4
7.2565641 9.3584824 3.1731215 1
1.4324532 1.8374188 -0.62427157 22
1.5658422 2.0063505 -0.58757222 41
1.7131096 2.1918936 -0.54075271 36
1.890388 2.4161098 -0.4858855 25
2.1274078 2.7161112 -0.42361787 16
2.3505664 2.9977887 -0.33328354 19
2.7074831 3.4480214 -0.22975488 16
2.5296934 3.2181337 -0.071450152 28
2.4982002 3.2021582 0.070891678 23
2.450115 3.1371348 0.20861115 10
2.3930101 3.0607135 0.33990738 18
2.5454674 3.2510264 0.50697654 23
2.9721823 3.7919278 0.76308739 18
4.9204664 6.2707953 1.5493692 13
7.3695426 9.381855 2.7543008 2
7.2476683 9.2134552 3.1410282 1
1.4344593 1.8137369 -0.61961281 42
1.5870677 2.0045378 -0.59027159 31
1.7340882 2.1878743 -0.54266083 27
1.863818 2.3490248 -0.47493511 20
2.147553 2.7027473 -0.42386162 31
2.3701975 2.9797466 -0.33310926 19
2.6649506 3.3467038 -0.22420727 13
2.8662798 3.5943856 -0.080246165 19
2.4876809 3.144304 0.069984153 21
2.4776137 3.1282122 0.2091345 3
2.382129 3.0033469 0.33537531 15
2.5848174 3.2553906 0.51038885 22
2.9745686 3.742229 0.7571429 10
4.9775743 6.2531872 1.5535669 13
7.3547072 9.2295914 2.7246072 2
7.2487741 9.0868874 3.1146286 5
1.4467719 1.8039309 -0.61961281 50
1.5933554 1.9845712 -0.58757222 39
1.7370174 2.1604152 -0.53884465 39
1.8950336 2.3544226 -0.47868952 20
2.1534441 2.6726103 -0.42142424 35
2.397198 2.9708796 -0.3339808 14
2.7120955 3.3575375 -0.22619602 22
2.8366129 3.5079298 -0.078745253 13
2.4795318 3.0894313 0.069146432 10
2.5369208 3.1575482 0.21227466 9
2.4262438 3.0165594 0.33868721 22
2.5800879 3.2032533 0.50502658 27
2.9758251 3.6906149 0.75088555 15
5.1396356 6.3673453 1.5905839 9
7.369956 9.117403 2.7066112 2
7.3375516 9.0676003 3.1254988 1
1.4703039 1.8072731 -0.62427157 38
1.6010196 1.9658432 -0.58532268 34
1.7694292 2.1695356 -0.54418731 39
1.9101752 2.3396051 -0.47837666 25
2.1607437 2.6436779 -0.41923055 16
2.4077833 2.9417384 -0.33258632 14
2.7253411 3.326164 -0.22535865 22
2.6796813 3.2669477 -0.073753871 16
2.5250261 3.1015112 0.069809623 21
2.4503877 3.0066156 0.20327288 10
2.5177758 3.086 0.34844866 12
2.5910845 3.1713278 0.50283301 18
2.8902116 3.5336633 0.72304016 48
5.3344569 6.5151105 1.6367596 6
7.4494948 9.0853157 2.71246 6
7.4264207 9.0475082 3.1363695 13
1.4853435 1.7999451 -0.62530684 52
1.608498 1.9471066 -0.58307314 29
1.7795277 2.1510782 -0.54266083 39
1.9302431 2.330776 -0.47931525 26
2.1601443 2.6056046 -0.41557449 12
2.4104443 2.9033961 -0.33014596 16
2.7344532 3.2901602 -0.22420727 13
2.6755657 3.2158785 -0.073020868 19
2.524971 3.0575953 0.069216244 13
2.4102352 2.9155462 0.19824862 21
2.5646641 3.099046 0.35193488 8
2.6321599 3.1760888 0.50648904 15
2.8668807 3.4556296 0.71115112 13
7.554811 9.0965881 2.2984853 6
7.5264487 9.0495682 2.7174089 18
7.4226542 8.9152699 3.1084168 33
1.4829937 1.7717547 -0.61909521 27
1.6195489 1.9328425 -0.58217335 31
1.7768334 2.117548 -0.53731817 46
1.9413846 2.3111942 -0.47806379 21
2.184669 2.598058 -0.41679317 15
2.4165397 2.8697319 -0.32822853 16
2.7380483 3.2480822 -0.22263718 11
2.7933874 3.3102109 -0.075603828 21
2.6425571 3.1548674 0.071834102 16
2.4805784 2.9583356 0.20233083 10
2.5298753 3.0139203 0.34426519 4
2.667042 3.1728308 0.50892639 12
3.0155778 3.5836535 0.74181229 15
7.6446948 9.0751562 2.3064992 42
7.6371865 9.0534086 2.7345052 34
7.411171 8.7761545 3.0778761 24
1.4990776 1.7657765 -0.62064809 26
1.6367893 1.9259435 -0.58352309 30
1.7763041 2.0871506 -0.53273875 22
1.9369754 2.273526 -0.4730579 26
2.2091942 2.5902946 -0.41801187 6
2.4179044 2.8320038 -0.32578817 15
2.7593584 3.2273715 -0.22253251 22
2.6538911 3.1007278 -0.071240723 19
2.4534812 2.887933 0.066144623 25
2.4416502 2.8709595 0.19751592 10
2.528898 2.9703951 0.34130189 14
2.6646574 3.1254327 0.50429535 32
2.9943571 3.5084221 0.73054904 16
7.7525001 9.0738077 2.3198559 19
3.6922538 4.3169694 1.3114648 14
7.3855486 8.622962 3.0421593 26
1.5075861 1.7508768 -0.61909521 13
1.6349264 1.8967576 -0.57812428 34
1.7968816 2.082444 -0.53464681 22
1.9536973 2.2617836 -0.47337076 45
2.2181334 2.5642989 -0.41630572 11
2.4271827 2.8030052 -0.32439366 19
2.7603309 3.1843672 -0.22085775 17
2.6059976 3.0020888 -0.069390766 20
2.4913526 2.8923774 0.066633284 18
2.5354786 2.9404914 0.20348223 13
2.5066032 2.9029033 0.33554959 13
2.6871684 3.1087246 0.50453913 12
3.2495406 3.7553442 0.78655261 15
2.9634962 3.4199481 0.87962949 2
3.6469622 4.2042356 1.2849206 17
7.3807397 8.4995575 3.0162773 45
1.5169289 1.737663 -0.61805987 12
1.6503648 1.8885189 -0.57902408 34
1.8074985 2.0654159 -0.53350198 29
1.9954734 2.277806 -0.47962815 22
2.2289927 2.5416789 -0.41508701 12
2.4453762 2.7844963 -0.32421938 13
2.7983193 3.1830194 -0.22211383 17
2.7096021 3.0788534 -0.071589775 13
2.4970114 2.8583496 0.066249333 22
2.5572584 2.9242229 0.20358689 11
2.4646223 2.8153176 0.32735696 23
2.7912476 3.1839287 0.51989466 5
3.1388662 3.5766718 0.75370133 15
7.9818268 9.0855236 2.3507669 2
3.8847499 4.4156976 1.3578047 15
2.8574724 3.2445908 1.1584741 15
1.5264611 1.7241385 -0.6170246 18
1.6699709 1.884244 -0.58127356 28
1.8166608 2.0468733 -0.53197551 39
2.0034547 2.2549591 -0.47775093 17
2.2150204 2.4904566 -0.4092373 12
2.4713831 2.7747943 -0.32509091 13
2.8390813 3.1842766 -0.22357923 22
2.5885537 2.9002297 -0.067854956 19
2.4983404 2.8198926 0.065760665 24
2.4424372 2.753885 0.19291034 12
2.5186107 2.8367789 0.33188906 14
2.6617224 2.9937603 0.49186471 21
2.9969676 3.3672738 0.71396697 6
3.7338991 4.1908402 1.091046 3
8.621067 9.6624851 2.9895997 2
nan nan nan nan
1.5358794 1.7105647 -0.61598933 18
1.6817819 1.8710901 -0.58082366 30
1.8309054 2.0341415 -0.53197551 29
1.9979907 2.217438 -0.472745 32
2.2203858 2.4616666 -0.40704364 16
2.4800105 2.745645 -0.32369643 15
2.8304331 3.1303051 -0.22117178 15
2.5765312 2.8465061 -0.067017242 20
2.5928116 2.8856792 0.067715339 15
2.49633 2.7753754 0.19563182 3
2.5396869 2.8206074 0.33206338 13
2.7277546 3.0252306 0.50015181 17
3.1276143 3.4650445 0.73930937 25
8.7620649 9.6971674 2.5404313 2
3.0255454 3.343745 1.0410736 6
7.5415564 8.325943 3.0100656 30
1.5451835 1.6969432 -0.61495411 22
1.7026812 1.8679439 -0.58352309 51
1.8331496 2.0082598 -0.52854097 27
2.0094249 2.1990604 -0.47180638 27
2.246896 2.4563584 -0.40874982 12
2.492388 2.7209196 -0.32282487 13
2.8589654 3.1178298 -0.22169513 12
2.5841694 2.8151922 -0.066703096 23
2.5509377 2.7995162 0.066109717 22
2.473918 2.7121379 0.19238698 7
2.5351329 2.7763262 0.32892576 9
2.7273762 2.9826727 0.496252 22
nan nan nan nan
3.047965 3.3262696 0.87695819 1
nan nan nan nan
nan nan nan nan
1.5609237 1.6903729 -0.61650699 27
1.7117112 1.8517191 -0.58217335 25
1.8604618 2.0098205 -0.53235716 41
1.9951911 2.1531012 -0.46492329 19
2.2558911 2.4318795 -0.40728739 13
2.5040739 2.6965902 -0.32195333 18
2.8983431 3.1168084 -0.22305585 16
2.5860472 2.778055 -0.066249333 31
2.6124914 2.8271677 0.067191765 10
2.5972235 2.8076949 0.20044672 7
2.4799995 2.6781569 0.31933865 31
2.7197864 2.9329934 0.49113351 18
3.1461213 3.3891888 0.73242623 15
3.1900532 3.4329083 0.91092217 9
3.2531998 3.4971886 1.1027101 29
3.3169684 3.5607486 1.3039304 40
1.5726867 1.6794344 -0.61650699 36
1.7059381 1.8198199 -0.57587475 23
1.8606647 1.9827939 -0.52854097 33
1.9597574 2.0862005 -0.45334715 10
2.2632914 2.4059508 -0.40558121 12
2.5201054 2.6761429 -0.32160467 33
2.8181112 2.9894631 -0.21531016 21
2.8250115 2.9925919 -0.071834102 19
2.5988641 2.7742941 0.066354051 12
2.5329366 2.7010806 0.19406174 6
2.5831969 2.7508261 0.33014596 14
2.6281965 2.7958112 0.47114691 11
4.9885516 5.3011346 1.1529222 14
nan nan nan nan
3.3296874 3.5296757 1.1202563 4
3.0188193 3.1967816 1.1781443 9
1.5840809 1.6686913 -0.61650699 43
1.7102304 1.7996907 -0.57317531 24
1.864988 1.9598001 -0.52586961 45
2.0028865 2.1025038 -0.45991737 13
2.2686565 2.3789966 -0.4036313 15
2.538727 2.658484 -0.32160467 13
2.8720357 3.004365 -0.21782227 26
2.6780245 2.79848 -0.067610621 12
2.5548153 2.6893919 0.064748429 15
2.510442 2.6399119 0.19092159 36
2.566144 2.6956592 0.32561383 20
2.6065595 2.7342899 0.46383476 20
4.9545236 5.1918664 1.1366529 10
nan nan nan nan
3.2936289 3.4429765 1.1000108 13
nan nan nan nan
1.5889941 1.6506321 -0.61391884 25
1.7227538 1.7877064 -0.57317531 32
1.8868035 1.9552095 -0.52815932 15
2.0243773 2.0955744 -0.46148172 10
2.2893481 2.3673825 -0.4043625 16
2.5392063 2.6220891 -0.31933865 13
2.8456745 2.9354837 -0.21426344 35
2.9801974 3.0710332 -0.074696302 9
2.8412864 2.9494407 0.071485057 40
2.5620844 2.6568255 0.1934337 12
2.5572252 2.6490095 0.32212761 10
2.5883329 2.6774905 0.45725381 13
3.1718712 3.2776935 0.72241443 16
3.1500134 3.251698 0.88001108 15
3.1927533 3.291214 1.0586197 4
3.1492956 3.2430167 1.2112732 21
1.5856346 1.6242925 -0.60822481 28
1.7229345 1.763092 -0.56912625 43
1.8688264 1.9097157 -0.51938212 32
2.0168414 2.0588119 -0.45647582 9
2.2974818 2.3428371 -0.4029001 9
2.5351131 2.5815544 -0.31654966 16
2.8674974 2.9169714 -0.2143681 31
2.7897706 2.8349333 -0.069425672 20
2.5991018 2.6606121 0.064922951 27
2.6001189 2.6588669 0.19489913 17
2.7958679 2.856046 0.34966883 8
2.791784 2.8478918 0.48967105 12
3.1088953 3.1680562 0.70301658 12
nan nan nan nan
3.2129178 3.2660673 1.0577199 35
3.0823953 3.1301057 1.1771091 12
1.5969348 1.6131839 -0.60822481 28
1.7502888 1.7662477 -0.5740751 27
1.8945594 1.9091643 -0.52281672 32
2.0200284 2.0334699 -0.45397288 10
2.3067832 2.3197026 -0.40168139 8
2.5460458 2.5567331 -0.31567809 19
2.8595922 2.8685904 -0.21227466 15
2.8674088 2.8734212 -0.070856772 18
2.609169 2.6338785 0.064713523 22
2.5665829 2.5881772 0.19102626 22
2.6501074 2.6696072 0.32910007 18
2.8101976 2.8269258 0.48942733 40
nan nan nan nan
3.2643843 3.2769461 0.89909208 53
3.2934449 3.3015025 1.0766158 13
3.0877914 3.0921066 1.1708974 16
1.6177385 1.6115397 -0.61184824 24
1.7556704 1.7471125 -0.57182562 25
1.9106259 1.8986599 -0.5235799 28
2.0425856 2.027669 -0.45585006 7
2.306006 2.2867694 -0.3987565 5
2.5846207 2.5603771 -0.31829277 10
2.879549 2.8485568 -0.21227466 43
2.7664981 2.7338581 -0.067889862 19
2.6161571 2.604311 0.064434282 13
2.6015851 2.5870948 0.19228233 21
2.7662127 2.7479262 0.34112757 10
2.7283955 2.7065799 0.47187814 13
3.2748957 3.2453103 0.73023617 25
3.1867249 3.1546309 0.87161553 13
nan nan nan nan
3.6467643 3.6012237 1.3732939 18
1.6303281 1.6015602 -0.6123659 42
1.7719975 1.7389077 -0.57317531 31
1.9235064 1.8856097 -0.5235799 32
2.0521076 2.0095713 -0.4549115 9
2.3133988 2.2622874 -0.3972941 4
2.5782039 2.5186026 -0.31532949 15
2.9917831 2.9195611 -0.21907835 22
2.7053165 2.636323 -0.065935194 23
2.6509433 2.6032577 0.064853139 9
2.6234105 2.5735233 0.19259633 15
2.6629272 2.6086431 0.32613677 11
2.766618 2.7073832 0.47529048 12
3.0638397 2.9950995 0.67861283 13
3.2578416 3.1803043 0.88497216 16
nan nan nan nan
3.1287477 3.0478909 1.1703798 20
1.6356424 1.5850482 -0.6102953 43
1.7781923 1.7213842 -0.57137573 29
1.9380341 1.8735007 -0.52396154 31
2.0731916 2.0020571 -0.45647582 7
2.3216019 2.2395959 -0.3960754 9
2.0002439 1.9268951 -0.24299021 10
2.9530895 2.841821 -0.21478678 15
2.7404983 2.6344776 -0.066354051 19
2.6719263 2.5874696 0.064922951 27
2.637007 2.5509801 0.19228233 11
2.588928 2.5018468 0.31498083 14
2.7883089 2.6907594 0.47577798 13
3.4572802 3.3328328 0.76058447 31
3.3006246 3.178484 0.89069647 5
3.6281817 3.489038 1.1620972 35
3.6278055 3.4850221 1.3479296 34
1.6313051 1.5589092 -0.60460132 25
1.7817088 1.7008544 -0.56867629 28
1.9396981 1.8490878 -0.52090853 21
2.0713816 1.9725505 -0.45303425 13
2.3386178 2.2247028 -0.39631912 16
2.5784507 2.4494245 -0.31114599 25
2.9424334 2.7922637 -0.21258868 21
2.8879848 2.7377219 -0.069460578 8
2.675463 2.5549424 0.064573906 24
2.6431918 2.5214779 0.19144495 25
2.6409488 2.5166984 0.31916434 27
2.7437527 2.611016 0.46505347 18
3.3530419 3.187485 0.73273909 18
3.2159626 3.0539706 0.86207509 5
3.7443621 3.5507858 1.1913409 13
nan nan nan nan
1.6477715 1.5527829 -0.60667187 26
1.7935389 1.6883751 -0.56867629 31
1.9539905 1.8368459 -0.52129018 20
2.0851021 1.9580415 -0.45303425 9
2.3671224 2.2205453 -0.39851278 13
2.6013031 2.4368136 -0.31184325 28
2.9181044 2.7307153 -0.20944853 47
2.9859102 2.7912357 -0.071345441 24
2.7572899 2.5965221 0.066109717 7
2.6883695 2.528966 0.1934337 3
2.707818 2.5445902 0.32509091 21
2.8024466 2.6298306 0.47187814 13
3.2440684 3.0410581 0.70426804 30
3.7158372 3.479651 0.98953551 11
3.5498624 3.3195808 1.122056 8
3.1100109 2.9052119 1.1403568 26
1.652912 1.5359806 -0.60460132 26
1.8067114 1.6771379 -0.56912625 51
1.9466083 1.8044752 -0.51594758 41
1.9885662 1.8414345 -0.42925623 21
2.3811095 2.2026174 -0.39826906 15
2.6226428 2.4226494 -0.31236616 28
2.9400325 2.712985 -0.20965785 35
2.9215159 2.6930676 -0.069355868 19
2.7812111 2.5826523 0.066249333 41
2.7337806 2.5359437 0.19542249 10
2.7942026 2.5892725 0.33328354 6
2.7886829 2.5805416 0.46651587 18
3.3348455 3.0827003 0.71928573 13
3.6145525 3.3377512 0.95633471 27
3.1517625 2.9063246 0.98978466 10
3.3689282 3.1033168 1.22732 9
1.6664435 1.5270138 -0.6056366 26
1.8025639 1.6500099 -0.56417727 28
1.9519141 1.7842175 -0.51403946 30
2.1078613 1.9247419 -0.45209566 10
2.3846958 2.1752381 -0.39631912 12
2.665581 2.4288964 -0.31550378 15
2.9677646 2.7004588 -0.21028589 35
3.0660238 2.7869346 -0.072322771 9
3.306504 3.0277328 0.078256592 6
2.6806791 2.4520919 0.19039823 35
2.9181101 2.6664693 0.34583399 36
2.781702 2.5382633 0.46237233 13
3.6453438 3.3228278 0.78123385 18
3.6609921 3.3335843 0.96244061 22
3.8518956 3.5037274 1.2021385 12
3.1588509 2.8692992 1.1434625 13
1.6555619 1.495916 -0.59787202 28
1.8140392 1.6373852 -0.56417727 39
1.9523492 1.7603723 -0.51098651 22
2.1253171 1.9143157 -0.45303425 9
2.4027755 2.1611917 -0.3968066 12
2.7047031 2.4302022 -0.31811845 6
3.0009408 2.693536 -0.2113326 19
2.9320288 2.6279898 -0.068727575 13
2.926369 2.643249 0.068832293 10
2.6750662 2.413717 0.18882816 25
2.6687427 2.4046361 0.31428361 13
2.7753069 2.498023 0.45847249 20
3.0935307 2.781522 0.65890205 15
3.5059562 3.1479247 0.91588324 41
3.2321529 2.8990271 1.002382 25
3.165359 2.8361287 1.1388038 8
1.6483998 1.4691876 -0.59166032 30
1.826598 1.6262956 -0.56462723 33
1.9513855 1.73496 -0.50755197 28
2.1327212 1.8941855 -0.45178279 9
2.4174297 2.1447878 -0.3968066 17
2.7081816 2.3993692 -0.31654966 3
3.0645409 2.7122307 -0.21447276 14
3.003782 2.6556535 -0.069984153 16
2.8432078 2.532315 0.066458762 12
2.7112498 2.4122415 0.19018888 7
2.7386615 2.4340625 0.32055882 12
2.8253431 2.5075748 0.46383476 14
3.2399917 2.8725564 0.68580878 24
3.3259521 2.9456596 0.86360151 38
nan nan nan nan
3.7598431 3.3217552 1.3443062 1
1.6745794 1.4716711 -0.59735435 40
1.8261915 1.6032186 -0.561028 34
1.9678791 1.7251772 -0.50869679 21
2.1176577 1.8545232 -0.44583827 11
2.4338396 2.1291647 -0.39705035 19
2.729367 2.3843379 -0.3170726 9
3.0653422 2.6750131 -0.21321672 47
3.1141963 2.7147751 -0.072113343 18
3.234946 2.840971 0.075150065 13
2.8000901 2.4564791 0.19521314 10
2.760082 2.4188247 0.32108176 9
2.7591255 2.4145803 0.45018539 11
3.4042263 2.9759789 0.71615702 39
nan nan nan nan
3.238534 2.8241577 0.99203426 1
1.9286164 1.6800698 0.68535286 6
1.7008718 1.4738616 -0.60304838 25
1.8299717 1.5840541 -0.55877846 37
1.9754201 1.7075441 -0.50755197 11
2.1245735 1.8345289 -0.44458681 11
2.4426317 2.106935 -0.3960754 11
2.7217927 2.3444204 -0.31428361 12
3.1081662 2.6743906 -0.21489146 19
3.1315579 2.691663 -0.072078437 13
2.9599185 2.5630586 0.068343624 27
2.8413398 2.4577768 0.19688788 8
2.7784088 2.4007993 0.32125604 18
2.8525634 2.4613993 0.46261609 11
3.2169392 2.7728727 0.67266828 15
3.2953434 2.8374476 0.84528393 1
1.966724 1.6910521 0.59881973 9
1.9417641 1.6678234 0.68587047 5
1.7023072 1.4544219 -0.59994256 25
1.8395035 1.5699748 -0.55832857 30
1.9753383 1.6835246 -0.50449902 11
2.1207829 1.8055669 -0.44114524 13
2.452744 2.0859737 -0.3953442 12
2.7335389 2.3214915 -0.31376067 10
3.2181435 2.730149 -0.22117178 17
3.4447057 2.9192553 -0.078815073 9
2.997509 2.5592132 0.068797387 12
2.8037224 2.3912227 0.19311969 2
2.7587047 2.350332 0.3170726 40
3.2567363 2.770721 0.52501315 20
nan nan nan nan
1.9995198 1.6975178 0.50984168 6
1.9844267 1.6823221 0.60061932 6
1.9813701 1.6779486 0.69570565 9
1.692963 1.4266177 -0.59321326 33
1.8590927 1.5649471 -0.561028 50
1.9747293 1.6599337 -0.50144607 12
2.160254 1.8139544 -0.4467769 10
2.1900835 1.8370478 -0.35098374 23
2.7477489 2.301553 -0.31358635 19
3.1769116 2.6581964 -0.21708956 21
2.8967967 2.4212403 -0.065900289 8
2.8542519 2.4035034 0.06513238 7
2.8688433 2.4132247 0.1964692 32
2.7853153 2.3404732 0.31829277 23
nan nan nan nan
2.011961 1.6864419 0.41580287 8
2.0125332 1.6851285 0.51022327 5
2.0033078 1.6750246 0.60286885 7
1.9794019 1.6532761 0.69104689 6
1.7177409 1.4271091 -0.59838963 26
1.865474 1.5481966 -0.55967826 35
1.9726651 1.6348325 -0.4980115 10
2.125695 1.7597784 -0.43707794 30
2.4675038 2.0405719 -0.39315054 9
2.7514596 2.2721646 -0.31219187 19
3.2138803 2.6512041 -0.21834564 17
2.9429507 2.4251201 -0.06656348 16
3.0955925 2.5700104 0.070228487 21
2.8149025 2.3344886 0.19165429 31
nan nan nan nan
2.0373468 1.6854403 0.32465994 8
2.0297763 1.6773882 0.41705433 6
2.0363607 1.681036 0.51327622 8
2.0164559 1.6622386 0.60331875 6
1.970017 1.6222256 0.68379998 5
1.7142115 1.4040651 -0.59373093 35
1.8656794 1.5264971 -0.55652899 28
1.9840304 1.6210208 -0.4980115 10
2.1455808 1.7511406 -0.43864229 27
2.2601378 1.8426669 -0.35805216 12
2.7143366 2.2106056 -0.30626526 6
3.2106175 2.6110601 -0.21688022 21
2.9536014 2.3994718 -0.066423863 23
2.9215748 2.3912833 0.065900289 24
nan nan nan nan
2.0461655 1.6711936 0.23113704 8
2.053679 1.67494 0.32539117 6
2.0567517 1.6756536 0.42018303 7
2.0389109 1.6593432 0.51098651 5
2.0171392 1.6398696 0.60016948 5
1.9812942 1.6084329 0.68379998 5
1.7134501 1.3835688 -0.5901075 31
1.8717397 1.5097655 -0.55517924 13
2.0026615 1.6136383 -0.49991959 10
2.158989 1.7377352 -0.43895519 28
2.2218869 1.7858045 -0.35000879 16
2.8135984 2.2589591 -0.31567809 12
3.2376645 2.596643 -0.21750826 12
2.1180615 1.6962808 -0.047365833 3
2.0819685 1.6805365 0.046702638 7
2.0632076 1.6636095 0.13889964 6
