# .PCD v0.7 - Point Cloud Data file format
VERSION 0.7
FIELDS x y z intensity
SIZE 4 4 4 4
TYPE F F F F
COUNT 1 1 1 1
WIDTH 1437
HEIGHT 1
VIEWPOINT 0 0 0 1 0 0 0
POINTS 1437
DATA ascii
2.7217441 5.6251864 -0.10907754 16
4.3900557 9.1586552 0.17728156 12
5.8085837 12.101768 0.70349997 9
nan nan nan nan
4.9284468 10.235992 1.3949165 29
3.5130265 7.2865148 1.2811985 19
3.4696524 7.1869292 1.5512772 5
3.5966158 7.4366446 1.9071352 12
5.0874605 10.505195 3.1275694 11
1.0861425 2.22791 -0.66412973 48
1.1746086 2.4061735 -0.61816555 31
1.294584 2.6472528 -0.57280862 23
1.4403635 2.9414492 -0.51873678 33
1.6482537 3.3615365 -0.4596912 19
1.9351232 3.9396286 -0.3840082 20
2.2539673 4.582684 -0.2676461 18
2.6513946 5.3835993 -0.10474934 7
4.5249186 9.2733536 0.18010885 8
5.7719369 11.813277 0.68905526 12
3.346519 6.8401546 0.66621852 6
nan nan nan nan
4.7543578 9.6877346 1.7092031 13
nan nan nan nan
3.5993867 7.3116965 1.8814907 19
4.7933993 9.724329 2.9049852 18
1.1008112 2.2185426 -0.66361207 59
1.18791 2.390934 -0.61636597 29
1.30866 2.6293623 -0.57090056 29
1.4599824 2.9295537 -0.51842386 25
1.6761132 3.3588285 -0.46090987 22
1.9431911 3.8889387 -0.38034767 32
2.2859056 4.5668368 -0.2676461 24
2.7399869 5.4668584 -0.10673892 19
4.477478 9.015872 0.17571084 14
5.1383758 10.333076 0.60479438 23
5.1472292 10.3373 1.0103093 13
5.1550593 10.334938 1.4180719 45
3.7574117 7.5230412 1.3318831 10
3.6469407 7.2923031 1.5848596 10
3.6124249 7.2138433 1.862595 14
5.3791595 10.723238 3.2145329 6
1.105824 2.1901093 -0.65740043 61
1.2045728 2.3825824 -0.61636597 28
1.3203202 2.6081326 -0.5682292 38
1.4700652 2.9001665 -0.51498228 33
1.6923317 3.3328857 -0.45896 22
1.9621669 3.8592937 -0.37877885 20
2.316936 4.5511727 -0.2676461 27
2.7971611 5.4850078 -0.10747192 16
4.3953862 8.7013865 0.17016095 14
5.1400819 10.16241 0.59683931 25
5.2057638 10.274455 1.0076946 5
nan nan nan nan
5.149611 10.137284 1.8008738 24
3.5535195 6.9832072 1.5230374 10
3.6865859 7.2353287 1.8747423 19
4.909462 9.6228981 2.8946323 8
1.1180586 2.177376 -0.65584749 45
1.2207626 2.3743279 -0.61636597 46
1.3357993 2.5936153 -0.56708437 32
1.4866548 2.8828104 -0.51373082 21
1.7158895 3.3230529 -0.45920372 20
1.978995 3.8260336 -0.37686142 28
2.3256917 4.4905472 -0.26502931 15
2.8224671 5.4427624 -0.10701816 16
4.5172644 8.7896557 0.1724996 11
5.2172956 10.138711 0.59757197 17
5.0967107 9.8916473 0.97352958 3
3.5061872 6.7931151 0.93863773 22
4.9862704 9.6483269 1.7201536 4
nan nan nan nan
4.914516 9.4810677 2.4654639 40
nan nan nan nan
1.1332313 2.1695178 -0.65584749 31
1.2210511 2.3346653 -0.60826772 27
1.3493184 2.5755312 -0.56517625 37
1.5067444 2.8723612 -0.51373082 21
1.7233549 3.2811165 -0.45506018 27
1.998234 3.7980194 -0.37546691 18
2.3513978 4.4636002 -0.26440126 15
2.8221426 5.3504086 -0.10558706 19
nan nan nan nan
5.2379375 10.006485 0.59191972 8
5.4662457 10.429349 1.0301808 16
3.5664423 6.7930803 0.9420501 28
5.1040559 9.7094517 1.7373614 1
3.6659176 6.9648232 1.5299066 10
3.6572773 6.936646 1.8104062 14
5.1281133 9.7140055 2.9432902 18
1.141099 2.1479053 -0.6517064 33
1.2364051 2.3243635 -0.60781777 34
1.3608023 2.5539205 -0.56250495 32
1.5202506 2.8495729 -0.51154077 17
1.7449188 3.2651989 -0.45457271 33
2.0209408 3.7769496 -0.37476969 16
2.3711841 4.4259496 -0.26314521 9
2.8319898 5.277216 -0.10453992 15
4.4245663 8.3213968 0.16450639 9
5.2870197 9.9308882 0.58961695 11
5.4480133 10.220387 1.0132726 5
nan nan nan nan
5.1130466 9.5638304 1.7176507 24
3.5877635 6.6995726 1.4772433 46
3.6402323 6.7890067 1.7784631 25
5.6161475 10.460918 3.1814039 11
1.1435801 2.1158912 -0.64445943 28
1.2585711 2.3257396 -0.6105172 30
1.3739226 2.5357273 -0.56059688 21
1.5302391 2.8195229 -0.5080992 30
1.7562978 3.232007 -0.45164782 23
2.0396421 3.7487483 -0.37337521 18
2.3989716 4.4018536 -0.26272655 9
2.8639734 5.2485399 -0.10436539 24
4.4311891 8.1953192 0.16262153 13
5.5843267 10.310781 0.61452883 17
3.7173975 6.8551497 0.68225515 6
nan nan nan nan
nan nan nan nan
3.5565197 6.5312533 1.445569 22
3.6427636 6.6813016 1.7568679 40
5.3149271 9.7320948 2.9712427 22
1.1694896 2.1281724 -0.65067112 33
1.2747784 2.316896 -0.6105172 38
1.3853992 2.5137947 -0.55792552 30
1.546067 2.8018537 -0.50684774 28
1.7903368 3.2405183 -0.45457271 17
2.0522599 3.7100101 -0.37093481 16
2.4219 4.3710217 -0.26188916 15
2.8830838 5.1969423 -0.1037371 15
4.0387239 7.34338 0.14628607 4
5.6041446 10.177073 0.60887659 11
5.385128 9.7672234 0.97579563 8
3.8185017 6.9143496 0.96983629 27
5.2802372 9.5493689 1.7282882 60
nan nan nan nan
3.7762377 6.8125134 1.7982589 29
5.017014 9.0360508 2.7693639 24
1.1927972 2.1351352 -0.65532982 34
1.2852143 2.2977352 -0.60781777 33
1.3928864 2.4871764 -0.55410933 24
1.5622058 2.7860951 -0.50590914 23
1.8197223 3.2400551 -0.45627886 26
2.0683467 3.6782248 -0.36919171 20
2.4378784 4.33007 -0.26042375 8
2.9369733 5.2080421 -0.10436539 24
3.992034 7.1429071 0.14283049 6
5.6849918 10.159606 0.61013263 2
5.7814622 10.315103 1.0345386 16
3.8499312 6.8605018 0.96593654 31
4.0117359 7.1400728 1.2971548 26
3.704174 6.5819039 1.4680845 46
3.6983855 6.5635762 1.7393217 12
5.1761751 9.1749945 2.8226805 19
1.204442 2.1219261 -0.65377688 48
1.2854179 2.2618263 -0.60061932 33
1.4131287 2.482511 -0.55525422 25
1.5855294 2.7819865 -0.5071606 22
1.8210725 3.1913877 -0.45116034 23
2.0959527 3.6671553 -0.36954033 20
2.448209 4.278275 -0.25833032 8
2.9494939 5.1480212 -0.10356259 18
4.0971203 7.2122307 0.14478517 16
5.5642214 9.7828646 0.58982629 8
4.0246019 7.0673337 0.71153951 13
5.6208787 9.854455 1.3929666 11
3.8890731 6.809988 1.2420899 26
3.6894426 6.4525757 1.4448059 9
3.7925384 6.6221509 1.7618167 40
5.2516298 9.1587477 2.8288922 14
1.2192254 2.1134665 -0.65377688 51
1.3109226 2.2696729 -0.60511833 34
1.4196113 2.453892 -0.55105644 33
1.6138235 2.7862341 -0.50997645 20
1.8273746 3.1511204 -0.44726053 30
2.1034884 3.6214225 -0.36640272 20
2.4559259 4.2230964 -0.25602752 14
2.9742911 5.1082969 -0.10317863 27
4.1013746 7.1037912 0.14317955 35
4.0801015 7.0584073 0.4272708 2
5.4690447 9.4497995 0.95522696 7
2.5625343 4.4206009 0.62738341 13
3.8909121 6.7040796 1.2276978 19
3.6633844 6.3044415 1.4173293 1
3.7975066 6.5247741 1.7429209 12
5.4292402 9.3171511 2.889456 23
1.2319976 2.1015697 -0.65274167 45
1.3346286 2.27391 -0.60871756 25
1.4506373 2.4676158 -0.55639905 23
1.608186 2.7323396 -0.50215465 25
1.8392508 3.1211836 -0.44482315 16
2.1088543 3.5744171 -0.36309084 24
2.4812846 4.1989698 -0.25560883 8
2.9976628 5.0667553 -0.10275977 18
4.1316423 7.0422144 0.14251634 19
4.1130934 7.0021963 0.42559603 2
2.5795789 4.3862567 0.44519153 6
2.5862792 4.3906317 0.62567729 13
3.9265792 6.6580372 1.2242563 14
nan nan nan nan
3.8051386 6.4367051 1.7262745 29
5.322897 8.9897766 2.799387 6
1.2436734 2.0879383 -0.65118873 52
1.3504708 2.2645371 -0.60871756 20
1.4714261 2.464427 -0.55792552 36
1.6237067 2.716243 -0.50121611 25
1.8558977 3.0997515 -0.44360444 20
2.1204405 3.5373921 -0.36082479 35
2.4758923 4.1254697 -0.25215468 6
3.0061765 5.001143 -0.10185225 20
4.1446748 6.955524 0.14132959 29
4.2527561 7.1284056 0.43501651 2
2.5242913 4.2244744 0.43054935 11
2.5274408 4.2247195 0.60447198 18
4.0154543 6.7040253 1.2377096 15
4.0217223 6.7038684 1.5196029 30
3.843962 6.3999596 1.723575 44
5.5631599 9.2513418 2.8925617 2
1.2488569 2.0645485 -0.64653003 40
1.3537387 2.2352903 -0.60331875 24
1.4773952 2.4356301 -0.55372775 31
1.6354524 2.6930223 -0.499026 28
1.8738601 3.0819588 -0.44287321 22
2.1367939 3.5088885 -0.35943025 28
2.4879978 4.0807991 -0.25047991 14
3.0109763 4.9327726 -0.10087491 20
4.1641393 6.8785191 0.14035226 26
2.645014 4.3639979 0.26743674 22
2.4299898 4.0044994 0.40980628 13
2.5403755 4.1798315 0.60057223 17
3.7982626 6.2421355 1.1573023 10
3.7649231 6.1800556 1.406644 22
3.9484351 6.4711165 1.7501193 21
4.2156734 6.9009657 2.1668332 27
1.2602066 2.0508411 -0.64497709 26
1.3785021 2.2407224 -0.60736787 29
1.4912722 2.420243 -0.55258286 24
1.6531751 2.6798589 -0.49871314 32
1.9151483 3.1008923 -0.44750425 26
2.1612384 3.4938853 -0.35943025 29
2.5059109 4.0463505 -0.24943319 12
3.0527167 4.9235287 -0.10111924 15
4.1900611 6.813509 0.13961925 14
2.5654674 4.1668468 0.25644621 9
2.3303406 3.7805178 0.3885403 22
2.5361261 4.1079416 0.59277254 10
4.2665324 6.9027143 1.2852658 19
4.0941424 6.6160612 1.5123522 29
3.9986458 6.4516773 1.7523688 42
5.8089232 9.3615389 2.95209 8
1.2816534 2.0534649 -0.64860052 40
1.3786216 2.2062547 -0.60061932 34
1.4925094 2.3848097 -0.54685861 16
1.6571615 2.6448164 -0.49433297 27
1.9103794 3.0454051 -0.44141081 22
2.190876 3.4871488 -0.36030185 21
2.5107017 3.9915643 -0.24713041 16
3.085947 4.9004064 -0.10108434 24
2.6431549 4.2315779 0.087087512 6
2.4398823 3.9015996 0.24116412 13
2.3630188 3.7742901 0.38958618 16
2.5700159 4.0985446 0.59399122 20
4.1339674 6.5850005 1.2314522 28
3.9657631 6.3097296 1.448622 23
4.0518975 6.4367957 1.755968 19
5.5362954 8.784687 2.782305 29
1.2887172 2.0330465 -0.64497709 26
1.3919011 2.1932864 -0.59971952 24
1.5101764 2.375988 -0.5472402 20
1.6819483 2.643182 -0.49621019 20
1.9507922 3.0621297 -0.4457981 16
2.1883752 3.4297779 -0.35594404 21
2.5256069 3.9537401 -0.24587436 20
3.110389 4.8635798 -0.10077019 22
2.5130243 3.9614227 0.081886694 11
2.4520705 3.8608675 0.23969871 10
2.3593774 3.7106247 0.38470542 27
2.5942993 4.0738063 0.59301627 27
nan nan nan nan
4.0414033 6.3315377 1.4600705 32
4.0872898 6.3935747 1.751919 21
6.0265427 9.4161997 2.9955716 16
1.2976508 2.015878 -0.64238888 35
1.4029566 2.1769636 -0.59791994 43
1.5256613 2.3637383 -0.54685861 23
1.7035753 2.6363537 -0.49714881 23
1.9430082 3.0034351 -0.43921715 16
2.1906004 3.3809736 -0.35245782 19
2.547713 3.9276338 -0.24535099 16
3.1050594 4.7813711 -0.09951362 4
2.5092134 3.8950312 0.080874451 13
2.4270055 3.7630875 0.23467445 16
2.3236237 3.5986557 0.37476969 18
2.5763245 3.9839187 0.58253551 13
4.1997375 6.4868445 1.2239434 14
nan nan nan nan
4.1148453 6.3387332 1.7447206 42
5.8994799 9.0774727 2.9008439 22
1.3127496 2.0083866 -0.64290655 33
1.4127853 2.1589627 -0.59567046 20
1.5496594 2.3645239 -0.54952991 20
1.7327754 2.6409121 -0.50027746 23
1.9813666 3.0163441 -0.44311696 20
2.2174342 3.3705924 -0.35298076 22
2.5465062 3.8663855 -0.24262951 14
2.6330979 3.9933052 -0.083492316 1
2.5451019 3.8908062 0.081153691 9
2.4357083 3.7193196 0.2329997 16
2.3355794 3.5623524 0.37267792 28
2.5822835 3.9326482 0.57766074 31
6.3228984 9.6183691 1.8230875 16
4.0959563 6.2236519 1.4482403 18
4.1354036 6.274056 1.7348226 21
5.8052359 8.7974262 2.8242335 23
1.3278069 2.0007823 -0.64342415 36
1.4278233 2.1490471 -0.59567046 40
1.5563407 2.3389375 -0.54609537 27
1.7544558 2.6336825 -0.50121611 18
2.0023763 3.0024378 -0.44311696 15
2.2436447 3.3603916 -0.3535037 15
2.554563 3.8202882 -0.24085009 16
2.5830424 3.8585052 -0.081048973 19
2.3940847 3.6047523 0.075534016 13
2.3875234 3.5907924 0.22598669 12
2.3791614 3.5741558 0.37564126 23
2.5370009 3.8055124 0.56157398 20
nan nan nan nan
4.2134719 6.3059092 1.4741904 23
4.1563439 6.2133665 1.7258246 46
6.7019787 10.003737 3.2264383 16
1.3406633 1.9898618 -0.64290655 33
1.4438813 2.1406422 -0.5961203 25
1.5689293 2.3234084 -0.54495054 25
1.7524281 2.5922225 -0.49558446 23
2.0232885 2.9883854 -0.44311696 13
2.2513998 3.3215573 -0.35106334 26
2.5367723 3.7383556 -0.23676789 14
2.5391052 3.7361817 -0.078849971 6
2.4543285 3.6414368 0.07665097 18
2.3828626 3.5314128 0.22326522 27
2.3616638 3.494729 0.36901742 17
2.5116775 3.7125237 0.55036199 20
6.3696117 9.4043436 1.7989967 12
4.3202124 6.3689499 1.4959426 10
4.1415958 6.0987544 1.7019798 40
6.1996884 9.1191444 2.9546783 36
1.3454534 1.9679327 -0.63876545 38
1.4584177 2.130765 -0.5961203 30
1.5795615 2.304302 -0.54304242 32
1.7716001 2.5815537 -0.49589729 26
2.0300941 2.9549103 -0.4401921 20
2.2818601 3.3176465 -0.35228351 14
2.5628071 3.7205555 -0.23676789 14
2.5985348 3.7681985 -0.079897113 5
2.487597 3.6357651 0.076895304 13
2.3815005 3.4767916 0.22085775 26
2.3932843 3.4900746 0.37023759 22
2.5453997 3.7063546 0.55206817 12
6.5190425 9.4817314 1.8224617 3
4.2922211 6.2358975 1.471519 33
4.27037 6.1971884 1.7375221 31
6.1907816 8.9707012 2.9205141 20
1.3514494 1.9473817 -0.63514197 41
1.4699219 2.11573 -0.59477061 41
1.5806364 2.2725444 -0.53808141 39
1.7857449 2.5645716 -0.4949587 23
2.0438595 2.9308968 -0.43872967 16
2.2661872 3.2460914 -0.34635693 11
2.5812063 3.6932039 -0.23613985 24
2.5926712 3.7040946 -0.078919783 3
2.4928987 3.5908246 0.076301925 17
2.3823123 3.4277008 0.21876432 27
2.3470213 3.3718951 0.35943025 23
2.5592215 3.6726544 0.54963076 13
3.1883047 4.5703273 0.88260335 3
4.5504131 6.5131702 1.5444082 27
4.5391436 6.4898 1.8284023 42
6.2483754 8.9236069 2.9189613 22
1.3661251 1.9394783 -0.63565958 33
1.486904 2.1086013 -0.59567046 31
1.603652 2.270798 -0.54037106 22
1.7960671 2.5404375 -0.49276862 25
2.0539498 2.9019737 -0.43653604 19
2.2980108 3.2431958 -0.34775141 9
2.5648024 3.6143723 -0.23226699 20
2.877882 4.0510712 -0.08673846 3
2.4586201 3.4879026 0.074486867 35
2.3802931 3.373033 0.21635687 16
2.3544083 3.3326473 0.35698992 22
2.5521874 3.6072524 0.54256237 13
3.0028496 4.2395072 0.8228454 25
4.5333142 6.3931608 1.523419 13
4.5234265 6.3721433 1.8041075 29
nan nan nan nan
1.384125 1.9361805 -0.63773018 31
1.4936485 2.0870769 -0.59252113 34
1.6259321 2.2694054 -0.54266083 41
1.8098638 2.5233376 -0.49182999 23
2.0556312 2.8617666 -0.4326362 20
2.3101275 3.2125154 -0.34618258 11
2.5963483 3.6065545 -0.23289503 22
2.5774751 3.5750759 -0.076930203 6
2.4136765 3.3751183 0.072427489 22
2.3741329 3.3161521 0.21374007 26
2.3938704 3.3387978 0.35943025 20
2.5824685 3.5978615 0.5437811 11
3.0477736 4.2414289 0.82722551 13
4.2911487 5.9629755 1.4280145 37
7.6729975 10.650622 3.0305409 8
6.3158574 8.7571526 2.8930793 22
1.3859307 1.9110752 -0.63255376 40
1.5135447 2.0847464 -0.59477061 39
1.648663 2.2675264 -0.54495054 27
1.8309236 2.5154324 -0.49276862 20
2.0785687 2.8525219 -0.43336743 17
2.3190236 3.1790116 -0.34426519 17
2.6308887 3.6012425 -0.2337324 16
2.818958 3.8544397 -0.083352692 10
2.5100007 3.4585273 0.074591585 11
2.3901808 3.289803 0.21311203 35
2.3931026 3.2902009 0.35594404 16
2.5584366 3.5123525 0.53354406 11
2.9271712 4.0141521 0.78686547 19
4.5967226 6.2967501 1.5154052 30
7.6475797 10.464412 2.9922993 42
nan nan nan nan
1.3866432 1.8842379 -0.62685978 26
1.5303739 2.0772669 -0.59567046 28
1.6605635 2.2515116 -0.54380566 24
1.8433098 2.4965546 -0.49151716 21
2.0807292 2.8139992 -0.42971134 13
2.3281212 3.145129 -0.34234774 17
2.655339 3.5832527 -0.2337324 22
2.8791647 3.8796296 -0.08433003 15
2.4706507 3.3560126 0.072741628 31
2.3923745 3.2461247 0.2113326 13
2.4006333 3.252574 0.35367799 36
2.6011581 3.5204022 0.53744388 13
2.8451757 3.8464401 0.75776863 16
4.7632742 6.4301491 1.555475 23
nan nan nan nan
3.5571303 4.7914262 1.5989841 17
1.369391 1.8345048 -0.61340117 50
1.546811 2.0699239 -0.59657025 39
1.6821232 2.2477231 -0.54571378 34
1.845297 2.4630733 -0.48744985 31
2.0998352 2.7997711 -0.42971134 20
2.3332715 3.1064947 -0.33990738 14
2.6298792 3.4975805 -0.2293362 18
2.5820053 3.4301708 -0.074940629 8
2.5430849 3.4043677 0.074172728 12
2.3707204 3.1701646 0.20745975 31
nan nan nan nan
2.5828037 3.444979 0.52866924 21
3.0213675 4.0255485 0.79719013 12
4.5486574 6.0538435 1.4719007 15
4.6527963 6.1834497 1.7865614 12
3.5637579 4.7309871 1.5870785 5
1.3774985 1.8187407 -0.61133063 50
1.5494492 2.0435469 -0.59207124 22
1.6894635 2.2249796 -0.54304242 42
1.8516886 2.435977 -0.48463401 27
2.1061068 2.7676661 -0.42703021 15
2.3367858 3.0663605 -0.3372927 13
2.6409051 3.461669 -0.22818479 22
2.5779719 3.3755105 -0.074137822 13
2.3952694 3.1602297 0.069216244 19
2.3867598 3.1455798 0.20693639 23
2.4271739 3.1953673 0.35106334 35
2.5322754 3.3289092 0.51355743 23
3.147532 4.1332278 0.8228454 13
4.638423 6.0843902 1.4871653 16
4.7017646 6.1585612 1.7888108 2
nan nan nan nan
1.3984019 1.8198023 -0.61495411 33
1.5494206 2.0141439 -0.58667237 42
1.7061527 2.2146869 -0.54342401 39
1.8650298 2.4182987 -0.48369545 25
2.1229501 2.749754 -0.42654276 28
2.3532617 3.0436673 -0.33659548 13
2.6955698 3.4826334 -0.2308016 16
2.5990252 3.3542693 -0.074068017 15
2.5123556 3.2670755 0.07193882 26
2.4366834 3.1652405 0.20934384 16
2.4141526 3.1325786 0.3460083 24
2.5081549 3.24986 0.50405163 23
2.9552991 3.8250902 0.76559031 27
4.9894743 6.4509716 1.5852412 41
4.7649312 6.1517773 1.7964593 4
7.2672186 9.3722229 3.1777804 1
1.4443309 1.8526546 -0.62944794 23
1.5634441 2.003278 -0.58667237 41
1.7119007 2.190347 -0.54037106 32
1.8891706 2.4145539 -0.48557264 23
2.1237357 2.7114232 -0.42288667 16
2.3621566 3.0114875 -0.33485237 21
2.7074831 3.4480214 -0.22975488 16
2.5272219 3.2149894 -0.07138034 28
2.5018902 3.2068882 0.070996389 21
2.4390507 3.1229682 0.20766909 8
2.405282 3.0764093 0.34165049 20
2.547915 3.2541523 0.50746399 21
2.9843686 3.8074751 0.7662161 19
4.9047112 6.2507162 1.5444082 10
7.366364 9.3744402 2.7525015 2
7.2476683 9.2134552 3.1410282 1
1.4368562 1.8167675 -0.62064809 42
1.5870677 2.0045378 -0.59027159 31
1.7332504 2.1860332 -0.54227924 30
1.8679119 2.3533411 -0.47587368 20
2.1413782 2.6949761 -0.42264292 31
2.3694754 2.9777749 -0.33293492 17
2.6617997 3.3415532 -0.22389325 15
2.8650329 3.5928218 -0.080211259 17
2.4931924 3.1501431 0.070123769 21
2.5104065 3.168483 0.21185598 4
2.3846052 3.0064688 0.33572391 15
2.585387 3.2549384 0.51038885 23
2.9776824 3.7448008 0.75776863 12
4.98002 6.2562594 1.5543302 11
7.3538885 9.2252598 2.7237077 2
7.2551799 9.0916624 3.1166992 5
1.4398332 1.7946374 -0.61650699 50
1.5973626 1.9888511 -0.5889219 38
1.7410868 2.1647007 -0.53998947 41
1.8991623 2.3587067 -0.47962815 20
2.1564031 2.6753244 -0.42191169 37
2.3927107 2.9642596 -0.33328354 16
2.7139366 3.3586178 -0.2263007 22
2.8372252 3.5074346 -0.078745253 13
2.4750619 3.0827625 0.069006816 10
2.5512335 3.1742306 0.21342604 8
2.4330151 3.0238974 0.33955875 21
2.594346 3.2198076 0.50770777 27
2.9739869 3.6870217 0.75025976 15
5.1456776 6.3725605 1.5921104 10
7.3641992 9.1070213 2.7039118 2
7.3427849 9.0708208 3.1270518 1
1.4645213 1.7995254 -0.62168342 40
1.6038233 1.9685862 -0.58622253 38
1.7660847 2.1646633 -0.54304242 41
1.9055853 2.3331521 -0.4771252 26
2.1649745 2.6479113 -0.41996178 15
2.403249 2.9351504 -0.33188906 14
2.73352 3.3349555 -0.22598669 22
2.6980112 3.2881207 -0.07424254 18
2.5217807 3.0964177 0.069704913 20
2.4496517 3.0046387 0.2031682 11
2.5157964 3.0824723 0.34810004 12
2.5928924 3.1724138 0.50307667 17
2.90959 3.556093 0.72773325 66
5.3268857 6.5035481 1.6340883 5
7.451076 9.0840187 2.71246 6
7.4304461 9.049201 3.1374047 15
1.474588 1.7862782 -0.62064809 50
1.6051146 1.9423187 -0.58172351 30
1.7824055 2.1537933 -0.54342401 38
1.926868 2.3258762 -0.47837666 26
2.1643996 2.6098125 -0.41630572 12
2.4084051 2.8999097 -0.32979733 14
2.7324739 3.2866113 -0.22399792 15
2.6786852 3.2184854 -0.07309068 19
2.5267782 3.058696 0.06925115 13
2.4145622 2.9197428 0.19856264 20
2.5652049 3.0985985 0.35193488 10
2.6263809 3.1679873 0.50527036 16
2.8750544 3.4642487 0.71302837 15
7.5501299 9.0877161 2.2965772 6
7.5267768 9.0467596 2.716959 18
7.4217334 8.9110098 3.1073816 33
1.4857835 1.7744584 -0.62013048 26
1.623642 1.9370402 -0.58352309 33
1.7797272 2.1202452 -0.53808141 47
1.9392463 2.3078306 -0.47743803 22
2.1825681 2.5946374 -0.41630572 15
2.4221735 2.8754063 -0.32892576 16
2.741189 3.2506597 -0.22284654 11
2.7875137 3.3020849 -0.075429298 22
2.5968738 3.099226 0.070577532 21
2.4708264 2.9456608 0.20149344 10
2.5278387 3.0104272 0.34391654 6
2.6560977 3.1586916 0.50673276 12
3.013659 3.5801048 0.74118662 15
7.6399536 9.0663157 2.3045912 46
7.6412849 9.0550508 2.735405 38
7.408967 8.7704306 3.0763233 22
1.5018868 1.7684599 -0.62168342 24
1.634601 1.9226886 -0.5826233 30
1.7715775 2.0808611 -0.53121227 21
1.9514667 2.2897255 -0.47649944 31
2.2109349 2.5914192 -0.41825563 6
2.4175985 2.8296449 -0.32561383 13
2.7547288 3.2208188 -0.22211383 19
2.6414282 3.0850735 -0.070891678 18
2.4552803 2.8890285 0.066179529 27
2.4447396 2.8735757 0.19772527 11
2.5371673 2.9790545 0.34234774 18
2.6626267 3.1219471 0.5038079 32
2.9885564 3.5003879 0.72898471 16
7.7604613 9.079916 2.321764 23
3.6874249 4.3082781 1.3092152 12
7.3996224 8.636342 3.0473354 33
1.5129356 1.7564678 -0.62116575 14
1.6416212 1.9038508 -0.58037376 31
1.7847786 2.0669565 -0.53083062 23
1.9583619 2.2655847 -0.47430936 42
2.2198801 2.565413 -0.41654944 9
2.4224541 2.7965579 -0.32369643 18
2.7706034 3.1939647 -0.22159046 17
2.6012771 2.9955945 -0.06925115 20
2.4962773 2.8960528 0.066738002 16
2.5338938 2.936583 0.20327288 15
2.5019004 2.896435 0.33485237 13
2.6908505 3.1107891 0.50502658 12
3.2430923 3.7452497 0.78467536 16
nan nan nan nan
3.6464183 4.2021265 1.2844706 17
7.3799043 8.4926062 3.0147245 46
1.5162636 1.7356794 -0.61754227 15
1.6548716 1.8923444 -0.58037376 31
1.8091509 2.0665781 -0.53388357 30
1.9815487 2.261117 -0.47618657 20
2.2298796 2.5409007 -0.41508701 11
2.4432335 2.7810745 -0.32387072 13
2.7975557 3.1810308 -0.22200914 19
2.6948171 3.0598991 -0.071170911 13
2.4922481 2.8518894 0.066109717 24
2.5696058 2.937305 0.20452894 10
2.4682317 2.8174534 0.32770559 24
2.7708616 3.1595623 0.51599485 5
3.1290643 3.5642478 0.75119835 16
7.9849973 9.0827379 2.3507669 2
3.8945322 4.4252596 1.3609539 13
2.8516533 3.2368436 1.1558858 20
1.5216396 1.7180865 -0.61495411 20
1.667715 1.8810354 -0.58037376 29
1.822232 2.0524287 -0.53350198 39
1.9985992 2.2487035 -0.47649944 18
2.2141356 2.4885869 -0.40899354 12
2.4665642 2.7684138 -0.32439366 12
2.8356469 3.1793106 -0.22326522 22
2.5970492 2.9087291 -0.068064384 19
2.4988327 2.8194566 0.065760665 24
2.4402652 2.7504721 0.19270101 11
2.5270429 2.8452787 0.33293492 13
2.6516922 2.9814279 0.48991477 21
3.0159466 3.3874042 0.71834713 6
3.7359385 4.1916528 1.0914276 3
8.627944 9.6667948 2.9913993 2
nan nan nan nan
1.5426325 1.7174828 -0.61857754 20
1.6808056 1.8693476 -0.58037376 31
1.8391434 2.0425751 -0.53426522 29
1.994411 2.2126863 -0.47180638 33
2.2208166 2.461278 -0.40704364 17
2.4858327 2.7511251 -0.32439366 18
2.8376782 3.1372168 -0.22169513 17
2.589108 2.8593974 -0.067331389 17
2.5973241 2.8896894 0.06782005 13
2.4981492 2.7764258 0.1957365 3
2.5348442 2.8142438 0.33136615 13
2.7216346 3.0173843 0.49893317 16
3.1295409 3.4659657 0.73962224 19
8.7663851 9.6985559 2.5411944 2
3.0248227 3.3417706 1.0406237 9
7.5469055 8.3289185 3.0116186 28
1.5454788 1.6966742 -0.61495411 22
1.6951281 1.8590076 -0.58082366 51
1.8242333 1.9977914 -0.52586961 27
2.0191383 2.2089159 -0.47399649 30
2.250005 2.4588954 -0.4092373 13
2.5009403 2.7292969 -0.32387072 13
2.8635614 3.1217451 -0.22200914 10
2.5792515 2.8088479 -0.06656348 26
2.5527747 2.8005476 0.066144623 21
2.4838164 2.7220323 0.19311969 8
2.538306 2.7788246 0.32927439 10
2.7211962 2.9748743 0.49503332 25
5.0573311 5.5229816 1.1860863 3
3.0803826 3.3604727 0.88611698 1
nan nan nan nan
nan nan nan nan
1.5599078 1.6886814 -0.61598933 28
1.7160034 1.8557128 -0.58352309 23
1.8581446 2.0066144 -0.53159386 42
2.00228 2.1599972 -0.46648762 20
2.2522635 2.4271214 -0.40655616 12
2.4995885 2.6898792 -0.32125604 19
2.897527 3.1148403 -0.2229512 20
2.5892577 2.7805302 -0.066319145 31
2.6184144 2.8325853 0.067331389 10
2.5990703 2.8087077 0.20055141 6
2.4764047 2.6733389 0.31881571 27
2.7216494 2.9339728 0.4913772 17
3.1547797 3.3973231 0.73430347 15
3.2000105 3.4424152 0.91359347 8
3.2570758 3.4989054 1.1036099 27
3.3228559 3.5658245 1.3060009 40
1.5729797 1.6791599 -0.61650699 36
1.7049227 1.8181006 -0.57542485 24
1.8586689 1.979282 -0.52777767 34
1.9780741 2.1042268 -0.45741442 9
2.2745948 2.4171209 -0.40753111 13
2.521039 2.6752632 -0.32160467 33
2.8205249 2.9899318 -0.21541482 19
2.8241596 2.9906466 -0.071799204 21
2.5998323 2.773387 0.066354051 11
2.5270457 2.6929142 0.19353838 8
2.5809484 2.7474706 0.32979733 14
2.6305325 2.7963398 0.47139066 11
4.9876928 5.2965169 1.1522964 12
nan nan nan nan
3.3442976 3.5426824 1.1247553 6
3.0172827 3.1929183 1.1771091 9
1.5766811 1.6597339 -0.61340117 43
1.7054878 1.7934444 -0.57137573 24
1.8737954 1.9676795 -0.52815932 45
2.0008943 2.0989451 -0.45929164 13
2.2749684 2.383949 -0.40460625 16
2.5313957 2.6489551 -0.32055882 15
2.8744648 3.0048053 -0.21792693 29
2.6914489 2.8105435 -0.067924768 13
2.5557537 2.6884999 0.064748429 20
2.511363 2.6390357 0.19092159 36
2.5670848 2.6947634 0.32561383 21
2.6047735 2.7305071 0.46334729 19
4.9536076 5.1872797 1.1360272 10
nan nan nan nan
3.2975273 3.4446404 1.1009105 13
nan nan nan nan
1.594931 1.6556425 -0.61598933 24
1.7233777 1.7871051 -0.57317531 32
1.8820317 1.9489012 -0.52663285 15
2.0292287 2.0991273 -0.46242031 10
2.281893 2.3580232 -0.4029001 16
2.5428958 2.624063 -0.31968728 13
2.8411374 2.9287546 -0.21384473 35
2.9575877 3.045604 -0.074102923 9
2.9047675 3.0132353 0.073055774 30
2.5491412 2.6415603 0.19238698 12
2.5636854 2.6538498 0.32282487 9
2.5878873 2.6751604 0.45701009 13
3.1798861 3.2836816 0.72397882 19
3.1552479 3.2548273 0.88115597 17
3.1884708 3.2845078 1.0568202 4
3.1490793 3.2405334 1.2107556 19
1.5889006 1.6265035 -0.60926002 35
1.7194614 1.7583115 -0.5677765 46
1.8585039 1.8978417 -0.51632917 32
2.0203257 2.0609291 -0.45710155 7
2.292738 2.3363676 -0.40192512 9
2.5360153 2.5806682 -0.31654966 21
2.864315 2.9116976 -0.21405408 33
2.7851491 2.8282588 -0.069286056 20
2.6112144 2.6711431 0.065202191 28
2.5968571 2.6536756 0.1945851 23
2.7968662 2.8550687 0.34966883 8
2.7802656 2.8341646 0.48747739 13
3.0975425 3.1542871 0.70020074 10
nan nan nan nan
3.2099562 3.2607794 1.0563701 39
3.0984032 3.1441655 1.182803 13
1.5944986 1.610159 -0.60718954 28
1.7615734 1.7770132 -0.57767433 27
1.8921252 1.9060477 -0.52205342 32
2.0245605 2.0373211 -0.4549115 10
2.309988 2.3221147 -0.40216887 8
2.5408661 2.5506437 -0.31498083 18
2.8629134 2.8709197 -0.21248402 15
2.8580208 2.8630137 -0.070612431 16
2.6068134 2.6305821 0.064643718 14
2.5614083 2.5820575 0.19060758 22
2.6618044 2.6804547 0.33049458 22
2.8274889 2.8433247 0.49235216 57
nan nan nan nan
3.2746582 3.2861092 0.90176338 60
3.325681 3.3326542 1.0869635 13
3.0856001 3.0888338 1.169862 19
1.6152821 1.608531 -0.61081296 24
1.7615016 1.7523035 -0.57362527 25
1.9081726 1.8955582 -0.52281672 28
2.0373321 2.0217457 -0.45459861 7
2.3007669 2.2807758 -0.39778158 6
2.5727706 2.5468597 -0.31672394 10
2.8942475 2.8620975 -0.21332137 43
2.7555943 2.7221324 -0.067610621 19
2.6151927 2.6024451 0.064399377 13
2.6062846 2.5908661 0.19259633 16
2.7652771 2.7460411 0.34095326 10
2.740144 2.7172861 0.47382805 13
3.2768655 3.246129 0.73054904 28
3.1858811 3.1526921 0.87123388 17
nan nan nan nan
3.6432683 3.5965157 1.3717409 16
1.6292289 1.5999221 -0.61184824 44
1.7709097 1.7372338 -0.57272542 34
1.928371 1.8890609 -0.52472478 31
2.0528078 2.0088561 -0.4549115 9
2.3194726 2.2674332 -0.39826906 4
1.985656 1.9390738 -0.24281588 11
2.9928033 2.9185152 -0.21907835 22
2.7129388 2.6428277 -0.066109717 20
2.6532793 2.6037328 0.064888045 9
2.6271625 2.5754027 0.19280569 15
2.6619604 2.6067832 0.32596248 12
2.7704015 2.7091932 0.47577798 13
3.0648835 2.9940312 0.67861283 12
3.2555852 3.176995 0.88420898 16
nan nan nan nan
3.1228895 3.0400605 1.1677916 15
1.6417468 1.5898529 -0.6123659 43
1.7745911 1.7166986 -0.57002604 30
1.9425963 1.8772551 -0.52510637 32
2.0678551 1.9962081 -0.45522434 7
2.319524 2.2360311 -0.39558792 9
2.0077548 1.9334573 -0.24386176 9
2.9593415 2.8468456 -0.21520546 14
2.745744 2.6376767 -0.066458762 17
2.6623204 2.5772669 0.064678617 28
2.6503737 2.5630155 0.19322437 11
2.5998347 2.5106299 0.31620103 15
2.7902081 2.6916497 0.47602168 11
3.4692423 3.3431935 0.76308739 31
3.3017354 3.1773303 0.89069647 4
3.5880492 3.4492397 1.1490501 34
3.6339869 3.4897413 1.3500001 36
1.6231958 1.5506178 -0.6014955 25
1.7777762 1.6965073 -0.56732661 30
1.9314942 1.8406222 -0.51861888 21
2.0817418 1.9817221 -0.45522434 14
2.3418839 2.2270293 -0.3968066 15
2.5817666 2.4517198 -0.31149462 25
2.9284291 2.7780061 -0.21154197 21
2.9029758 2.7509742 -0.069809623 10
2.6816945 2.5599985 0.064713523 24
2.6407399 2.5182612 0.1912356 22
2.6428292 2.5176132 0.31933865 29
2.7413321 2.6078007 0.46456599 18
3.3593259 3.192343 0.73399061 18
3.2221906 3.0588157 0.86360151 5
3.7421546 3.5474494 1.190441 13
nan nan nan nan
1.6480432 1.5524944 -0.60667187 26
1.7938343 1.6880614 -0.56867629 31
1.9557418 1.8378493 -0.52167183 20
2.0796828 1.9522698 -0.45178279 9
2.3675098 2.2201321 -0.39851278 13
2.5959125 2.4309111 -0.31114599 25
2.9375434 2.7479417 -0.21080926 49
2.9820151 2.786617 -0.071240723 22
2.7693901 2.6070075 0.066388957 6
2.6917198 2.5312345 0.19364306 3
2.7068088 2.5427547 0.3249166 19
2.804352 2.6307008 0.47212186 13
3.243156 3.0391424 0.70395517 31
3.7422414 3.5031543 0.99640459 11
3.5661011 3.3335993 1.1270049 9
3.102046 2.8967578 1.1372509 26
1.6461023 1.5291189 -0.60201317 28
1.8070031 1.6768233 -0.56912625 51
1.945484 1.8028001 -0.51556593 45
1.990338 1.8424283 -0.42956907 20
2.3902388 2.2102883 -0.39973149 15
2.6241062 2.4240015 -0.3125405 28
2.9478467 2.7192433 -0.21018122 36
2.9087508 2.6803617 -0.069041722 17
2.7831275 2.5835273 0.066284239 40
2.7503328 2.550405 0.19657388 8
2.7858846 2.5806613 0.33223769 6
2.7920477 2.582751 0.46700338 18
3.3179739 3.0660305 0.71553135 13
3.6007087 3.3238032 0.95251852 20
3.1560602 2.9102876 0.99113441 10
3.4078381 3.138063 1.2412962 9
1.6610109 1.521504 -0.60356599 27
1.7999758 1.647065 -0.56327748 29
1.9606085 1.7921648 -0.51632917 29
2.1107786 1.9274058 -0.45272139 10
2.3909428 2.1801722 -0.3972941 12
2.6689506 2.4311142 -0.3158524 15
2.9662876 2.6991148 -0.21018122 40
3.1020298 2.8186748 -0.073160492 9
3.3006048 3.0223308 0.078116976 7
2.690995 2.4615281 0.19113094 32
2.909749 2.6578975 0.3447881 36
2.7729039 2.5302351 0.46090987 14
3.6555631 3.3321431 0.7834239 16
3.6615739 3.3329451 0.96244061 26
3.8424141 3.4938779 1.1989893 13
3.1559908 2.8667014 1.1424273 17
1.6584287 1.4985062 -0.59890729 28
1.8082527 1.6321623 -0.56237763 35
1.957031 1.7639749 -0.51213133 23
2.1227152 1.9113013 -0.45240852 9
2.4027755 2.1611917 -0.3968066 12
2.6991985 2.4244046 -0.3174212 4
2.9999244 2.6916785 -0.21122794 17
2.9216051 2.6186469 -0.068483248 15
2.9327657 2.6481001 0.06897191 11
2.6769691 2.4145892 0.18893282 25
2.6746635 2.4099708 0.31498083 13
2.7786956 2.5001929 0.45896 20
3.0998938 2.7862623 0.66015351 16
3.507417 3.1492362 0.91626483 33
3.2283058 2.8945603 1.0010322 27
3.1816835 2.8497543 1.1444979 4
1.6558681 1.4753255 -0.59424853 33
1.8181469 1.618204 -0.5619278 30
1.9458194 1.7294018 -0.50602549 29
2.1360068 1.8964353 -0.45240852 9
2.4118643 2.139096 -0.39583167 17
2.7130752 2.4028597 -0.3170726 3
3.0665104 2.7130191 -0.21457745 17
3.0027473 2.6538053 -0.069949247 18
2.8496239 2.5371377 0.066598386 10
2.7101784 2.4104409 0.19008422 7
2.7554703 2.4481411 0.32247624 12
2.8257794 2.5070832 0.46383476 13
3.2730145 2.9008169 0.69269186 30
3.3323445 2.9502866 0.86512804 40
3.3550129 2.9661777 1.0338751 22
3.7980721 3.3543465 1.3577647 1
1.6704814 1.4675545 -0.59580147 41
1.8220764 1.5990444 -0.55967826 32
1.9696567 1.7261276 -0.50907844 19
2.1239262 1.8593582 -0.44708973 11
2.4267383 2.1222069 -0.39583167 15
2.7267826 2.3812392 -0.31672394 9
3.0703256 2.6784155 -0.21353073 49
3.1493459 2.744447 -0.07291615 16
3.2369459 2.8417237 0.075184964 12
2.8005197 2.4559891 0.19521314 11
2.7605054 2.4183416 0.32108176 10
2.7700052 2.4232481 0.45189157 12
3.3958209 2.9675853 0.71427983 37
nan nan nan nan
nan nan nan nan
1.9332794 1.6835401 0.68690574 7
1.6850674 1.4596503 -0.59735435 24
1.8361434 1.5888343 -0.56057805 37
1.9697753 1.7020659 -0.50602549 12
2.1189113 1.8289961 -0.44333532 11
2.4550257 2.1168804 -0.39802533 11
2.7131429 2.3361454 -0.31323773 12
3.1071184 2.6725457 -0.21478678 17
3.1365767 2.6950278 -0.072183155 16
2.9588537 2.5612333 0.068308719 28
2.8478119 2.4625065 0.19730657 7
2.7682734 2.3911974 0.32003587 15
2.8605096 2.4673829 0.46383476 10
3.194977 2.7529674 0.66797519 13
3.2988155 2.8394325 0.8460471 1
1.9744083 1.69706 0.60106927 10
1.9391236 1.6649673 0.68483526 4
1.6966852 1.4491065 -0.59787202 26
1.8338476 1.5645945 -0.55652899 27
1.9845996 1.6908182 -0.50678873 10
2.1180902 1.8026351 -0.44051951 13
2.453109 2.0855446 -0.3953442 12
2.7289829 2.3176222 -0.31323773 12
3.2125258 2.7244217 -0.2207531 17
3.4299555 2.9057298 -0.078466021 9
2.9842677 2.5470052 0.068483248 12
2.8026197 2.3894374 0.19301502 2
2.7560799 2.3472681 0.31672394 37
3.2088304 2.7289991 0.51721358 15
nan nan nan nan
1.9878409 1.6870061 0.50678873 6
1.9799674 1.6785415 0.59926963 6
1.9772402 1.673857 0.69415271 9
1.7067605 1.4372261 -0.59787202 30
1.8581474 1.5630436 -0.56057805 52
1.9795282 1.6633782 -0.50259089 11
2.1560316 1.8097674 -0.44583827 11
2.1861608 1.8324575 -0.35025251 22
2.7450953 2.2985151 -0.31323773 19
3.1727793 2.6537979 -0.21677555 21
2.9068511 2.4279189 -0.066109717 9
2.840903 2.3914154 0.064818241 9
2.8585641 2.4037263 0.1957365 27
2.793761 2.345907 0.31916434 23
nan nan nan nan
2.0152836 1.6886282 0.4164286 7
2.0101099 1.6819061 0.50946003 5
2.0006089 1.6721765 0.60196906 7
1.99007 1.6615986 0.69467032 7
1.7150168 1.4243414 -0.59735435 27
1.8657441 1.5478708 -0.55967826 35
1.977486 1.6382457 -0.49915636 10
2.1336114 1.7657045 -0.43864229 32
2.4647999 2.0376117 -0.39266306 9
2.764148 2.2818315 -0.31358635 19
3.2143428 2.6506433 -0.21834564 17
2.9418306 2.4233351 -0.066528574 16
3.1052737 2.5771327 0.070437916 21
2.8199227 2.3378215 0.19196831 33
nan nan nan nan
2.0284626 1.6774944 0.32319754 8
2.0270233 1.6745179 0.4164286 6
2.0411971 1.6844294 0.51442105 8
2.0122342 1.6581688 0.60196906 5
1.979249 1.6292484 0.68690574 5
1.705488 1.3964227 -0.59062505 36
1.8810302 1.5385091 -0.561028 26
1.9919153 1.6268851 -0.49991959 10
2.1397634 1.7457721 -0.43739083 27
2.2481489 1.8322395 -0.35610226 13
2.6842017 2.1845055 -0.30277905 5
3.2157221 2.6142793 -0.21719423 21
2.9478109 2.3939137 -0.066284239 23
2.926636 2.3945708 0.066004999 20
nan nan nan nan
2.0495446 1.6733555 0.23148565 8
2.0585868 1.6783446 0.3261224 6
2.0539811 1.6727998 0.4195573 7
2.0422463 1.6614654 0.51174974 5
2.0207362 1.6416229 0.60106927 5
1.9815756 1.608086 0.68379998 5
1.7136923 1.3832688 -0.5901075 31
1.8674529 1.5057682 -0.55382955 13
2.0016959 1.6117069 -0.49953794 10
2.1595962 1.7369804 -0.43895519 28
2.2314832 1.7928765 -0.35147122 16
2.7988451 2.2455103 -0.31393498 12
3.2370112 2.5942657 -0.21740359 10
2.1136751 1.6921608 -0.047261119 3
2.0887802 1.6848326 0.046842258 8
2.0715635 1.669156 0.139423 6
2.0813532 1.6752476 0.2337517 7
2.0702538 1.663932 0.3261224 9
2.0686898 1.6608928 0.42018303 6
2.0323541 1.6299707 0.50640708 4
2.0275846 1.6238209 0.59971952 6
3.377573 2.7020776 1.1589917 2
1.7293535 1.3760836 -0.59217799 26
1.8779187 1.4926951 -0.55382955 37
2.014437 1.5989138 -0.49991959 10
2.1685739 1.7194065 -0.4383294 40
2.1925933 1.736582 -0.34342784 37
2.8363326 2.2432175 -0.31637534 4
2.1423428 1.6925278 -0.14308652 10
2.1254363 1.6773645 -0.047261119 5
2.0926654 1.6639861 0.046667732 6
2.0956776 1.664591 0.14026037 7
2.1086066 1.673059 0.23549481 9
2.0771513 1.6457411 0.32539117 6
2.0678425 1.6366041 0.41768005 6
2.0452232 1.6169611 0.50678873 6
3.4995785 2.7628093 1.0293761 10
nan nan nan nan
1.7221978 1.3508618 -0.58648396 22
1.8836921 1.4759427 -0.5524798 41
2.0131795 1.5751339 -0.49686664 10
2.1649599 1.6920618 -0.43520072 32
2.1905801 1.7102391 -0.34123421 60
2.1712515 1.6933198 -0.24089848 7
2.1556823 1.6787573 -0.14319119 5
2.1402516 1.664941 -0.047330927 7
2.1309876 1.6703064 0.047261119 7
2.1103935 1.6523813 0.14046971 7
2.1076801 1.6484776 0.23410031 6
2.0729451 1.618981 0.32295379 7
2.0698729 1.6148374 0.41580287 7
nan nan nan nan
3.4075873 2.6527343 0.99698311 52
3.700186 2.8763726 1.2557901 12
1.7407566 1.3458954 -0.58958983 20
1.8877819 1.4579906 -0.55068022 26
2.0238554 1.5613931 -0.49686664 10
2.1764281 1.6772852 -0.43520072 27
nan nan nan nan
2.1656444 1.6647632 -0.23898104 4
2.1892362 1.6810759 -0.1446566 9
2.1581705 1.6548257 -0.047470544 7
2.1391425 1.6533179 0.047191311 5
2.105782 1.6257735 0.139423 4
2.1017795 1.6203427 0.23218289 8
2.0996449 1.6169453 0.32539117 2
3.1721103 2.4402106 0.63387251 48
3.9857373 3.0616803 0.97694212 26
3.5883579 2.7534435 1.0442228 52
3.3670316 2.5808141 1.1367333 30
1.7391232 1.3258169 -0.58596635 18
1.8930105 1.441566 -0.54933053 30
2.0393944 1.5507921 -0.4980115 15
2.1943762 1.6668305 -0.43645221 6
2.2268994 1.689083 -0.34318411 7
2.1962712 1.6640412 -0.24107277 7
2.2072899 1.6705713 -0.14507528 5
2.1569073 1.6300741 -0.047191311 5
2.1458607 1.6347082 0.047086593 6
2.1170807 1.6110327 0.139423 6
2.1571724 1.6397586 0.2370636 1
2.9868588 2.2671504 0.4604224 20
3.1922174 2.4203928 0.6344983 34
3.5937896 2.7209227 0.87619489 46
3.5764074 2.7048151 1.0352248 42
3.4219611 2.5851929 1.1491566 26
1.7346638 1.3028961 -0.58130759 11
1.8954837 1.4221354 -0.54708099 41
2.047029 1.5341618 -0.49724829 13
2.2157366 1.6581866 -0.4383294 14
2.2497659 1.6818161 -0.34489027 8
2.2206063 1.6582046 -0.24246727 3
2.1903663 1.6332446 -0.14319119 5
2.1666317 1.6137807 -0.047156405 6
2.1428282 1.6088814 0.04677245 4
3.049011 2.2859361 0.19971403 32
3.0092809 2.2536888 0.32892576 33
3.0359936 2.2712142 0.46554092 12
3.2411067 2.4211316 0.64075565 25
3.8502924 2.8730586 0.93381923 31
3.9623785 2.9534676 1.1409518 13
4.103652 3.0543127 1.3707057 31
1.7499286 1.2953519 -0.5833782 12
1.900665 1.4053919 -0.54573131 28
2.0579548 1.5194743 -0.49724829 10
2.2383873 1.650885 -0.44051951 14
2.2377677 1.6480157 -0.34123421 6
2.203527 1.6210201 -0.23932965 3
2.2017159 1.6179119 -0.14319119 5
3.6887836 2.7067101 -0.079862215 28
3.1333604 2.3177209 0.068029478 28
3.0536499 2.2562873 0.19898133 16
3.0201321 2.2290759 0.32840282 20
3.0601585 2.2553198 0.46675962 12
3.2515674 2.3937607 0.63950419 24
4.2978492 3.1593959 1.0368562 16
3.8373322 2.817771 1.099111 26
3.698055 2.7125204 1.2288729 51
1.7607139 1.2839346 -0.5838958 12
1.9122485 1.3929024 -0.5461812 35
2.0589876 1.4981395 -0.49495855 10
2.2389567 1.6266974 -0.4383294 7
2.2363651 1.6230263 -0.33928427 7
2.2470515 1.6289864 -0.24281588 3
3.3392701 2.417227 -0.21604285 31
3.7205544 2.690263 -0.080141447 10
3.923501 2.8600171 0.084748887 15
3.504096 2.5505526 0.22713807 6
3.1455843 2.2870817 0.34025604 14
3.0726156 2.2315693 0.46627215 20
3.2782085 2.3773904 0.64138144 28
3.8619051 2.7976091 0.92695016 38
4.0637279 2.9405689 1.1580482 13
3.8269813 2.7651873 1.2651075 13
1.7519379 1.2598225 -0.57820177 12
1.9182789 1.3779154 -0.54528135 32
2.0691373 1.4840897 -0.49495855 10
2.2705715 1.6267686 -0.4423967 9
2.5731652 1.8415262 -0.3885195 8
2.9194648 2.0862827 -0.31393498 4
3.3617296 2.3996701 -0.21646154 36
3.6357386 2.5923905 -0.077942446 16
3.3095477 2.3781531 0.071136013 8
3.1412585 2.2547321 0.20264484 30
3.2675514 2.3427913 0.35176057 11
3.1216311 2.2348683 0.47139066 12
3.2842627 2.3487015 0.63950419 37
4.0433216 2.888335 0.96587521 31
nan nan nan nan
3.7649965 2.6825736 1.238708 46
1.7591137 1.2464448 -0.57768416 13
1.9294418 1.3656164 -0.54573131 34
2.0890677 1.4764067 -0.49724829 10
2.281873 1.6108774 -0.4423967 10
2.5908258 1.8269492 -0.38925073 9
2.9502504 2.0773194 -0.31567809 9
3.386569 2.3818874 -0.21698491 19
3.9024587 2.741677 -0.083247982 14
3.5349686 2.5028992 0.075603828 21
3.1650758 2.2385135 0.2031682 37
nan nan nan nan
3.093359 2.182127 0.46480972 27
3.279588 2.3109241 0.63543689 21
4.020041 2.8295269 0.95557153 17
9.5534124 6.7142515 2.6958134 1
4.0603294 2.8504729 1.3292947 9
1.7725247 1.2374512 -0.57923704 12
1.9341332 1.3487691 -0.54438156 41
2.0880451 1.4539342 -0.49457693 10
2.2817118 1.5870122 -0.44020665 10
2.6149287 1.8167458 -0.39095688 8
2.9774168 2.0662773 -0.3170726 9
3.3916233 2.3502233 -0.21625218 21
3.679801 2.547065 -0.078116976 21
3.4178731 2.3843403 0.072741628 12
3.174073 2.2117934 0.20274951 6
3.2803214 2.2832801 0.34966883 13
3.1134081 2.1638768 0.46554092 39
3.3167348 2.3026183 0.63950419 24
4.2139316 2.9222217 0.9967863 15
4.0257025 2.7885709 1.130604 29
4.1484504 2.8693111 1.3515531 13
1.7843039 1.2272358 -0.58027232 16
1.9306526 1.3264054 -0.54078233 15
2.1059873 1.4452422 -0.49648505 10
2.3071251 1.5814959 -0.44302243 9
2.6111662 1.7872348 -0.3885195 8
2.9851894 2.0409439 -0.31637534 9
3.3976455 2.3203263 -0.21562417 7
4.1220937 2.8108473 -0.087087512 11
3.7569921 2.583076 0.079582974 16
5.5614986 3.8194566 0.35358176 2
3.2419574 2.2231398 0.34391654 21
3.1460812 2.1549726 0.46822205 28
3.3274415 2.2766407 0.6385656 28
nan nan nan nan
3.9517138 2.6966867 1.1045097 56
9.7500744 6.6460633 3.1617336 1
1.7878187 1.2118102 -0.57871938 12
1.9218862 1.3012153 -0.53583348 16
2.1062675 1.4239061 -0.49419534 10
2.321384 1.5675615 -0.44364822 9
2.610106 1.760538 -0.38656959 8
2.9828398 2.0089238 -0.31463224 4
3.4469061 2.3188446 -0.2177176 7
3.6415396 2.4470127 -0.076581158 14
3.5580406 2.4098811 0.075010449 3
3.3928494 2.2954059 0.21468212 12
3.2735219 2.2121782 0.34565967 30
3.2005403 2.1596057 0.47407177 24
3.3367016 2.2489409 0.63731414 19
20.679565 13.922312 4.8457856 8
4.0707159 2.7364383 1.1324037 22
4.1715798 2.8010716 1.3463767 18
1.7785619 1.1874995 -0.57302535 12
1.9374086 1.2920911 -0.53763306 9
2.1096199 1.4048151 -0.49266884 10
2.3322704 1.5513183 -0.44364822 9
2.6256392 1.7444715 -0.38705707 8
2.5352371 1.6818568 -0.26617363 7
3.4829893 2.3079629 -0.21897365 1
3.6385241 2.4082859 -0.076162301 14
3.4583344 2.3072975 0.072567105 11
3.4353852 2.2893832 0.21635687 8
3.3104479 2.2036214 0.34792572 27
3.2386847 2.1525929 0.47748414 24
3.3852348 2.2474427 0.6435715 13
20.799164 13.792792 4.8511281 8
4.0507226 2.6821337 1.121606 14
4.1926432 2.772948 1.3468944 25
1.7900367 1.1771778 -0.57406068 12
1.9300936 1.267836 -0.53313404 10
2.1259425 1.3943599 -0.49419534 10
2.3265202 1.524173 -0.44051951 9
2.6443985 1.7304466 -0.38803205 8
2.996913 1.9588853 -0.31323773 9
3.472255 2.2661276 -0.21729892 7
3.7524076 2.4461651 -0.07818678 11
5.611784 3.6876557 0.11721037 11
3.8136096 2.5031686 0.23907068 19
3.3574085 2.2012143 0.35123762 26
3.2536337 2.1299303 0.47748414 32
3.4653223 2.2659147 0.6557734 16
20.931118 13.670859 4.8595238 8
3.9562707 2.5810275 1.0905627 16
4.1714315 2.7172494 1.3339534 16
1.7933474 1.1615008 -0.57250774 12
1.9339896 1.2511539 -0.5317843 11
2.1403313 1.3830534 -0.4953402 10
2.3401606 1.5104442 -0.44114524 9
2.6497402 1.7076415 -0.38705707 8
3.0239182 1.9465426 -0.31463224 7
3.5077589 2.2554018 -0.21855497 7
4.1530643 2.6662214 -0.086145081 20
3.6845367 2.3854609 0.076616064 10
3.8305588 2.4771538 0.23907068 13
3.3994746 2.1950133 0.35402662 26
3.3814957 2.1808968 0.49405837 16
3.4507732 2.2230201 0.65014172 19
6.986115 4.4936218 1.6146259 1
6.9482784 4.4641428 1.9066854 6
6.8448534 4.392633 2.1792564 8
1.8077257 1.1534243 -0.57457829 12
1.950678 1.2431974 -0.53403383 9
2.1615291 1.3754551 -0.4980115 10
2.3573167 1.4983083 -0.4423967 9
2.6532168 1.6837829 -0.38583836 9
3.0340681 1.9232509 -0.31428361 9
2.6240022 1.661391 -0.16276483 18
4.1293201 2.6104488 -0.085272454 13
5.5777855 3.5561824 0.11546512 14
3.8325973 2.4406958 0.23812862 4
3.4496391 2.1942806 0.35768715 23
3.3664763 2.1380796 0.48967105 16
3.5179186 2.231678 0.6598407 18
6.9974132 4.4321332 1.6100464 4
6.9265757 4.3821855 1.8922884 10
6.8492236 4.328228 2.1709743 6
1.8142979 1.1394308 -0.57406068 12
1.9578735 1.2281713 -0.53358394 10
2.1544421 1.3499074 -0.49419534 10
2.3746767 1.485592 -0.44364822 9
2.6548066 1.6589073 -0.38437593 9
3.0406604 1.8978025 -0.31358635 9
2.6137879 1.6288394 -0.1614041 7
3.7230225 2.317378 -0.076546252 24
5.5940104 3.5118365 0.1152906 13
5.6657934 3.5513933 0.35044158 18
5.6470785 3.5355456 0.5828976 5
3.4621079 2.1650479 0.50137055 7
3.5421758 2.2116783 0.66140497 16
7.0081954 4.3707075 1.605467 4
4.6098809 2.8716319 1.2538773 5
6.8390088 4.2535973 2.1580334 12
1.8074195 1.1175935 -0.56940192 12
1.9630833 1.2124258 -0.53268409 9
2.1556914 1.3293036 -0.49228725 10
2.3833084 1.4679415 -0.44333532 7
2.6747768 1.6455336 -0.38559461 9
3.0439768 1.8697387 -0.3125405 7
3.5716281 2.1912696 -0.21960169 7
4.1602502 2.5494049 -0.085167743 11
5.6598239 3.4969456 0.11612831 9
5.7431397 3.5442655 0.35368642 18
5.7242036 3.5284421 0.58830124 39
5.8544602 3.6030996 0.8440671 22
5.6930556 3.4996557 1.0584357 11
7.0017281 4.299078 1.5970714 4
4.6386189 2.843663 1.2561268 15
6.835588 4.1855726 2.1476805 12
1.8135278 1.1039437 -0.56888431 12
1.9748302 1.2007163 -0.53358394 10
2.1699533 1.3172792 -0.4934321 10
2.3833628 1.4451231 -0.44145811 7
2.6794074 1.6227081 -0.38461968 8
3.046726 1.8422565 -0.31149462 7
3.6159029 2.1838348 -0.22138111 5
4.1625371 2.5110028 -0.084853604 5
5.6208878 3.4188952 0.11483683 14
7.2083993 4.3793278 0.44202951 8
5.9684253 3.6217279 0.61078745 22
5.6078243 3.3975599 0.80506897 28
5.6429901 3.4148238 1.0446695 22
6.9811668 4.2196221 1.5856228 5
6.9074488 4.1684885 1.862595 10
6.8398223 4.1227932 2.1399159 9
1.8162198 1.0882764 -0.56733137 12
1.9931979 1.1929036 -0.53628331 8
2.1774116 1.3010908 -0.49305046 12
2.3832161 1.4223747 -0.43958092 9
2.7060168 1.6131108 -0.38681334 9
3.0557706 1.8194385 -0.31114599 7
3.574405 2.1248605 -0.21792693 8
2.6788912 1.5906107 -0.054381698 5
5.4936366 3.2891777 0.11176521 11
5.9531927 3.5600924 0.36352557 23
5.8327761 3.4839368 0.59440213 17
5.6433434 3.3654413 0.80677515 12
5.6429324 3.3611927 1.0402893 22
6.9581513 4.1396642 1.5737926 6
6.9507427 4.1303306 1.8666439 6
6.9299135 4.1114101 2.1590683 9
1.8320928 1.080478 -0.56991959 13
1.988044 1.1710478 -0.53268409 10
2.1879096 1.287235 -0.4934321 12
2.4013584 1.4111238 -0.44114524 9
2.6949549 1.5811198 -0.38364473 8
3.0787129 1.8041031 -0.31219187 6
3.6387746 2.1297364 -0.22096242 5
4.2351727 2.4748371 -0.085621506 3
5.5675774 3.2821729 0.11281236 6
7.1011491 4.1812286 0.43187636 8
5.8277574 3.425966 0.59143883 33
5.6541362 3.3199174 0.80506897 21
5.8394833 3.4246368 1.072202 16
7.0410948 4.1227331 1.5860044 4
7.0096855 4.0994158 1.8747423 34
nan nan nan nan
1.837734 1.0670121 -0.56940192 12
1.9993409 1.1594437 -0.53358394 11
2.1832504 1.2640597 -0.49037915 12
2.4043112 1.3903692 -0.43989375 9
2.6919024 1.5547976 -0.38169482 4
3.0843282 1.778586 -0.31149462 7
3.6379769 2.0953116 -0.22002037 7
4.21032 2.4220207 -0.084783792 18
5.5626802 3.2271683 0.11225387 11
7.067955 4.0955029 0.42810816 5
5.8440447 3.3822267 0.59074163 34
5.9178066 3.4194036 0.83919233 30
5.7383542 3.3117065 1.0493625 24
7.0979099 4.0913782 1.592492 49
7.0651579 4.0659313 1.8819406 100
7.0177627 4.0337658 2.1689036 49
1.8333962 1.0474489 -0.56577843 12
2.007386 1.1454585 -0.53358394 10
2.1988454 1.252674 -0.4919056 12
2.4276943 1.3813654 -0.4423967 9
2.7164984 1.5438133 -0.38364473 8
3.0862727 1.7511108 -0.31044877 7
3.642091 2.0639546 -0.21939236 8
4.2480097 2.4043884 -0.085202649 5
5.5329752 3.1585138 0.11120673 11
7.1362815 4.0688128 0.43051565 11
5.8103809 3.308809 0.58498931 24
5.7810454 3.2867615 0.81652468 12
5.7699227 3.2764418 1.0509269 14
nan nan nan nan
7.0696316 4.0030656 1.8756419 100
nan nan nan nan
1.8322444 1.0298902 -0.56319028 12
2.0136352 1.1304613 -0.53313404 10
2.2075365 1.2372937 -0.4919056 12
2.4234889 1.3566651 -0.43989375 10
2.7272091 1.5248123 -0.38364473 8
3.0946417 1.7281197 -0.31010011 6
3.6598997 2.0404227 -0.21960169 7
4.2524619 2.3678632 -0.084958315 16
5.5636086 3.1247053 0.11138126 13
7.0721908 3.9671054 0.42496803 8
5.8524585 3.2788763 0.58690673 15
5.8783479 3.2879915 0.82700545 22
5.8202486 3.2514946 1.0559328 17
7.1474848 3.9880495 1.5909655 49
nan nan nan nan
nan nan nan nan
1.8360084 1.015204 -0.56215501 11
2.0112426 1.1107234 -0.53043461 11
2.2107506 1.219393 -0.49076074 9
2.4257472 1.3363237 -0.43864229 10
2.7343097 1.503821 -0.38315722 8
3.1171081 1.7122283 -0.31114599 7
3.6456866 2.0000925 -0.21792693 7
4.2951961 2.352529 -0.08548189 5
5.5164928 3.0490367 0.11001997 11
7.0902872 3.9140482 0.42444465 11
nan nan nan nan
5.8953738 3.2450335 0.82627422 11
5.8422446 3.2118051 1.0559328 21
7.1424518 3.9201059 1.5837147 69
nan nan nan nan
10.216238 5.5932288 3.1208401 1
1.8530574 1.0082235 -0.56526077 12
2.0067704 1.0904953 -0.52728528 11
2.2157578 1.2020582 -0.48999751 9
2.4280696 1.3155931 -0.43739083 10
