# .PCD v0.7 - Point Cloud Data file format
VERSION 0.7
FIELDS x y z intensity
SIZE 4 4 4 4
TYPE F F F F
COUNT 1 1 1 1
WIDTH 1459
HEIGHT 1
VIEWPOINT 0 0 0 1 0 0 0
POINTS 1459
DATA ascii
2.2246668 2.4951572 -0.410456 12
2.4650004 2.7617998 -0.32387072 12
2.8416362 3.1793175 -0.22347455 22
2.584096 2.8881223 -0.067645527 20
2.5017836 2.8168385 0.065760665 22
2.4564147 2.7628415 0.19374773 10
2.5180993 2.8292365 0.33136615 15
2.6627374 2.987541 0.4913772 26
3.018177 3.3827705 0.71803427 12
3.7364023 4.1833453 1.0902827 1
8.6519623 9.6766958 2.996798 2
2.936826 3.2800508 1.1796973 12
1.5470148 1.7187382 -0.61961281 20
1.6788486 1.8632433 -0.57902408 33
1.8330344 2.0322232 -0.53197551 23
1.9936923 2.2080138 -0.47118065 33
2.2273867 2.4633687 -0.40777487 19
2.4828844 2.7430468 -0.32369643 16
2.8444381 3.1391795 -0.22200914 19
2.6028504 2.8685317 -0.067610621 17
2.6279454 2.9186282 0.068553053 12
2.51127 2.7861121 0.19657388 3
2.5191014 2.7908807 0.32892576 13
2.7562089 3.0503561 0.50478286 16
3.1365414 3.4676273 0.74056083 10
8.7607193 9.6719093 2.5366149 2
3.0094097 3.3189201 1.034325 12
7.5528674 8.3209028 3.011101 33
1.5573767 1.7067405 -0.61909521 22
1.6954362 1.8560883 -0.58037376 46
1.8246508 1.9947501 -0.52548802 30
2.0090585 2.1940413 -0.47118065 27
2.2467844 2.4510777 -0.40826234 13
2.5068848 2.7319558 -0.32439366 15
2.8500664 3.101599 -0.2207531 12
2.584408 2.809541 -0.066633284 33
2.5713971 2.8160405 0.06656348 16
2.4915798 2.7257619 0.19353838 8
2.5313134 2.7663207 0.32805422 13
2.7031593 2.9510169 0.4913772 28
4.9459801 5.3919187 1.1588666 1
3.0912824 3.3664582 0.88840669 1
3.1770015 3.4561737 1.0838143 63
3.2245164 3.5041795 1.275978 12
1.5650219 1.6918465 -0.61754227 27
1.7040579 1.8402159 -0.57902408 23
1.8502007 1.99524 -0.52892256 41
1.9984119 2.152808 -0.46523616 20
2.2485521 2.4197316 -0.40558121 12
2.5037103 2.6914878 -0.32160467 22
2.8779204 3.0894327 -0.22127645 19
2.6062009 2.7948081 -0.066703096 27
2.6326165 2.8439639 0.067645527 11
2.6594055 2.8698852 0.2050523 7
2.4877565 2.6818333 0.32003587 31
2.7015727 2.9092731 0.48747739 15
3.1504226 3.3878884 0.73273909 12
3.2278271 3.4674854 0.92084426 9
3.252265 3.4900715 1.1013604 17
3.3260405 3.5654972 1.3065187 25
1.563287 1.6670626 -0.6123659 30
1.7098756 1.8214701 -0.57677454 24
1.8583603 1.9768782 -0.52739608 36
1.9927133 2.1175768 -0.46054313 10
2.2708359 2.4097538 -0.40655616 12
2.5156035 2.6666963 -0.32073313 33
2.8454015 3.0131407 -0.21719423 21
2.8234999 2.9857669 -0.071729392 22
2.5780215 2.747236 0.065760665 13
2.5065758 2.6682994 0.19186363 12
2.5564537 2.7185421 0.32648543 14
2.6251917 2.7877359 0.47017199 15
4.9931755 5.2967796 1.1529222 8
3.0430672 3.2235825 0.8616935 48
3.3581982 3.5536783 1.1288044 14
3.0202816 3.1927412 1.1776267 6
1.5738447 1.6544337 -0.61184824 40
1.7080833 1.7936645 -0.57182562 27
1.8707615 1.9624351 -0.52701449 37
1.9982671 2.093261 -0.45835301 12
2.2793748 2.3852305 -0.40509373 17
2.5258958 2.6404312 -0.31968728 18
2.8931413 3.0201054 -0.21918301 31
2.7653823 2.8837159 -0.069739819 13
2.5419972 2.671227 0.064364478 24
2.5159605 2.6401734 0.19113094 36
2.5634642 2.6872039 0.3249166 13
2.6130579 2.7363212 0.46456599 18
4.9613252 5.1881008 1.1369658 12
3.9438758 4.1198244 1.1086004 4
3.3114653 3.4555767 1.1049596 6
nan nan nan nan
1.5813328 1.6392349 -0.6102953 26
1.7219175 1.783098 -0.57227552 37
1.8929442 1.9574667 -0.52930421 16
2.0114594 2.0778394 -0.45804018 9
2.2904468 2.3635561 -0.40411878 15
2.546113 2.6237183 -0.31986156 13
2.8473547 2.9310696 -0.21415874 40
2.8886116 2.9704261 -0.072322771 13
2.9054828 3.0097668 0.073020868 28
2.5593135 2.6483965 0.19301502 17
2.596015 2.683562 0.32665971 9
2.5869918 2.6705015 0.45652261 16
3.1835527 3.2828791 0.72429162 22
3.221791 3.3188317 0.89909208 20
3.1989145 3.2906635 1.0595195 4
nan nan nan nan
1.6021949 1.637822 -0.61391884 26
1.7165989 1.7529329 -0.56642681 51
1.8776982 1.9147666 -0.52129018 29
2.02038 2.0581083 -0.45678869 9
2.2971509 2.3375983 -0.40241259 9
2.5448024 2.5859993 -0.3174212 24
2.8677497 2.9111187 -0.21415874 35
2.7885282 2.8277361 -0.069320954 23
2.6074817 2.663605 0.065062575 30
2.5749435 2.6276128 0.19280569 30
2.8169954 2.8716066 0.35193488 3
2.7641602 2.8138125 0.48430881 16
3.1052854 3.1577566 0.7014522 9
nan nan nan nan
3.2163358 3.262701 1.0577199 47
3.1114528 3.1530025 1.1869442 16
1.5959022 1.6087679 -0.60718954 28
1.7548838 1.7671796 -0.57497495 29
1.8951731 1.9057872 -0.52243507 38
2.0319118 2.0411534 -0.45616296 9
2.2980011 2.3060369 -0.39973149 5
2.5426474 2.5488682 -0.31498083 16
2.8498905 2.8528771 -0.2113326 21
2.816684 2.816685 -0.06953039 17
2.6161523 2.6354022 0.064818241 11
2.553807 2.5699034 0.18987487 25
2.6922464 2.7063799 0.3339808 29
2.8271658 2.8380451 0.49186471 17
nan nan nan nan
nan nan nan nan
3.3789735 3.3813341 1.1036099 13
3.0623312 3.0601947 1.160027 24
1.6139449 1.6043969 -0.60977769 23
1.7644126 1.7521389 -0.5740751 23
1.898344 1.8831655 -0.51976377 27
2.0457575 2.027276 -0.45616296 9
2.3027563 2.2787673 -0.39778158 4
2.5532951 2.5240514 -0.3141093 9
2.9104559 2.8741105 -0.2143681 31
2.7366114 2.6986656 -0.067087047 20
2.621264 2.6048474 0.064504094 14
2.612345 2.5932674 0.19291034 17
2.7407889 2.7169745 0.33764133 9
2.7392206 2.7125776 0.47334057 13
3.2819409 3.2466176 0.73117477 28
3.1984084 3.1595693 0.8739053 31
nan nan nan nan
3.6388993 3.5871902 1.3691529 9
1.6248283 1.593374 -0.60977769 40
1.7735142 1.7373607 -0.57317531 32
1.9240763 1.8822216 -0.52319831 31
2.0513849 2.0046601 -0.45428574 9
2.3267369 2.2713602 -0.39924401 4
2.0016131 1.9512492 -0.24455902 10
2.9676516 2.8899515 -0.21708956 21
2.7147818 2.6409345 -0.066109717 13
2.6522398 2.5990808 0.064818241 12
2.6446581 2.588938 0.19395708 10
2.6637781 2.6049256 0.32596248 11
2.7666125 2.7017095 0.474803 13
3.0457637 2.9711986 0.67391974 10
3.2592096 3.17609 0.88459057 15
nan nan nan nan
3.1347075 3.0473058 1.171415 19
1.6303577 1.57662 -0.60770714 40
1.7701826 1.7100435 -0.5682264 30
1.9456476 1.8769214 -0.52548802 36
2.0695972 1.9944019 -0.45522434 7
2.3210855 2.23441 -0.39558792 11
2.0094421 1.9317037 -0.24386176 9
2.9935186 2.8746953 -0.21750826 12
2.756243 2.6440654 -0.06666819 15
2.6573782 2.5679946 0.064504094 31
2.6353657 2.5440557 0.19196831 7
2.5958486 2.5032835 0.31550378 13
2.8097131 2.7057388 0.47894657 12
3.4735801 3.3415358 0.76340026 33
3.8899994 3.7382059 1.0486863 12
3.5601246 3.4164226 1.1391522 30
3.627269 3.477211 1.3463767 39
1.6357327 1.5598665 -0.6056366 31
1.7820778 1.6976436 -0.5682264 30
1.9316764 1.8375837 -0.51823723 20
2.0806055 1.9771844 -0.45459861 14
2.3366268 2.2181528 -0.39558792 13
2.586798 2.4522061 -0.31184325 25
2.9308536 2.7754481 -0.21154197 22
2.9358833 2.7772973 -0.070542626 10
2.6708999 2.5452404 0.064399377 24
2.6617432 2.5338566 0.19259633 15
2.6349196 2.5056934 0.31811845 29
2.7508037 2.6122422 0.46578467 14
3.3520784 3.1798942 0.73180056 42
3.2205839 3.0519519 0.86245668 7
3.7084458 3.5093586 1.1787436 17
3.1039469 2.9342332 1.1444979 8
1.6409525 1.5431159 -0.60356599 27
1.8009871 1.691833 -0.57047588 39
1.9473215 1.8267393 -0.51900047 21
2.0597644 1.9301931 -0.44708973 10
2.3622003 2.2112823 -0.3972941 15
2.5965762 2.4272854 -0.31097168 24
2.9311807 2.7372 -0.21018122 43
2.9932179 2.7921996 -0.071450152 33
2.8416126 2.6703196 0.068064384 6
2.6677175 2.5042782 0.19175896 7
2.7206545 2.5512936 0.32631108 15
2.7820153 2.6051848 0.46797833 22
3.2587914 3.0484552 0.70677096 34
3.7022655 3.4596727 0.98495609 13
3.6060524 3.3650544 1.1387023 13
3.1045725 2.8940499 1.1372509 26
1.6531029 1.5329353 -0.60408366 26
1.8141849 1.6805421 -0.57092583 43
1.9412918 1.7957692 -0.51403946 45
2.0180593 1.8648223 -0.43520072 14
2.3848734 2.2014694 -0.39851278 13
2.6159687 2.4122548 -0.3113203 24
2.9649105 2.7301989 -0.21122794 31
2.8919561 2.6602232 -0.068587959 12
2.7927146 2.587894 0.066458762 24
2.7833364 2.5764961 0.19877198 10
2.8159289 2.60393 0.33554959 6
2.8001339 2.5857005 0.46797833 13
3.3482351 3.088582 0.72147578 12
3.5891702 3.3073561 0.94870234 16
3.1671996 2.915453 0.99383384 4
7.13974 6.563026 2.5985434 30
1.6580619 1.5161425 -0.60201317 30
1.8071684 1.6507499 -0.56507707 27
1.9578208 1.7864834 -0.51518428 29
2.1007807 1.9149175 -0.45021844 12
2.4016523 2.1861024 -0.3987565 13
2.668123 2.4261038 -0.31550378 13
2.9597712 2.6884677 -0.20955318 31
3.1548469 2.8616452 -0.07434725 9
2.7364664 2.5013659 0.064713523 6
2.6960928 2.4618709 0.19134027 31
2.8899839 2.6352208 0.34217343 41
2.7765784 2.5291512 0.46115363 18
3.0945036 2.8157823 0.66265643 10
3.6615753 3.3271084 0.96167743 22
3.8324749 3.4787357 1.1949401 11
3.149905 2.8561606 1.1393216 30
1.6626045 1.4996463 -0.59994256 30
1.8024368 1.6240623 -0.56012815 30
1.9541913 1.758327 -0.51098651 27
2.1199749 1.9054866 -0.45146993 7
2.4017065 2.1564419 -0.39631912 12
2.7097893 2.4305017 -0.31846708 4
3.0037596 2.6903923 -0.2113326 17
2.9149475 2.6080961 -0.068273813 13
2.9410181 2.6508942 0.069111533 11
2.6761079 2.4095781 0.18872347 27
2.664916 2.3969758 0.31358635 10
2.766108 2.4845023 0.45652261 18
3.117027 2.7967486 0.66328222 16
3.4560711 3.0976911 0.90214497 28
3.2346811 2.8962059 1.002382 31
nan nan nan nan
1.6629297 1.4790148 -0.59631914 33
1.8166454 1.6140274 -0.561028 27
1.9558362 1.735862 -0.50831515 33
2.1343739 1.8923227 -0.45178279 9
2.4107566 2.1343598 -0.3953442 17
2.7281826 2.4128458 -0.31864139 3
3.0564277 2.7003 -0.21374007 19
2.985568 2.6339855 -0.069495484 17
2.8140321 2.5019317 0.065725766 10
2.7432191 2.4364021 0.19228233 7
2.776983 2.4629219 0.32474229 22
2.8646758 2.5380185 0.46992823 15
3.3445647 2.9600618 0.70739675 13
3.334919 2.9473763 0.86512804 37
3.8640051 3.4113765 1.1899912 21
nan nan nan nan
1.6732147 1.4673693 -0.59631914 38
1.8264034 1.6000212 -0.56057805 32
1.9622971 1.7166513 -0.50678873 15
2.1255486 1.8575029 -0.44708973 11
2.4375629 2.1279204 -0.3972941 17
2.7224379 2.3740971 -0.31602672 6
3.0651288 2.6691782 -0.21300736 54
3.3116639 2.8808186 -0.076616064 11
3.2243841 2.8257201 0.074835919 8
2.8026607 2.4535458 0.19521314 11
2.7446158 2.4001942 0.31898999 12
2.7661378 2.4156072 0.45091662 13
3.3671491 2.9373512 0.70770961 43
nan nan nan nan
nan nan nan nan
1.9376646 1.6843864 0.68794107 7
1.6863399 1.4581802 -0.59735435 25
1.8463768 1.5948756 -0.56327748 39
1.9575855 1.6891471 -0.50259089 13
2.1201873 1.8275166 -0.44333532 12
2.4418275 2.1017861 -0.39558792 11
2.7087314 2.3290539 -0.3125405 12
3.0983789 2.6612649 -0.21405408 22
3.1677678 2.7170238 -0.072846346 12
2.9591293 2.557858 0.068273813 29
2.8661602 2.474875 0.19845797 5
2.7809212 2.3978884 0.32125604 18
2.923897 2.5185034 0.47382805 10
3.1070547 2.673434 0.64920312 18
nan nan nan nan
1.9741129 1.6944131 0.60061932 9
1.9373517 1.6610994 0.68379998 5
1.6815277 1.4341319 -0.59217799 26
1.8438404 1.5708957 -0.55922836 31
1.9753115 1.6805282 -0.50411743 10
2.1133263 1.7960402 -0.43926802 14
2.4575899 2.0864022 -0.39583167 12
2.7279634 2.3126645 -0.3128891 12
3.2113781 2.7195966 -0.22054374 19
3.2060344 2.7121899 -0.073300108 10
2.9966986 2.5540009 0.068727575 10
2.8012455 2.384891 0.19280569 5
2.7516468 2.3401804 0.31602672 40
2.8990433 2.4620483 0.46700338 6
nan nan nan nan
1.9860237 1.6830786 0.50602549 8
1.9933319 1.6868842 0.60286885 5
1.9680803 1.6637471 0.69052929 10
1.7107205 1.4385208 -0.59890729 35
1.8532695 1.5567325 -0.55877846 48
1.9839871 1.6641735 -0.50335413 11
2.1485252 1.8002728 -0.44396105 12
2.1904845 1.8334783 -0.35073999 22
2.7486289 2.2973967 -0.31341204 22
3.1904252 2.6638291 -0.21782227 21
2.9192939 2.4348564 -0.066354051 13
2.8491125 2.3940814 0.064957857 9
2.8331246 2.3781176 0.19385241 18
2.7862377 2.3362751 0.31811845 18
2.0364416 1.7051471 0.3261224 1
2.028878 1.6970079 0.41893157 10
2.0112834 1.6805024 0.50946003 5
2.0050607 1.6729261 0.60286885 9
1.9915199 1.6598605 0.69467032 6
1.723696 1.4290085 -0.59994256 30
1.8655932 1.5449991 -0.55922836 30
1.9774019 1.6352682 -0.49877474 10
2.1336284 1.762584 -0.4383294 27
2.463515 2.032933 -0.39217559 9
2.7722883 2.2844868 -0.31428361 18
3.2027767 2.6364136 -0.21740359 14
2.9516683 2.4271159 -0.066703096 15
3.0828826 2.5540102 0.069879435 15
2.8188841 2.332813 0.19175896 30
2.0500333 1.6947305 0.23270583 2
2.03758 1.6820424 0.32441622 7
2.0376277 1.6802888 0.41830578 6
2.0396354 1.680151 0.51365787 8
2.0166903 1.6588882 0.60286885 5
1.9866412 1.6324257 0.68897635 4
1.7096976 1.3973792 -0.59166032 41
1.8672768 1.5245426 -0.55652899 27
1.9781187 1.6127397 -0.49610341 9
2.1596668 1.7588724 -0.44114524 22
2.251287 1.8315299 -0.35634598 13
2.636622 2.1419613 -0.29720107 6
3.2024951 2.5988853 -0.21614751 21
2.9405797 2.3837836 -0.066074811 17
2.9318211 2.3945477 0.066074811 28
2.0659711 1.6855673 0.13973701 6
2.0571816 1.6766012 0.23218289 6
2.0615904 1.6778008 0.32636613 7
2.0462432 1.6635303 0.41768005 8
2.0406473 1.6572073 0.51098651 5
2.0115728 1.631267 0.59791994 6
1.9889817 1.6112213 0.68587047 6
1.7013593 1.370865 -0.58544868 28
1.879392 1.5126921 -0.55697882 19
2.0031016 1.6099595 -0.49953794 10
2.1549494 1.7301483 -0.43770367 25
2.2268527 1.7859607 -0.35049626 16
2.8039148 2.2455566 -0.31428361 15
2.1615958 1.7292889 -0.14507528 1
2.112026 1.6878202 -0.047191311 10
2.1011534 1.6917869 0.047086593 7
2.0699077 1.6648432 0.13921365 5
2.0828152 1.6734296 0.2337517 7
2.0809944 1.6695794 0.32758483 9
2.0578063 1.6492054 0.41768005 5
2.0429723 1.6355577 0.50869679 7
2.0274787 1.6208341 0.59926963 5
3.3814392 2.700335 1.1595093 1
1.7275282 1.3721709 -0.59114271 27
1.880748 1.4922663 -0.55427945 38
2.0081365 1.5910602 -0.4980115 10
2.1669748 1.715063 -0.43770367 42
2.2127934 1.7494428 -0.34635273 37
2.2268448 1.7580253 -0.24821955 1
2.1500919 1.6956046 -0.1435052 10
2.1221867 1.6717968 -0.047156405 5
2.0988164 1.6658881 0.04677245 5
2.1065202 1.6702058 0.14088841 7
2.1038182 1.6662703 0.23479758 8
2.0754733 1.6414641 0.3249037 6
2.0630705 1.6298997 0.4164286 7
2.0466342 1.6151749 0.50678873 8
3.7239218 2.934653 1.0946119 9
nan nan nan nan
1.7294611 1.3541216 -0.58855456 17
1.880375 1.4706956 -0.55113012 46
2.0222898 1.5794189 -0.49877474 10
2.1570909 1.6828818 -0.43332353 32
2.1936383 1.7095461 -0.34147793 46
2.1620171 1.68248 -0.23967829 6
2.1602995 1.6793282 -0.14340053 5
2.1480212 1.6679785 -0.047470544 8
2.1261437 1.6635182 0.047121495 7
2.1149812 1.653 0.14067906 6
2.1044056 1.6429605 0.23357739 6
2.0727925 1.6159502 0.32271007 8
2.0806329 1.620312 0.41768005 5
nan nan nan nan
3.4134414 2.6515558 0.99788296 52
3.7484839 2.9086707 1.2713192 13
1.7465184 1.347917 -0.59114271 21
1.8782492 1.4480146 -0.54753089 29
2.0208223 1.5556804 -0.49572179 10
2.1750515 1.6725971 -0.43457499 27
2.1913517 1.6833067 -0.33928427 7
2.1831951 1.6746207 -0.24072415 6
2.1830685 1.6727086 -0.14413324 8
2.1548498 1.6492956 -0.047365833 6
2.1313715 1.6437496 0.046981879 5
2.1011546 1.6186922 0.13900432 5
2.1047716 1.6197233 0.2323572 9
2.0950408 1.6099077 0.32441622 1
3.177798 2.4392934 0.6344983 42
4.0211248 3.083288 0.98495609 19
3.617543 2.7698245 1.0518712 42
3.3681979 2.5761135 1.1362157 42
1.742048 1.3251646 -0.58648396 15
1.902277 1.4454781 -0.55158001 37
2.036325 1.5450954 -0.49686664 18
2.2181602 1.6812367 -0.44083238 6
2.2283716 1.6871401 -0.34318411 7
2.2139056 1.673756 -0.24281588 6
2.2026629 1.6634445 -0.1446566 5
2.1599259 1.6293945 -0.047226213 5
2.1300595 1.6191489 0.046702638 6
2.1092227 1.6015682 0.13879497 5
3.000221 2.2756405 0.3294487 32
2.9860663 2.2616243 0.45993495 18
3.199476 2.4206245 0.63543689 30
3.6055605 2.7248881 0.87848467 46
3.6632354 2.7644575 1.0595195 42
3.3876426 2.553699 1.1367333 31
1.7358001 1.3013821 -0.58130759 12
1.9107622 1.4309942 -0.55113012 39
2.0344841 1.5214355 -0.49381369 11
2.2235131 1.6609813 -0.43958092 16
2.2448685 1.6751037 -0.34391531 8
2.2095602 1.6463549 -0.24107277 3
2.1982005 1.6361016 -0.14360988 5
2.1760631 1.6178551 -0.047330927 5
2.1541142 1.6138306 0.046981879 5
3.0350142 2.2713077 0.19866732 43
2.9952884 2.2391329 0.32718265 29
3.0495057 2.2763462 0.4672471 12
3.2115462 2.3946865 0.6344983 25
3.8748426 2.8861144 0.93916196 41
3.9748511 2.9562948 1.1436512 14
4.0892563 3.0380595 1.3650117 31
1.7448425 1.289233 -0.58130759 12
1.9112984 1.4106764 -0.54843074 31
2.051378 1.5118543 -0.4953402 9
2.2414179 1.6501023 -0.44083238 16
2.248512 1.6535103 -0.34269661 6
2.2110803 1.6242008 -0.24002692 4
2.2063472 1.618354 -0.14340053 5
3.7535813 2.7502275 -0.081223503 47
3.1241217 2.30667 0.067785151 27
3.0524039 2.2512493 0.19877198 21
3.0060353 2.214622 0.32665971 21
3.052532 2.245589 0.46529719 14
3.2886755 2.4166548 0.64638728 34
4.3048024 3.1598778 1.0380009 18
3.855015 2.8266129 1.1036099 11
3.7097728 2.7161396 1.2319787 54
1.7553629 1.2781566 -0.58182526 12
1.9053406 1.3858359 -0.54393172 34
2.0743279 1.5070876 -0.49839315 9
2.2462029 1.6301661 -0.43958092 6
2.2342837 1.6191341 -0.33879682 6
2.2368913 1.6192384 -0.24159572 1
3.3437719 2.4178185 -0.21625218 29
3.8732085 2.7965317 -0.083387598 12
4.0111833 2.9196501 0.086598843 16
3.1871958 2.3173363 0.2065177 2
3.1504059 2.2872245 0.34060463 28
3.0773876 2.2317531 0.46675962 19
3.3466411 2.4243457 0.65452182 16
3.8781741 2.8052685 0.93038476 48
4.0294499 2.9114811 1.1477003 19
3.7924001 2.7371795 1.2532018 12
1.7702996 1.2706854 -0.5838958 12
1.9178963 1.3751065 -0.54483151 31
2.0752208 1.4857122 -0.49610341 10
2.2639561 1.6190413 -0.44083238 10
2.5683098 1.8346645 -0.38754454 8
2.6744027 1.9083377 -0.28743961 2
3.360569 2.3944173 -0.21625218 31
3.6738417 2.6147265 -0.078710355 13
3.3181224 2.3799248 0.071275629 8
3.1448491 2.2531517 0.20274951 30
3.264735 2.3364592 0.35123762 15
3.1251938 2.233299 0.47163439 14
3.2991731 2.355016 0.64200711 30
4.0602274 2.8950639 0.96930981 23
nan nan nan nan
3.7815049 2.689364 1.2433668 46
1.7617779 1.2460248 -0.57820177 16
1.9226748 1.3583102 -0.54348177 32
2.0740566 1.4636295 -0.4934321 10
2.2894554 1.6138364 -0.44364822 10
2.5940421 1.8258302 -0.38949445 9
2.9598491 2.0809889 -0.31654966 10
3.371886 2.3680439 -0.21593818 19
3.9146729 2.7451591 -0.083457403 12
3.5448792 2.5062029 0.075778343 26
3.1568491 2.2293904 0.20254017 40
3.4958987 2.4651713 0.37424675 17
3.0997515 2.1833947 0.46554092 28
3.2666602 2.2984037 0.63262105 27
4.0257211 2.8282752 0.95633471 23
4.1122789 2.8858719 1.1598477 1
4.1698875 2.9230425 1.3644941 19
1.7638793 1.2295849 -0.57613122 12
1.9366736 1.3485322 -0.54483151 39
2.0906723 1.4535961 -0.49495855 10
2.2860639 1.5876724 -0.44083238 10
2.5966237 1.8013419 -0.38803205 8
2.9693904 2.0568724 -0.31602672 9
3.3949058 2.3489916 -0.21635687 21
3.7177684 2.5695083 -0.078884877 19
3.4326622 2.3910992 0.073020868 10
nan nan nan nan
3.2950022 2.2900882 0.35106334 17
3.1263349 2.1696239 0.4672471 37
3.3150959 2.2980499 0.63887841 18
4.2272701 2.9271009 0.9994576 12
3.9527988 2.7329671 1.1094587 39
4.1250191 2.8488493 1.3432709 12
1.7771978 1.2205217 -0.57768416 13
1.9363991 1.3283645 -0.54213208 16
2.1040087 1.4411838 -0.49572179 10
2.2987225 1.5727895 -0.44114524 9
2.6091363 1.7831701 -0.38803205 8
2.9836788 2.0360906 -0.31602672 9
3.4128726 2.3263583 -0.21646154 5
4.0033913 2.7258122 -0.084539458 5
3.7526491 2.5752702 0.07944335 26
5.5631838 3.8134701 0.35347709 2
3.2303572 2.2118709 0.34252208 13
3.151237 2.1544688 0.46870953 29
3.3261633 2.2715096 0.63793981 19
nan nan nan nan
3.9621186 2.6987226 1.1067592 42
9.7878151 6.659287 3.1720862 1
1.7824754 1.2059197 -0.57664889 12
1.9197916 1.2973554 -0.53493363 19
2.1123908 1.4253629 -0.4953402 10
2.3194742 1.5633284 -0.44302243 9
2.6119483 1.757804 -0.38656959 8
2.9746716 1.9996496 -0.31358635 4
3.4389791 2.3091557 -0.21708956 5
3.6424389 2.4420843 -0.076546252 17
3.5518601 2.4011741 0.074835919 10
3.3948522 2.2924426 0.21468212 11
3.2804072 2.2126615 0.34618258 31
3.2073631 2.1601388 0.474803 25
3.3337467 2.2427187 0.63637549 19
20.785397 13.961954 4.867156 8
4.0633912 2.7263722 1.1297042 24
4.1884637 2.807112 1.3510355 22
1.7958823 1.1963469 -0.57820177 12
1.932271 1.2857437 -0.53583348 9
2.1206553 1.4094942 -0.49495855 10
2.3273101 1.544506 -0.4423967 9
2.6307738 1.7439147 -0.38754454 9
2.8988519 1.9194372 -0.30417353 6
3.4804058 2.3010101 -0.21865964 3
3.6694112 2.4232075 -0.076755688 13
3.4570189 2.3020604 0.072497301 11
3.4144962 2.270303 0.21489146 9
3.3260314 2.2089722 0.34932023 23
3.2471797 2.1541541 0.47845906 22
3.4402859 2.2788043 0.65358323 12
20.829969 13.781839 4.8549447 8
4.0042882 2.6463645 1.108109 17
4.1971569 2.7696202 1.347412 12
1.7896531 1.174243 -0.57354301 12
1.928161 1.263677 -0.53223425 11
2.1191876 1.3867581 -0.49228725 10
2.3396893 1.5293014 -0.44270959 10
2.6329114 1.7189946 -0.38608211 8
3.0089757 1.9622761 -0.31428361 9
3.4729519 2.2614002 -0.21719423 5
3.7449095 2.435693 -0.077977359 17
5.5888853 3.6642349 0.11665189 9
3.8112161 2.4958911 0.23875666 12
3.386389 2.215148 0.35402662 30
3.2608492 2.1297767 0.47821537 29
3.4842377 2.2730784 0.65890205 16
nan nan nan nan
3.9638705 2.5800724 1.0919125 17
4.103003 2.6665599 1.3111774 12
1.79294 1.1585739 -0.57199007 12
1.9483973 1.2575825 -0.53538352 9
2.1417785 1.3808113 -0.4953402 10
2.3417408 1.5079927 -0.44114524 9
2.6448481 1.7005715 -0.38608211 8
3.0293074 1.9455284 -0.31498083 7
3.530293 2.2646668 -0.21981104 5
4.1356468 2.6489282 -0.085726224 18
3.6483996 2.3566444 0.075813256 8
3.8583255 2.4893816 0.24064074 15
3.403446 2.1925313 0.35420093 26
3.3737617 2.1709096 0.49259594 22
3.4447908 2.2140651 0.64857739 19
7.00073 4.4926653 1.6169155 4
6.9299798 4.4421415 1.9003866 10
6.8331795 4.3750463 2.1740801 11
1.7910067 1.1401182 -0.56888431 12
1.9536233 1.2421998 -0.53448373 9
2.1563385 1.3689822 -0.49648505 10
2.348875 1.4894918 -0.44051951 9
2.6630702 1.6867779 -0.38705707 8
3.0290105 1.9163417 -0.31358635 9
2.6291177 1.6607757 -0.16297418 22
4.1366701 2.6100457 -0.085377172 11
5.5781322 3.5481935 0.11539531 16
5.8884335 3.7412398 0.36561903 4
3.4384782 2.1821251 0.35629267 25
3.3972192 2.152616 0.49381462 13
3.5085688 2.220598 0.65765053 18
7.0045967 4.428124 1.6108096 5
6.9353399 4.379261 1.893638 12
6.8292394 4.3055997 2.1632097 9
1.8103801 1.1347699 -0.57250774 12
1.94573 1.2181906 -0.52998471 9
2.1589479 1.3501097 -0.49495855 10
2.3656602 1.477656 -0.44177097 9
2.6579378 1.6576406 -0.38461968 8
3.0456975 1.8972554 -0.31393498 9
2.6149244 1.6270144 -0.1614041 9
3.7403307 2.3236253 -0.076860398 21
5.5936832 3.5048304 0.11522079 9
5.6648865 3.5453153 0.35023224 20
5.641715 3.5253351 0.58202606 8
3.452209 2.1546671 0.49966437 3
3.5688636 2.2248807 0.66609806 10
6.998672 4.3562913 1.6024141 5
4.6239696 2.8748107 1.2570266 8
6.8452592 4.2508612 2.1590683 12
1.8149707 1.1200734 -0.57147247 12
1.9558467 1.2055986 -0.53043461 9
2.1702259 1.3356552 -0.4953402 10
2.3744905 1.4596553 -0.44145811 7
2.6592946 1.6328133 -0.38315722 8
3.0557988 1.8733296 -0.31358635 7
3.5905721 2.1985819 -0.22064841 7
4.1607676 2.5447304 -0.085132837 7
5.6424499 3.4794075 0.11570945 9
5.7394285 3.535063 0.35326776 13
5.7018256 3.507786 0.58568656 39
5.8846674 3.6146104 0.84796697 3
5.7230492 3.5112121 1.0634416 16
6.9920874 4.2847571 1.5940183 4
4.6327858 2.8345315 1.2538773 14
6.842536 4.1816177 2.1487157 12
1.81284 1.1013569 -0.56836665 12
1.9675478 1.1939368 -0.53133446 10
2.1610272 1.3092812 -0.49114239 10
2.3913839 1.4471326 -0.44270959 7
2.6740274 1.6162608 -0.38364473 8
3.051743 1.8416575 -0.31184325 7
3.6178062 2.1806805 -0.22138111 3
4.175004 2.5135598 -0.085063025 3
5.6084824 3.4046526 0.11452269 14
5.9484129 3.6067481 0.36457232 2
6.0175953 3.644388 0.61549383 10
5.6073909 3.3906076 0.80458146 27
5.620604 3.3945796 1.0399765 17
6.9848461 4.2135286 1.5856228 5
6.9010701 4.1564236 1.8598955 8
6.851696 4.1217995 2.1425042 9
1.8171682 1.086692 -0.56733137 12
1.9925646 1.1901655 -0.53583348 9
2.1785467 1.2991892 -0.49305046 12
2.3844573 1.4202935 -0.43958092 7
2.69207 1.6016129 -0.38461968 9
3.0676348 1.8228766 -0.31219187 7
3.6192014 2.1472161 -0.22054374 10
2.6682367 1.5811352 -0.054137368 13
5.5033708 3.2884853 0.11190483 11
5.9528675 3.5528493 0.36331624 19
5.7930298 3.453341 0.59004438 38
5.6343355 3.3534117 0.80506897 13
5.678124 3.3754487 1.0462338 16
6.9769526 4.1426153 1.5772274 4
6.9509897 4.1222792 1.8657442 6
6.9418097 4.1102824 2.1616566 9
1.8263752 1.0749592 -0.56784898 13
1.9957851 1.173263 -0.53448373 11
2.1839528 1.2823431 -0.49228725 12
2.388957 1.4010333 -0.43864229 9
2.7066112 1.584787 -0.38510716 8
3.0699661 1.7953826 -0.31114599 6
3.6337323 2.1225328 -0.22054374 5
4.2269673 2.4650941 -0.085412078 3
5.5773335 3.2813692 0.11295197 6
7.0927405 4.1679468 0.43114361 8
5.8273096 3.4188604 0.59109026 24
5.6621704 3.3179903 0.8058002 26
5.8015552 3.3955891 1.0646931 13
7.0599446 4.1255016 1.5894389 5
7.0065274 4.0893683 1.8729426 89
nan nan nan nan
1.8269639 1.0586282 -0.56577843 12
1.990232 1.1518419 -0.5308845 11
2.1979518 1.2700118 -0.4934321 11
2.4123671 1.3922201 -0.44114524 9
2.7104564 1.5623616 -0.38413221 4
3.0893326 1.7778815 -0.31184325 7
3.6363411 2.0901458 -0.21981104 7
4.229774 2.428302 -0.085132837 18
5.5776081 3.2293267 0.11249821 14
7.0974603 4.1043315 0.42967823 5
5.8504443 3.3791187 0.59109026 22
5.8743577 3.3874638 0.83261144 13
5.7789006 3.328388 1.0562457 30
7.118494 4.0949717 1.5963081 49
7.0687051 4.059761 1.8819406 100
7.0145798 4.0237923 2.1668332 52
1.8427012 1.0506321 -0.56836665 12
2.0066919 1.142741 -0.53313404 10
2.198231 1.2497845 -0.49152401 12
2.4151568 1.371443 -0.43989375 9
2.7212977 1.543401 -0.38413221 8
3.0947344 1.7523438 -0.31114599 7
3.647367 2.062742 -0.21960169 8
4.2605524 2.4065814 -0.085412078 5
5.5444169 3.1586337 0.11138126 13
7.1224685 4.0527062 0.4294689 8
5.8253913 3.3106287 0.58620954 26
5.7718258 3.2748582 0.8148185 17
5.7848105 3.278223 1.0531169 17
nan nan nan nan
7.0697303 3.9949739 1.8747423 100
nan nan nan nan
1.826403 1.0245104 -0.56111974 12
2.0095205 1.1258463 -0.5317843 11
2.208616 1.2353659 -0.4919056 11
2.4384687 1.3622559 -0.4423967 9
2.7320063 1.5243652 -0.38413221 8
3.0964503 1.7248769 -0.31010011 6
3.6581895 2.0352848 -0.21939236 7
4.2387962 2.355408 -0.084644176 14
5.5733094 3.1237628 0.11152088 13
7.0407925 3.9414241 0.42287454 11
5.8831406 3.2893281 0.58969575 11
5.8309479 3.254802 0.81993699 10
5.8213582 3.2454526 1.0556198 16
7.1543927 3.9837213 1.5917287 52
nan nan nan nan
nan nan nan nan
1.8352017 1.012669 -0.56163734 11
2.0207441 1.1136719 -0.53268409 10
2.2051461 1.2132919 -0.4892343 7
2.4358013 1.3385396 -0.44020665 10
2.735621 1.5014344 -0.38315722 8
3.1014266 1.6993893 -0.30940288 7
3.6617956 2.0039449 -0.21876432 7
4.2884746 2.3439825 -0.08530736 7
5.5249362 3.046155 0.11012468 13
7.0786357 3.8979504 0.42350259 14
7.0721412 3.8895502 0.70613581 1
5.928349 3.2551005 0.83041775 13
5.8525329 3.2094851 1.0571842 21
7.1510339 3.9167047 1.5848596 76
nan nan nan nan
10.179703 5.5593791 3.1078992 1
1.8388311 0.99798918 -0.56060207 12
2.0096245 1.0893221 -0.52773523 10
2.2152889 1.1988029 -0.48961592 9
2.4294457 1.3130499 -0.43739083 10
2.7407949 1.4794722 -0.38242605 9
3.1202309 1.6814766 -0.31010011 6
3.6686621 1.9745456 -0.21834564 7
4.2624617 2.2912629 -0.084469646 12
5.517942 2.9922574 0.10956621 13
7.163631 3.8798258 0.42695674 17
7.0693321 3.8239679 0.70317256 1
nan nan nan nan
5.9704223 3.2201202 1.0743921 11
7.1246238 3.8378196 1.5730294 68
10.194851 5.4824796 2.6724186 2
10.316977 5.541193 3.1379223 1
1.8610924 0.99331307 -0.56526077 12
2.0137413 1.0734314 -0.52683538 11
2.2218709 1.1823858 -0.4892343 7
2.4385533 1.2960572 -0.43739083 9
2.7545636 1.4621632 -0.38291353 9
3.1318939 1.6596522 -0.31010011 3
3.6717663 1.9432797 -0.2177176 7
4.2642107 2.2539737 -0.084190413 22
5.5263443 2.9470778 0.10932188 11
7.1693883 3.8184574 0.42570072 31
7.0589147 3.7548757 0.69951195 2
7.0286608 3.7324853 0.97714853 2
6.9787526 3.7012992 1.251163 10
7.1269541 3.775121 1.5676868 60
10.231155 5.4102616 2.6719687 2
10.237541 5.4067817 3.1022053 1
1.8611391 0.97670615 -0.56319028 12
2.0194597 1.058443 -0.52638549 12
2.2248533 1.1641138 -0.48808944 10
2.4475427 1.2790002 -0.43739083 10
2.7506263 1.4355482 -0.38096359 9
3.1395845 1.6364537 -0.30975151 7
3.6923294 1.921288 -0.2181363 7
4.2532253 2.2103193 -0.083666839 19
5.5007381 2.8842809 0.10841435 14
7.1215591 3.7293968 0.42130449 17
7.0549431 3.6898062 0.6965487 2
7.0158334 3.6631119 0.97178626 3
6.9658885 3.6323948 1.2442799 10
7.1217933 3.7089508 1.5608176 68
10.231439 5.3216114 2.6625209 2
10.674518 5.542603 3.2228148 2
1.8524607 0.95571733 -0.55853152 12
2.0354614 1.0487816 -0.52863503 10
2.227488 1.1462488 -0.48694456 11
2.4597051 1.2641176 -0.43801656 9
2.7535164 1.4126855 -0.37998864 9
3.1509326 1.6144955 -0.30975151 7
3.6999884 1.8933792 -0.21782227 7
4.2899232 2.1914866 -0.084085695 15
5.5646753 2.8696849 0.10928696 9
7.1396775 3.6771774 0.42088583 28
7.0539522 3.6267979 0.69393402 2
7.0088191 3.5989499 0.96739888 3
6.9552975 3.5668669 1.2380226 10
7.1178026 3.643935 1.5543302 76
10.424499 5.3298998 2.703012 2
nan nan nan nan
1.8589232 0.94308585 -0.55853152 12
2.0356002 1.0313783 -0.52683538 9
2.23894 1.1324422 -0.48770785 12
2.4578912 1.2415709 -0.43613935 10
2.770401 1.3970045 -0.38096359 9
3.1407723 1.5817062 -0.30765978 7
3.7113314 1.8666068 -0.2177176 7
4.3408604 2.1794288 -0.084783792 16
5.3990755 2.7367392 0.10565687 9
7.1188445 3.6037896 0.41816431 19
7.0446925 3.561619 0.69062209 3
7.0125074 3.5391984 0.96447408 3
6.9412222 3.4986625 1.2311394 10
7.1062393 3.5756233 1.5463161 75
10.374393 5.2132378 2.680517 2
nan nan nan nan
1.8690819 0.93148392 -0.5595668 11
2.03246 1.0115776 -0.52413601 10
2.2432756 1.1150352 -0.48694456 12
2.4649429 1.2230728 -0.43582645 10
2.7907586 1.3829178 -0.38242605 9
3.1624525 1.5650432 -0.30870563 6
3.7174311 1.8364629 -0.21729892 7
4.3541756 2.1481884 -0.084748887 19
5.5200748 2.7498028 0.10764644 13
7.1158361 3.5385273 0.41648957 16
7.0360937 3.4942796 0.68731016 3
7.0014758 3.4725189 0.95959932 3
6.9253635 3.4287438 1.2239434 12
7.0940733 3.5076482 1.5383022 63
10.773979 5.3201509 2.7740967 2
nan nan nan nan
1.8720696 0.9167124 -0.55853152 11
2.0254679 0.99051386 -0.52053678 10
2.2494321 1.0980951 -0.48656297 13
2.4734216 1.2058344 -0.43582645 10
2.7824972 1.3547112 -0.37998864 9
3.169987 1.5406313 -0.308357 6
3.7175832 1.8043607 -0.21656621 7
4.3690667 2.1177382 -0.084748887 17
5.5360179 2.7084742 0.10757664 11
7.0990925 3.4685967 0.41408211 24
7.0370393 3.4337149 0.68504417 7
7.0047297 3.4118972 0.95667446 3
6.9509068 3.3811793 1.2242563 10
7.091898 3.4451723 1.532578 65
20.613558 9.9960661 5.2890496 9
nan nan nan nan
1.8836467 0.906133 -0.5600844 10
2.0376034 0.97888094 -0.52188647 11
2.2481925 1.0781186 -0.4846549 12
2.4924695 1.1936567 -0.43770367 10
2.791887 1.3352528 -0.37998864 9
3.1770692 1.5167465 -0.3080084 7
3.7318923 1.7792228 -0.21667089 7
4.3873558 2.0889039 -0.084818691 11
5.4610696 2.6247175 0.10576159 11
7.1231351 3.4189513 0.41408211 30
7.0428729 3.3758914 0.68330097 10
6.9997277 3.3492031 0.95277458 1
6.9386954 3.3155372 1.2179989 12
7.0945148 3.3854315 1.5279986 68
20.795435 9.9055567 5.3178434 9
nan nan nan nan
1.8794464 0.88800979 -0.55697864 10
2.0479124 0.96629506 -0.52278626 10
2.2485602 1.0590509 -0.4831284 10
2.4971669 1.1745454 -0.43707794 10
2.8011408 1.3157291 -0.37998864 9
3.1873198 1.4950856 -0.3080084 3
3.7442229 1.7531259 -0.21667089 7
4.4054551 2.0599174 -0.08488851 16
5.4955349 2.5942109 0.10607573 14
7.0817919 3.3384829 0.41031393 16
7.0374265 3.3130658 0.68051207 11
6.9762273 3.2783031 0.94643742 2
6.9223318 3.2485528 1.2111158 12
7.0841999 3.3199906 1.5207478 76
21.127131 9.887682 5.3853283 10
nan nan nan nan
1.8715806 0.86836249 -0.55283749 10
2.0563765 0.95279461 -0.52323622 10
2.248589 1.0404242 -0.48160195 9
2.5033104 1.156693 -0.43676507 9
2.8102582 1.2961415 -0.37998864 9
3.1994896 1.473631 -0.30818272 7
3.7524405 1.72593 -0.21646154 7
4.3997378 2.0199337 -0.084504552 8
5.4931121 2.5474868 0.10569178 11
7.1116037 3.2935553 0.41073263 33
7.0296416 3.249639 0.67754871 12
6.9731483 3.2190933 0.94302505 2
6.911993 3.1864724 1.2054842 10
7.0840182 3.2597868 1.5157868 81
21.301888 9.7887678 5.412323 10
nan nan nan nan
1.8827221 0.85800546 -0.55439043 10
2.0521724 0.93393105 -0.52053678 10
2.2611609 1.0271356 -0.48274681 11
2.4969335 1.132659 -0.4342621 9
2.8262486 1.280259 -0.38096359 9
3.198806 1.4463348 -0.30713683 9
3.7607563 1.6980487 -0.21625218 7
4.4006233 1.9841871 -0.084260218 10
5.4033856 2.4601891 0.10363239 9
7.0580592 3.20911 0.4063364 22
7.0225706 3.1885386 0.67475975 13
6.9665222 3.157222 0.93912524 2
6.908875 3.1267374 1.2011039 12
7.0559516 3.1888497 1.5051014 83
nan nan nan nan
nan nan nan nan
1.8921927 0.84641916 -0.5554257 10
2.0568626 0.91878754 -0.52008688 10
2.2736559 1.013723 -0.48389161 10
2.4921482 1.1095753 -0.43207204 10
2.8187923 1.2532387 -0.37876993 8
3.2161107 1.4271989 -0.30783406 7
3.7615645 1.6668957 -0.21562417 7
4.3960829 1.9453225 -0.083911166 1
5.338274 2.3856907 0.10206167 30
7.0839391 3.1613853 0.40654576 33
7.0228214 3.1297016 0.67266804 17
6.9557452 3.0939913 0.93473798 1
6.9034543 3.0664032 1.1964109 1
nan nan nan nan
nan nan nan nan
6.9244237 3.0612557 2.0286238 43
1.8980557 0.83318853 -0.5554257 12
2.0578725 0.90205848 -0.51873714 10
2.2626905 0.98995703 -0.48007545 10
2.510694 1.0968959 -0.43394926 10
2.8165555 1.228768 -0.37730753 6
3.225996 1.4047114 -0.30783406 9
3.7694466 1.6390015 -0.21541482 5
4.3123407 1.8723745 -0.082061216 7
5.3438125 2.3435433 0.10185225 13
7.0363169 3.0814042 0.40256822 15
nan nan nan nan
4.3318524 1.8907409 0.58034182 1
4.289906 1.869759 0.74118662 7
7.0637836 3.0743556 1.4974691 69
nan nan nan nan
6.9137239 2.9990048 2.0193064 41
1.8985034 0.81762499 -0.55387276 12
2.0605395 0.88613009 -0.51783735 11
2.2677426 0.97336203 -0.47969386 10
2.5273688 1.0832323 -0.43551362 10
2.8287151 1.2106369 -0.37779501 8
3.2210658 1.3758959 -0.30643961 9
3.7789593 1.6118642 -0.21531016 5
4.4228144 1.8837554 -0.083911166 1
5.39678 2.3219883 0.10255034 6
nan nan nan nan
4.377924 1.8781906 0.41677874 3
4.3157501 1.8479487 0.576442 1
6.8929234 2.9471915 1.1873378 10
7.0561867 3.0126286 1.4913632 7
4.2416697 1.8074774 1.0644685 1
nan nan nan nan
1.8934876 0.79984057 -0.55076694 12
2.0720623 0.8739953 -0.51918709 10
2.2762921 0.95826817 -0.48007545 10
2.5184801 1.0586721 -0.43269777 11
2.8499107 1.1962373 -0.37950116 9
3.2269173 1.3518353 -0.30609095 7
3.7956479 1.5877551 -0.21562417 7
4.4137158 1.8435839 -0.083492316 1
4.4253531 1.8675227 0.083841361 1
6.9774237 2.9402072 0.39681125 5
7.0096946 2.9494848 0.66534692 2
nan nan nan nan
nan nan nan nan
nan nan nan nan
19.364994 8.0926075 4.8454461 8
nan nan nan nan
1.9061646 0.78955919 -0.55283749 12
2.072711 0.85727382 -0.51783735 10
2.2865562 0.94385159 -0.48083872 10
2.5166783 1.0373002 -0.43113342 9
2.8508499 1.1732901 -0.37852621 11
3.2252185 1.3247323 -0.3050451 8
3.7770739 1.5490918 -0.21394941 5
4.4486847 1.8218192 -0.083911166 1
5.4416084 2.2517631 0.10279468 3
nan nan nan nan
4.2342763 1.7469726 0.40074208 1
nan nan nan nan
6.8785906 2.8281314 1.1779517 12
7.0303626 2.8862305 1.4772433 76
19.399376 7.948359 4.8400474 8
nan nan nan nan
1.9116303 0.77623236 -0.55283749 12
2.0678098 0.8383894 -0.51513797 10
2.2876301 0.9256562 -0.47969386 10
2.5330162 1.0234051 -0.43269777 10
2.8516078 1.150388 -0.37755126 11
3.2491741 1.3081366 -0.30643961 9
3.7748253 1.5174686 -0.21321672 5
4.3313918 1.738573 -0.081467837 7
nan nan nan nan
nan nan nan nan
4.2020397 1.6994431 0.39655861 1
4.2099214 1.6992098 0.55743045 1
6.8761811 2.7711806 1.1741973 10
7.0266638 2.8275514 1.4722823 85
19.407377 7.7938509 4.8283496 8
nan nan nan nan
1.9170024 0.7628687 -0.55283749 12
2.0790448 0.82609272 -0.51648766 11
2.2903864 0.90821558 -0.47893062 10
2.5419359 1.0064236 -0.43301064 10
2.8521852 1.127533 -0.3765763 9
3.247107 1.281034 -0.30539373 7
3.7853265 1.4910802 -0.21321672 5
4.3397007 1.7068298 -0.081398018 7
4.2999682 1.7094262 0.08076974 1
nan nan nan nan
4.26196 1.6891503 0.40109071 1
4.1219993 1.630353 0.54426849 1
6.865962 2.7115021 1.1691914 10
7.0297933 2.7719486 1.4688478 85
19.551983 7.6938505 4.8508449 8
nan nan nan nan
1.9168819 0.74736172 -0.55128461 10
2.0811296 0.81014419 -0.51558787 9
2.2893507 0.88936096 -0.47740412 10
2.541533 0.98579687 -0.43175918 9
2.8636892 1.1090286 -0.37706378 9
3.244601 1.2545922 -0.30434784 8
3.8030975 1.4674932 -0.2136354 5
4.338449 1.6714592 -0.081153691 7
4.2968903 1.673559 0.080490492 1
4.2497158 1.6526235 0.23896599 1
4.2216444 1.6391629 0.39620999 1
4.1258774 1.5986656 0.5432936 1
6.8515635 2.6506701 1.1635597 8
7.0288305 2.715019 1.4646499 83
19.672995 7.5872331 4.8679414 8
nan nan nan nan
1.9112246 0.72982514 -0.54817873 11
2.1013021 0.80114836 -0.51918709 11
2.2916822 0.87235922 -0.47664091 9
2.535259 0.96356046 -0.42956907 7
2.8657935 1.0868974 -0.37633255 5
3.2495542 1.230499 -0.30399922 8
3.8073928 1.4394553 -0.21332137 5
4.3387861 1.6368952 -0.080944255 7
4.2521338 1.6228831 0.07944335 1
4.2160735 1.6065917 0.23645388 1
4.1938763 1.594781 0.39254946 1
4.1329513 1.5691373 0.54280609 12
6.847281 2.5955725 1.1598053 10
7.0108876 2.6519902 1.4570175 76
17.982639 6.7914872 4.4378347 7
nan nan nan nan
1.9270042 0.72086114 -0.55128461 12
2.0884507 0.78000945 -0.51468807 10
2.3069143 0.85976815 -0.478549 7
2.5437753 0.94652778 -0.42988196 9
2.8805687 1.0701305 -0.37730753 8
3.2618024 1.2091663 -0.30434784 8
3.8004923 1.4065984 -0.21237932 3
4.3592067 1.6107897 -0.081118785 7
4.26898 1.5952579 0.079548068 1
4.214088 1.5722318 0.23572117 4
4.1822295 1.5578495 0.39045769 7
4.1289196 1.5347127 0.54085618 16
6.8541231 2.5435824 1.1579281 10
7.0066843 2.5960255 1.4524381 79
17.890699 6.6144204 4.4036422 6
nan nan nan nan
1.9319898 0.70739049 -0.55128461 12
2.0846939 0.76206499 -0.51243854 10
2.3073273 0.84162366 -0.47740412 10
2.5596018 0.93212545 -0.43144631 9
2.8805072 1.0472811 -0.37633255 4
3.27391 1.1877241 -0.30469647 8
3.8120975 1.3807119 -0.21248402 7
4.3496604 1.5728375 -0.080734834 8
4.2818913 1.566103 0.079582974 6
4.1949439 1.5318124 0.23404641 3
4.1911311 1.5279337 0.39028341 1
nan nan nan nan
6.8531466 2.4889266 1.1547993 12
7.0043359 2.5396817 1.4482403 85
17.800835 6.4403062 4.3703494 6
10.211291 3.688379 2.9091263 2
1.9405181 0.69518936 -0.55231988 12
2.0936332 0.74880499 -0.51333833 10
2.3057506 0.82285553 -0.47587767 9
2.5660467 0.91423333 -0.43144631 9
2.8802671 1.0244849 -0.3753576 5
3.2858772 1.1661733 -0.3050451 8
3.8216431 1.3540666 -0.21248402 7
4.3397965 1.5350994 -0.080350876 7
4.3397894 1.5530156 0.080455594 9
4.2375097 1.513912 0.23582584 1
4.2504878 1.5160395 0.3948155 1
4.1761284 1.4862299 0.54426849 1
6.8349905 2.4284532 1.1488549 12
7.0052428 2.4848135 1.4448059 83
17.724117 6.2729635 4.3406558 6
9.9708538 3.5230362 2.8335512 2
1.939855 0.67970771 -0.55076694 13
2.1006494 0.73481393 -0.51378828 9
2.3058779 0.80479854 -0.47473282 9
2.5649049 0.8936981 -0.43019485 9
2.8910995 1.0056548 -0.37584507 6
3.2675872 1.1340595 -0.30260473 8
3.8291156 1.3266996 -0.21237932 7
4.363636 1.50934 -0.08059521 3
4.3599629 1.5259831 0.080630124 1
4.2819147 1.4961504 0.23770994 1
4.2195816 1.4718919 0.39098063 2
4.2014003 1.4622608 0.54621845 3
6.8051271 2.3644717 1.1410331 10
7.0020146 2.4287732 1.4406079 85
nan nan nan nan
nan nan nan nan
1.9372427 0.66364408 -0.5486964 12
2.0983524 0.71760833 -0.51198864 8
2.3132985 0.78931367 -0.47511441 9
2.5673423 0.87449479 -0.42956907 9
2.8961699 0.98480898 -0.37560135 9
3.2791982 1.1125 -0.30295336 8
3.84396 1.3018571 -0.21269335 7
4.4024835 1.4884444 -0.081118785 1
4.3988891 1.5052209 0.081153691 2
4.3565154 1.4881738 0.24126878 1
4.2693543 1.4559042 0.39464122 3
4.2415752 1.4431244 0.55011827 7
nan nan nan nan
nan nan nan nan
4.205133 1.4225417 1.0248771 1
9.9568405 3.3624611 2.8159511 2
1.9381646 0.6488778 -0.54766113 12
2.1070075 0.70417804 -0.51288843 9
2.3243399 0.77500755 -0.47625926 9
2.5658877 0.85405463 -0.42831761 9
2.9067421 0.96581775 -0.37608883 9
3.2906673 1.0908337 -0.30330199 6
3.8396819 1.2705973 -0.21196064 5
4.4127669 1.4576752 -0.081118785 1
4.5098033 1.5080858 0.08300364 1
4.4198446 1.4754312 0.2441996 1
4.3285604 1.442438 0.39917332 3
4.2911048 1.4266289 0.55523676 1
6.8131051 2.261137 1.1369658 12
6.9718795 2.3097799 1.4276329 85
nan nan nan nan
nan nan nan nan
1.9426473 0.63533103 -0.54766113 12
2.1007569 0.68582243 -0.51018906 10
2.3203604 0.75572187 -0.47435117 9
2.5755448 0.83734208 -0.42894334 9
2.9058611 0.94305021 -0.37511387 9
3.3057847 1.0702887 -0.30399922 8
3.8446572 1.2425318 -0.2117513 5
4.4380598 1.4317442 -0.081398018 1
4.478404 1.4629023 0.082235746 1
6.9137459 2.2544186 0.38111049 5
4.3707323 1.4226673 0.40213659 2
4.2480941 1.3794719 0.54841208 3
nan nan nan nan
nan nan nan nan
10.340775 3.3379869 2.5086544 2
10.124175 3.262217 2.8501153 2
1.9525564 0.62351626 -0.54921407 13
2.1129208 0.67350602 -0.51198864 11
2.3199663 0.73772055 -0.47320631 9
2.5813274 0.81934226 -0.42894334 9
2.9048045 0.92034364 -0.37413892 9
3.309377 1.045983 -0.30365062 8
3.8513339 1.2150599 -0.21164663 7
4.4174304 1.3911155 -0.080839552 1
5.2029343 1.6594692 0.095325045 3
nan nan nan nan
4.3349862 1.3776367 0.39795309 1
4.2632985 1.3515786 0.54914331 5
4.2374864 1.3409543 0.70395517 1
nan nan nan nan
10.051572 3.1673255 2.4330709 2
9.1276093 2.8709249 2.5638614 2
1.9494843 0.60756946 -0.54714346 13
2.1175711 0.65873861 -0.51198864 10
2.3288105 0.72266996 -0.47396958 9
2.5832107 0.80013227 -0.42831761 9
2.9054697 0.89828146 -0.37340769 8
3.3089821 1.0205065 -0.30295336 8
3.8730843 1.192258 -0.21237932 5
4.43468 1.3625935 -0.080979168 1
4.4182 1.3752713 0.08076974 1
4.3772964 1.3600256 0.24022207 1
6.9211297 2.1464217 0.63397086 20
6.859345 2.122009 0.88160288 5
6.7853551 2.0952275 1.124764 10
6.9793243 2.1511207 1.4196191 100
6.8919616 2.1189272 1.6646379 2
nan nan nan nan
1.9481333 0.59225988 -0.54559058 12
2.1202536 0.64337432 -0.51153874 10
2.3337991 0.70639306 -0.47396958 9
2.5849524 0.78093481 -0.42769188 9
2.9192724 0.88026786 -0.37438264 9
3.323658 0.99967617 -0.30365062 8
3.885139 1.1663383 -0.21258868 5
4.4574938 1.3356161 -0.081223503 3
5.191155 1.5762048 0.094696753 4
6.8256426 2.0685863 0.37378344 7
6.9111543 2.0905514 0.63170481 47
6.8530865 2.0677657 0.87892181 10
6.780901 2.0421126 1.1216353 12
6.7271891 2.0220959 1.3654292 83
nan nan nan nan
6.5590868 1.9628296 1.8345095 100
1.9559247 0.57974291 -0.54662579 12
2.1209562 0.62745088 -0.51063895 10
2.3462052 0.69230646 -0.47549605 9
2.5865507 0.76175439 -0.42706612 9
2.9424868 0.86490577 -0.3765763 9
3.3189144 0.97366428 -0.30260473 8
3.8816862 1.1358192 -0.21196064 7
4.4628706 1.3033431 -0.081153691 8
5.1924443 1.5370897 0.094522238 6
6.8648176 2.028244 0.37514415 10
6.8930941 2.0326679 0.6287415 31
nan nan nan nan
nan nan nan nan
6.6883888 1.9596258 1.354744 90
6.6268659 1.9378335 1.5940033 100
6.5633564 1.9142894 1.8319213 100
1.9543567 0.56446671 -0.54507297 12
2.1196673 0.61100924 -0.50928926 11
2.3395429 0.67306346 -0.47320631 9
2.5840814 0.74195009 -0.42581466 9
2.9198277 0.83614475 -0.37292022 8
3.3179686 0.94828016 -0.30190748 8
3.8874068 1.1088252 -0.21185598 5
4.4660902 1.2705153 -0.081048973 10
5.1835752 1.4961623 0.094173186 6
6.3391662 1.8261117 0.34573138 2
6.8975415 1.9817481 0.62786996 41
6.7817187 1.9446276 0.86624736 53
6.7571354 1.9337504 1.1131878 82
6.684916 1.9080313 1.3513094 95
6.613996 1.8840446 1.5877047 100
6.5557952 1.8637555 1.8262272 100
1.9711709 0.55481356 -0.5486964 12
2.1275294 0.5976209 -0.51018906 9
2.3404038 0.65565473 -0.4724431 9
2.5853934 0.72282797 -0.42518893 10
2.9254515 0.81625074 -0.37292022 8
3.3281851 0.92674232 -0.30225611 8
3.900826 1.0832621 -0.21216999 7
4.4592185 1.2358136 -0.08076974 10
5.1881189 1.4583144 0.094068475 4
6.1940718 1.7375762 0.33714828 2
6.8571491 1.9197123 0.62298924 7
6.7779217 1.8924304 0.86405367 86
6.738122 1.8775159 1.107869 87
6.6769423 1.8567019 1.3471116 92
6.6153994 1.8358573 1.5850053 100
6.555613 1.814338 1.8226038 100
1.9619538 0.53746587 -0.54507297 12
2.1354094 0.58378118 -0.51108885 10
2.3334486 0.63660854 -0.47015342 9
2.6055019 0.7093643 -0.42769188 9
2.9387414 0.7978878 -0.37389517 8
3.3307278 0.90244257 -0.30190748 8
3.9061811 1.0561635 -0.21206531 7
4.4194684 1.1916375 -0.079897113 15
5.1940675 1.4219102 0.093998663 3
6.2038293 1.6948481 0.33704361 6
6.8838396 1.8754629 0.6242094 46
6.7753205 1.8420875 0.86210382 85
6.7259617 1.8248829 1.1038017 85
6.6783705 1.8069663 1.3448219 86
6.6167665 1.7865804 1.5823058 100
nan nan nan nan
1.9637002 0.523601 -0.54455531 12
2.1412168 0.56973344 -0.51153874 9
2.3473237 0.62282109 -0.47206149 9
2.5951138 0.68711364 -0.42518893 9
2.9479427 0.77888149 -0.37438264 5
3.3330936 0.87815255 -0.30155888 6
3.9115279 1.0283597 -0.21196064 5
4.4487543 1.1671094 -0.080281071 7
5.1864762 1.3809832 0.093684517 6
6.2097197 1.6499571 0.33672959 2
6.8694854 1.8214105 0.62176907 37
6.7765021 1.791694 0.86064136 81
6.7156181 1.7718353 1.1000473 19
nan nan nan nan
nan nan nan nan
4.9037018 1.2846332 1.3582823 4
1.9654373 0.50939429 -0.54403764 13
2.139482 0.55330724 -0.51018906 8
2.3592188 0.60837942 -0.47358796 10
2.5941083 0.66750157 -0.42425033 7
2.9436948 0.75581217 -0.37316394 9
3.3391428 0.85486335 -0.30155888 5
3.9031305 0.99707425 -0.21112327 3
4.4606686 1.1370126 -0.080350876 7
5.1688876 1.3377293 0.093195848 7
6.2404242 1.6115618 0.3377763 2
nan nan nan nan
nan nan nan nan
5.0803113 1.3025118 0.83066714 4
5.0155749 1.2831163 1.0063267 8
nan nan nan nan
4.9518666 1.2603745 1.3691529 6
1.9745659 0.49707636 -0.54559058 12
2.1300623 0.53503525 -0.50703973 9
2.3653133 0.59237003 -0.47396958 9
2.5987053 0.64937502 -0.42425033 7
2.9411957 0.73332202 -0.37218902 9
3.3527634 0.83345348 -0.30225611 8
3.9061196 0.96883738 -0.21091393 3
4.4626751 1.1044003 -0.080246165 7
5.1936154 1.305511 0.093475096 6
5.2131538 1.3075209 0.28167215 3
5.1508737 1.2890341 0.46454012 4
5.0924568 1.270638 0.64444512 3
5.1046147 1.2708329 0.83317006 3
5.0510855 1.2546983 1.0116693 6
4.9843464 1.2344241 1.1854922 4
4.9492922 1.2229928 1.366047 6
1.9798646 0.48373771 -0.54610825 12
2.1356387 0.52061301 -0.50748962 9
2.3579447 0.57306182 -0.47167987 8
2.6166134 0.63447654 -0.42644039 9
2.9385254 0.71090502 -0.37121406 9
3.3546269 0.80909055 -0.30190748 8
3.905021 0.93967485 -0.21049525 1
4.4313869 1.0638815 -0.079548068 4
5.1715198 1.2616379 0.092916615 7
5.1911063 1.2635343 0.27999741 1
5.1945977 1.2615036 0.46767771 4
5.1340022 1.2429959 0.64858866 6
5.1095214 1.2342373 0.83254427 4
5.0673561 1.2212443 1.0131959 5
nan nan nan nan
nan nan nan nan
1.9756742 0.46812218 -0.54403764 12
2.1430142 0.50658739 -0.50838941 9
2.3504221 0.55388439 -0.46939012 9
2.6248248 0.6170978 -0.42706612 9
2.9472823 0.69127953 -0.37170154 9
3.3485529 0.78293103 -0.30086163 5
3.923156 0.91511399 -0.21112327 3
4.4309158 1.031108 -0.079408452 4
5.1879854 1.2273446 0.093056232 10
5.2017441 1.227724 0.28010207 5
5.1935811 1.222927 0.46680617 6
5.1348248 1.2053089 0.6476137 2
nan nan nan nan
nan nan nan nan
6.684576 1.5567818 1.5845553 100
6.6236882 1.538946 1.8220862 100
1.9751285 0.45345345 -0.54300237 12
2.1559966 0.49378932 -0.51063895 10
2.3657162 0.54008365 -0.47167987 7
2.6098084 0.59437156 -0.42393744 9
2.9559078 0.67156637 -0.37218902 9
3.3539371 0.7595346 -0.30086163 5
3.9294491 0.88770282 -0.21112327 7
4.4555631 1.0041059 -0.079722598 6
5.1769357 1.186628 0.092707187 7
6.1973205 1.4171 0.33317071 2
6.9152694 1.5774591 0.6205489 53
nan nan nan nan
6.7964797 1.5416291 1.1038017 17
nan nan nan nan
nan nan nan nan
nan nan nan nan
1.9820175 0.44049162 -0.54403764 12
2.1403656 0.47450769 -0.50613987 10
2.3675115 0.52313221 -0.47129822 9
2.6100364 0.57528681 -0.42331171 9
2.9644015 0.65176636 -0.37267649 9
3.3512454 0.73497868 -0.30016437 5
3.9238431 0.85768944 -0.21049525 5
4.4644179 0.97340161 -0.079757497 3
5.169477 1.1469921 0.092427947 6
6.2187629 1.3763896 0.33379877 2
6.9202766 1.5278543 0.62002593 60
nan nan nan nan
nan nan nan nan
7.3107424 1.6006854 1.4547279 1
nan nan nan nan
nan nan nan nan
1.983156 0.42623788 -0.54352003 10
2.1474373 0.46037057 -0.50703973 10
2.3786972 0.50864589 -0.47282472 9
2.6138916 0.55750751 -0.42331171 10
2.9533458 0.62775326 -0.37072656 9
3.3621414 0.71280587 -0.30068728 4
3.9178662 0.82848155 -0.20986721 7
