# .PCD v0.7 - Point Cloud Data file format
VERSION 0.7
FIELDS x y z intensity
SIZE 4 4 4 4
TYPE F F F F
COUNT 1 1 1 1
WIDTH 1428
HEIGHT 1
VIEWPOINT 0 0 0 1 0 0 0
POINTS 1428
DATA ascii
4.0299268 11.723693 0.64969862 20
3.9944403 11.600696 1.0734102 16
10.261101 29.749788 3.8639896 49
10.287694 29.759476 4.9871311 14
10.297862 29.738457 6.1173368 38
10.319567 29.750753 7.2699685 37
10.302004 29.649973 8.4105844 19
0.84644097 2.4157028 -0.68587047 31
0.92610717 2.6386387 -0.64560956 25
1.0397471 2.9558134 -0.60906237 27
1.1547285 3.2772026 -0.55033648 26
1.3325869 3.7756696 -0.49162099 18
1.5612752 4.4162526 -0.40980628 9
1.8910199 5.3371234 -0.29674488 2
2.5027535 7.0519094 -0.1306138 16
4.1713924 11.891675 0.21997014 40
4.0990353 11.665844 0.6480239 17
4.1017485 11.654052 1.0809054 18
10.481171 29.729807 3.8705707 37
10.51174 29.750225 4.9974561 28
10.515114 29.710243 6.1261144 25
10.514022 29.65778 7.2645702 37
10.55983 29.737545 8.4556189 78
0.86025858 2.4026105 -0.68379998 31
0.94667661 2.6396117 -0.64740914 24
1.0505443 2.9228024 -0.60371965 30
1.1750001 3.2636917 -0.54939789 15
1.3535404 3.7534399 -0.48991477 13
1.5866511 4.390255 -0.4084118 20
1.8987547 5.2452512 -0.29234868 2
2.5152512 6.9369535 -0.12879875 16
4.2535954 11.866769 0.22003995 40
4.1986003 11.694063 0.651164 23
4.1688495 11.592113 1.0777678 16
10.746367 29.816509 3.8915322 37
10.724731 29.70771 5.0024619 14
10.739132 29.698904 6.1387072 39
10.767279 29.71191 7.2960629 76
10.781006 29.701237 8.4664888 58
0.88033164 2.4056168 -0.68638813 45
0.96441215 2.631108 -0.6469593 22
1.0600927 2.8859117 -0.59761381 27
1.1847966 3.2201855 -0.5434534 20
1.3604915 3.691745 -0.48309013 17
1.5993136 4.3304782 -0.4038797 20
1.9256238 5.2056437 -0.29088327 2
2.5066464 6.7654657 -0.12593657 16
4.3452744 11.861197 0.2204937 19
4.2863245 11.681344 0.65210611 20
4.3053432 11.714206 1.0918871 19
10.987883 29.832037 3.9034755 25
10.942125 29.659916 5.0071554 14
10.96322 29.669247 6.1482477 26
14.590203 39.400162 9.6998901 43
8.1020193 21.843998 6.2427154 8
0.8876316 2.3740795 -0.67914116 28
0.98343933 2.6261365 -0.64740914 38
1.0898727 2.9041729 -0.60295647 30
1.2079453 3.2136838 -0.54376626 23
1.3861746 3.6800578 -0.48284638 19
1.6252872 4.308022 -0.40283385 24
1.9520354 5.1659164 -0.28941786 2
2.5719905 6.7922382 -0.12677428 16
3.8679066 10.334191 0.19260475 1
4.350244 11.604381 0.64948928 23
4.324687 11.517857 1.0763733 20
11.191672 29.743456 3.9020131 75
11.177471 29.65859 5.0199823 29
4.1639256 11.025324 2.290853 2
4.2036815 11.112982 2.7430532 6
8.0962162 21.369591 6.1231413 24
0.90321851 2.3640578 -0.67810595 34
0.99245596 2.5935516 -0.64111054 38
1.1094172 2.8946609 -0.60257488 22
1.217453 3.1699214 -0.53782177 26
1.4068453 3.657321 -0.4811402 20
1.6553252 4.2965693 -0.40283385 24
1.9493885 5.0493383 -0.28366089 9
2.5796814 6.6715345 -0.12485451 18
4.0563436 10.611401 0.19829424 1
4.4367442 11.58228 0.65001267 20
4.4348302 11.559162 1.0831715 18
11.417561 29.712774 3.90835 75
11.413552 29.640526 5.0306201 14
11.416861 29.60289 6.1673288 39
4.0936761 10.598002 2.6229296 26
8.064827 20.835487 5.9864845 23
0.92180699 2.3630939 -0.67965883 48
0.99919176 2.5575175 -0.63391209 38
1.1272396 2.8793354 -0.60104835 26
1.2359481 3.1521494 -0.53625745 15
1.4300752 3.6397703 -0.48016527 26
1.6889446 4.2920308 -0.40353107 20
1.9743396 5.0095921 -0.28219551 9
2.569329 6.5059714 -0.12209704 18
3.7284844 9.5482941 0.17892207 1
4.5531406 11.642166 0.65514159 8
4.6106114 11.770944 1.1060064 14
11.6589 29.704227 3.9180996 12
11.634658 29.596891 5.0368776 14
4.3596616 11.067652 2.3122237 38
4.1572514 10.537621 2.6152811 40
8.0255022 20.311541 5.8518987 29
0.93154407 2.33849 -0.67448246 24
1.0275772 2.5756421 -0.64021075 43
1.1240033 2.8130562 -0.58883661 25
1.2636123 3.1560614 -0.5384475 17
1.4421521 3.5965331 -0.47577798 20
1.718125 4.2782865 -0.40335676 15
1.9900059 4.9453087 -0.27936935 4
2.5765653 6.3932838 -0.12031689 26
3.8579791 9.6799288 0.18188898 3
4.659297 11.666786 0.65838641 3
4.6185136 11.54711 1.0880523 21
13.952781 34.831547 4.6071491 15
4.4510446 11.089099 1.8925444 9
4.4419479 11.049697 2.3148949 14
4.1288242 10.255259 2.552295 44
4.1608539 10.314013 2.9800427 4
0.94994026 2.3394201 -0.67655301 40
1.0409664 2.5597446 -0.63796127 24
1.1423829 2.8035226 -0.58845496 23
1.2845149 3.1476119 -0.5384475 16
1.4554577 3.5611644 -0.47236562 27
1.7019032 4.1558661 -0.39289808 23
2.0750537 5.0595055 -0.28659174 9
2.6234689 6.3871531 -0.12052631 18
3.9554083 9.7312469 0.18335499 3
4.7305474 11.620828 0.65754902 2
4.7499042 11.650907 1.100777 19
8.9016867 21.791172 2.8902535 24
4.5349641 11.084929 1.8969245 12
4.2188892 10.296953 2.1630108 16
4.1822567 10.187255 2.542397 44
4.2122717 10.245095 2.9681368 36
0.96329224 2.325592 -0.67448246 68
1.0483576 2.5272145 -0.63166261 37
1.1513795 2.770098 -0.58311236 27
1.2905178 3.1002696 -0.53187722 17
1.4741751 3.5362575 -0.47041571 27
1.7116753 4.0979228 -0.3885403 20
2.0972202 5.0135732 -0.2848123 21
2.6509943 6.3281069 -0.11975842 15
4.1526804 10.015576 0.1892539 7
4.8996367 11.799646 0.6695863 18
4.8502464 11.663455 1.1051347 14
8.9558716 21.493948 2.859055 72
4.4547725 10.675634 1.8321607 16
4.3065696 10.305289 2.1710248 26
nan nan nan nan
4.2642646 10.169119 2.9546783 12
0.98025495 2.3205903 -0.67500007 55
1.0538262 2.4911184 -0.62446415 31
1.169158 2.7583768 -0.58234906 30
1.3105868 3.087548 -0.53125149 17
1.5104758 3.553283 -0.47407177 16
1.7325077 4.0696774 -0.38697147 22
2.1188517 4.9675779 -0.28303289 23
2.6621194 6.2322078 -0.11829241 17
4.2404132 10.028704 0.19005671 10
5.1454396 12.151378 0.69156742 18
4.9097753 11.577951 1.1002541 19
9.1119108 21.445522 2.8610051 72
4.6305075 10.88239 1.8731465 13
4.4561372 10.457394 2.2095683 22
4.5754828 10.721898 2.6913147 22
4.0389543 9.4463453 2.7527995 20
0.99490368 2.3101418 -0.6739648 42
1.0642461 2.4675961 -0.62041503 24
1.1863483 2.7467506 -0.58158582 28
1.3252976 3.0640516 -0.52874857 19
1.5289291 3.5280807 -0.47212186 13
1.7870504 4.1177974 -0.39272377 17
2.1151974 4.8669486 -0.27811331 23
2.6816137 6.1584682 -0.11724527 5
4.2990823 9.9775696 0.18963784 10
5.1220002 11.87034 0.67754138 9
5.0687633 11.724442 1.1175109 10
9.2837124 21.443113 2.8690484 8
4.6651902 10.759998 1.8575031 33
4.2943697 9.8858194 2.0950828 13
4.4745388 10.285837 2.5896366 16
4.0661254 9.3336229 2.727953 15
1.01371 2.3103924 -0.6760354 50
1.0833697 2.4656472 -0.62176478 21
1.1960033 2.7168393 -0.57700646 27
1.3450643 3.0511091 -0.52812284 17
1.5368762 3.481271 -0.4672471 20
1.8205899 4.1161537 -0.39376962 19
2.1475058 4.8484111 -0.27790397 30
2.6910362 6.066956 -0.11584908 12
4.2375674 9.6488762 0.18394837 8
5.1870561 11.794071 0.67523855 24
5.2399955 11.897534 1.1373824 6
4.7290096 10.717041 1.4383022 30
4.7066569 10.651283 1.8443626 13
4.4132004 9.9730558 2.1198881 15
nan nan nan nan
7.8414164 17.661858 5.1779337 15
1.0187755 2.2785685 -0.66878843 36
1.1053348 2.4686954 -0.62446415 25
1.2181554 2.7155886 -0.57853287 31
1.3307155 2.9623604 -0.51435655 42
1.561141 3.4704576 -0.4672471 16
1.8394585 4.0815468 -0.39167792 21
2.1788394 4.8278384 -0.27758995 28
2.707799 5.9915304 -0.11476702 22
4.2786865 9.5606489 0.18283142 7
5.3591175 11.958057 0.6867525 9
5.3555593 11.933372 1.1443549 9
4.706841 10.468315 1.4092971 27
4.7192655 10.481273 1.8205845 10
4.7393341 10.51114 2.2412426 22
4.6201282 10.227685 2.5909865 38
4.5694723 10.101446 2.9707251 50
1.0322556 2.2661266 -0.66723549 54
1.112029 2.4378698 -0.61861545 28
1.233004 2.6980898 -0.57662481 35
1.3776683 3.0104773 -0.52436841 22
1.5811963 3.4504509 -0.46602839 19
1.8630432 4.0598769 -0.39080635 19
2.1974738 4.7798452 -0.27570584 28
2.7161121 5.8998222 -0.11337084 17
4.3536191 9.5487423 0.18318045 10
5.3852329 11.794989 0.67953008 18
5.538981 12.114943 1.1654465 4
4.7376494 10.343158 1.3968666 32
4.6762013 10.194903 1.7764701 16
4.6913228 10.213756 2.1847632 24
4.3345933 9.4240875 2.3948293 26
4.6358352 10.060529 2.9681368 14
1.0431716 2.2483509 -0.66412973 46
1.1331257 2.4388838 -0.62086499 42
1.2496833 2.6860752 -0.57586157 28
1.3939555 2.9920778 -0.52280408 27
1.6153213 3.4609139 -0.46895328 23
1.8837485 4.0305262 -0.38923752 21
2.2054045 4.7123179 -0.27267036 24
2.7436492 5.8517489 -0.11281236 15
4.3646345 9.4027996 0.18094654 14
5.4771805 11.783417 0.68099552 12
4.9379482 10.603958 1.0233827 20
4.8129768 10.321465 1.398329 30
4.7011919 10.067975 1.7598881 18
4.8473706 10.362139 2.2236881 14
4.6350546 9.8947744 2.5226014 28
7.7528439 16.528004 4.8916802 13
1.0667024 2.2586658 -0.6693061 38
1.1538672 2.4399221 -0.62311447 38
1.2734498 2.6879299 -0.57815129 41
1.4088848 2.9697793 -0.52061397 26
1.6402942 3.4513462 -0.46919701 13
1.9118391 4.0172782 -0.38923752 17
2.233094 4.6859884 -0.27204233 20
2.7086215 5.6736474 -0.10974073 16
4.4088035 9.3269053 0.18007393 10
5.6823511 12.004848 0.69606829 12
5.0612087 10.678127 1.0338414 15
4.8806596 10.278646 1.3971103 3
4.7119875 9.9100294 1.7379872 12
3.6379797 7.6374741 1.6443919 5
4.784555 10.031031 2.5657918 18
4.4135923 9.2408371 2.7439995 40
1.0811628 2.247493 -0.66827077 40
1.1679145 2.4245801 -0.62131482 30
1.2819489 2.6577544 -0.57357186 40
1.4215056 2.9418354 -0.51748526 26
1.6427358 3.3951371 -0.46310353 17
1.9215972 3.9661787 -0.38557699 18
2.2412782 4.6177816 -0.26900685 22
2.728935 5.6150317 -0.10897283 9
4.4954896 9.3409452 0.18094654 12
5.8383689 12.109605 0.70454675 3
5.0049601 10.367118 1.0071718 5
4.9505663 10.240749 1.3966229 17
5.0970416 10.524979 1.8521842 13
4.744863 9.7846956 2.1137822 22
4.9251189 10.142884 2.6031337 22
4.406086 9.0578794 2.6989651 15
1.0866306 2.2190709 -0.66205913 40
1.1822377 2.4111187 -0.61996514 31
1.2992034 2.6449885 -0.57280862 23
1.4454962 2.9389303 -0.51873678 30
1.6628902 3.3764625 -0.46212861 17
1.9272093 3.9079933 -0.38121921 20
2.272577 4.6002316 -0.26890215 18
2.6430533 5.3431163 -0.10405125 9
4.5155735 9.2133684 0.17909659 10
5.040204 10.27019 0.59956074 5
5.1149988 10.408813 1.0146672 1
nan nan nan nan
3.5555205 7.2130542 1.2736895 14
3.5478811 7.1880646 1.5581464 32
4.5666847 9.2399845 2.3795323 50
4.4717865 9.032093 2.7005181 9
1.0986495 2.2045145 -0.65998858 68
1.1851197 2.3749075 -0.61276674 28
1.3127882 2.6273036 -0.57090056 30
1.4610467 2.9201906 -0.5171724 28
1.6801955 3.3523486 -0.4604224 19
1.949977 3.8855405 -0.38034767 30
2.2975597 4.5721636 -0.26816946 27
2.7657077 5.4942188 -0.10736721 19
4.4122224 8.849555 0.17260429 13
5.1545997 10.324992 0.60479438 20
5.1706142 10.338991 1.0113552 13
5.2263994 10.436874 1.4331836 34
4.8202147 9.6131678 1.7032586 16
nan nan nan nan
4.8683653 9.679678 2.501456 18
5.4029469 10.728579 3.2186739 2
1.1145031 2.1987085 -0.66050619 70
1.1977309 2.359834 -0.6109671 28
1.3337677 2.6233246 -0.57204539 31
1.4643704 2.8764722 -0.51122791 27
1.7029737 3.3408346 -0.4604224 19
1.9625568 3.8434424 -0.37755868 24
2.3166921 4.531117 -0.26670405 27
2.8066843 5.4823875 -0.10750683 14
4.4368029 8.7454195 0.1711732 13
5.1686645 10.174791 0.59809536 17
5.224606 10.271593 1.0082177 5
nan nan nan nan
5.1807656 10.154673 1.8055668 12
3.7118502 7.2660928 1.5860044 40
3.6264133 7.0866313 1.8378502 12
4.9993668 9.7570162 2.9375963 2
1.1209714 2.1737041 -0.65532982 42
1.2257985 2.3739252 -0.61681581 38
1.342129 2.5947669 -0.56784761 32
1.497136 2.8907354 -0.51560807 18
1.714377 3.3059545 -0.45725381 23
1.9865857 3.8243427 -0.37703574 24
2.336288 4.4917984 -0.26534331 13
2.8301115 5.4342823 -0.10694835 16
4.4133701 8.5507507 0.16796197 11
5.2322359 10.124265 0.59725797 17
5.1258745 9.9057388 0.97579563 1
5.0198956 9.6843653 1.3393443 16
5.0222111 9.6764288 1.7267238 6
3.7344182 7.1859994 1.5741742 15
4.9652529 9.5381584 2.4825599 30
5.032537 9.6550646 2.9174082 30
1.1325297 2.1589825 -0.65325934 30
1.2369049 2.3549581 -0.61411637 34
1.3556392 2.5766473 -0.56593949 36
1.5080724 2.8627365 -0.51247936 16
1.7198173 3.2605457 -0.45262277 30
2.0002077 3.7857172 -0.37459537 18
2.3545165 4.4506617 -0.26387793 13
2.8136938 5.3118982 -0.10492387 16
4.3558321 8.296648 0.16356395 8
5.2237911 9.9372234 0.58836091 17
5.3702908 10.202936 1.0087405 41
3.5829244 6.7956233 0.94326878 31
5.0140219 9.4978867 1.7010686 1
3.5743983 6.762279 1.4867837 7
3.6794083 6.9491978 1.8153552 17
5.1803484 9.7716074 2.9634783 6
1.1430271 2.1425014 -0.65067112 33
1.2450507 2.3307962 -0.61006731 39
1.3569226 2.5359619 -0.55907035 25
1.52429 2.8451736 -0.51122791 23
1.7500452 3.262454 -0.45457271 26
2.0397887 3.7962327 -0.37703574 16
2.3893135 4.4411521 -0.26429659 6
2.8127732 5.2217059 -0.10352767 18
4.409884 8.2589788 0.16342433 11
5.2713852 9.8599987 0.58595341 8
3.7178633 6.945425 0.68922758 7
5.3506756 9.9789705 1.3902856 14
5.1222548 9.5409689 1.7151477 1
nan nan nan nan
3.6982691 6.8684344 1.8009583 23
5.2576079 9.7522078 2.9686544 2
1.1533507 2.1259792 -0.64808291 30
1.2640829 2.3271849 -0.611417 33
1.3811619 2.5384986 -0.56174171 29
1.5318308 2.8119118 -0.5071606 26
1.7718283 3.2484143 -0.45432895 22
2.0292931 3.7158129 -0.37041187 16
2.4010899 4.3893185 -0.26220316 13
2.8616469 5.2247424 -0.10398144 22
4.5027394 8.2930136 0.16471581 14
5.5661736 10.238828 0.61076069 8
3.7386377 6.8685517 0.68417257 10
3.7107165 6.8059359 0.95179963 13
3.9024386 7.1486721 1.2899587 17
nan nan nan nan
3.6420269 6.6550579 1.751469 31
5.3004909 9.6695261 2.9546783 30
1.1821613 2.1432488 -0.65584749 29
1.2708791 2.3012435 -0.60691798 43
1.3860589 2.5067031 -0.5567807 30
1.540411 2.7824094 -0.50371903 23
1.7963871 3.2394383 -0.45481643 19
2.0542178 3.6998134 -0.37023759 20
2.4163551 4.3466883 -0.26063308 14
2.9087541 5.2238555 -0.10436539 20
3.9571924 7.1714058 0.14297011 6
5.6154504 10.163993 0.60856253 8
5.358016 9.6820498 0.968126 21
3.8098722 6.8760209 0.96520531 6
5.5005541 9.9150991 1.7958679 24
3.6046159 6.4868708 1.4425161 1
3.7016635 6.6533108 1.7577677 34
nan nan nan nan
1.1910543 2.1250417 -0.65274167 31
1.2779295 2.2772453 -0.60286885 31
1.3881335 2.4695828 -0.5506748 25
1.5568919 2.7664232 -0.50278044 22
1.8154737 3.2219462 -0.4540852 30
2.0702047 3.6680312 -0.36849448 18
2.4407463 4.3192801 -0.26000506 10
2.9442444 5.2039351 -0.10436539 22
4.0619512 7.2412696 0.14492479 6
4.0783925 7.2616663 0.43648189 2
5.8378549 10.381694 1.042034 11
3.8441405 6.8250422 0.96179295 8
4.0229464 7.1337628 1.2971548 5
4.0724335 7.2126889 1.6100464 21
3.6703181 6.4899082 1.7213256 17
5.2210402 9.2206469 2.8392451 27
1.2087297 2.1217105 -0.65429455 50
1.2841414 2.2513409 -0.59836984 36
1.4228698 2.4905162 -0.55754393 27
1.585974 2.772634 -0.50590914 25
1.8221368 3.181633 -0.45018539 22
2.1007187 3.6621304 -0.36936605 18
2.4390106 4.2467132 -0.25665554 14
2.9476078 5.1260471 -0.10321353 22
4.0797195 7.1554074 0.14377292 16
5.6924596 9.9718494 0.60175884 2
5.5532856 9.7162304 0.97910756 31
5.5515375 9.6974525 1.3720052 1
3.9007504 6.805583 1.2424027 29
nan nan nan nan
3.7679746 6.5553627 1.7456203 31
5.27179 9.1605339 2.8319981 19
1.2206097 2.1082041 -0.65274167 49
1.3144882 2.2676096 -0.60511833 30
1.4244497 2.453357 -0.55143803 36
1.6221689 2.7905269 -0.51122791 16
1.8383132 3.1585405 -0.44872296 34
2.0961297 3.5957379 -0.36413667 24
2.4545023 4.2054343 -0.25519016 14
2.9772668 5.094986 -0.10300411 24
4.1085172 7.0904188 0.14303991 27
4.1573315 7.1660104 0.43417913 8
4.1279211 7.10674 0.71903485 8
2.5614889 4.402844 0.62543356 15
3.8775752 6.6569929 1.220189 36
3.7553725 6.4394412 1.4490036 21
3.9561713 6.7728877 1.8108561 23
5.4467978 9.313612 2.8910089 17
1.2303989 2.0913064 -0.65015346 43
1.3441329 2.2818856 -0.611417 24
1.4565066 2.4687159 -0.55716228 20
1.6004212 2.7093995 -0.49840027 21
1.8633521 3.1507547 -0.44945419 27
2.1120429 3.5655887 -0.3625679 20
2.4766705 4.1761708 -0.25445744 4
3.0117428 5.0723572 -0.10296919 20
4.122406 7.0012527 0.14181826 21
4.1433582 7.0284176 0.4275848 14
2.5682364 4.3513141 0.44205391 12
2.5951924 4.3899813 0.62616473 13
5.4854841 9.2680674 1.7057616 12
4.0744667 6.8758502 1.5535669 11
3.9307513 6.6227703 1.7780132 55
3.8478184 6.4753137 2.018271 23
1.2439779 2.0810077 -0.64963585 48
1.3450192 2.2473638 -0.6046685 13
1.4807719 2.4702749 -0.55983365 32
1.6243787 2.7066302 -0.49996459 28
1.8525847 3.0832202 -0.44165453 17
2.1296926 3.5388074 -0.36134771 29
2.4882441 4.1296949 -0.25267801 6
3.0202279 5.0066867 -0.10206167 20
4.1177993 6.8830676 0.1400032 29
4.2405596 7.0798507 0.43250436 2
2.4858384 4.1453209 0.42287967 10
2.544009 4.2356181 0.60666561 16
5.5439458 9.219389 1.7038844 10
4.035285 6.7025895 1.5207478 28
3.9034283 6.4733453 1.7451704 34
5.2388287 8.6776619 2.716047 13
1.2534617 2.0640161 -0.64704764 38
1.3414403 2.2062819 -0.5961203 28
1.4898125 2.4464626 -0.5567807 21
1.6494048 2.7053437 -0.50184184 30
1.8740646 3.0702114 -0.44165453 28
2.1429145 3.5051539 -0.35943025 29
2.4972017 4.0798583 -0.25068927 21
3.0415251 4.963315 -0.10160792 22
4.1854811 6.8866224 0.1406664 30
2.6443205 4.3457255 0.26659939 17
2.3882563 3.9202812 0.40161365 20
2.5342271 4.1533618 0.59740359 13
6.2239819 10.188523 1.89098 4
4.0614929 6.6407576 1.5131154 19
3.9352925 6.4243336 1.7393217 46
4.23983 6.9133601 2.1730449 33
1.271897 2.0617926 -0.64911819 29
1.3844576 2.2416301 -0.60826772 32
1.4779375 2.3892522 -0.54609537 23
1.663051 2.6853657 -0.50027746 33
1.913236 3.0857344 -0.4457981 22
2.1688254 3.4938722 -0.35977891 26
2.501369 4.023313 -0.24828181 14
3.0644748 4.9232869 -0.10122395 18
4.2250562 6.8436198 0.14038716 16
2.4939785 4.0349441 0.2485958 13
2.3453221 3.7899985 0.38993478 23
2.525512 4.0748262 0.58862901 10
4.2629495 6.87008 1.2805728 26
3.9896536 6.4221268 1.4696109 49
4.020102 6.4635873 1.7573178 17
4.2828832 6.8753929 2.1704566 9
1.2780552 2.0397658 -0.64497709 33
1.3897188 2.2154012 -0.60376865 20
1.4764159 2.350873 -0.53960788 20
1.6781369 2.6689665 -0.49933887 30
1.9283835 3.0622244 -0.44433567 26
2.1899748 3.4735904 -0.35925597 22
2.5244305 3.9994385 -0.2478631 14
3.094497 4.8950119 -0.10108434 24
2.6540463 4.2341986 0.087227128 8
2.426898 3.8673112 0.23928 13
2.3738446 3.7769067 0.39028341 18
2.5933659 4.1213851 0.59789103 23
4.2938209 6.8158331 1.2758796 40
3.9285786 6.2264209 1.4310676 15
4.0339036 6.3859396 1.7438207 40
5.7318196 9.0633421 2.873409 19
1.2877616 2.0244997 -0.64290655 33
1.405812 2.2075348 -0.60421854 31
1.5191852 2.3818893 -0.54914832 18
1.6935395 2.6521912 -0.49840027 20
1.9555995 3.0590618 -0.4457981 16
2.1873152 3.4162674 -0.35489815 19
2.5393584 3.9615388 -0.24660707 16
3.1201844 4.8620539 -0.10084001 18
2.4773633 3.8916814 0.080525406 12
2.420562 3.7980611 0.23603518 10
2.3469844 3.6783612 0.38174215 22
2.5771787 4.0329266 0.58765399 26
3.8963077 6.0901504 1.1451004 8
4.2694755 6.6657424 1.5386838 73
4.1078491 6.4035497 1.756418 23
6.0329742 9.3937187 2.9914308 8
1.3029119 2.0170827 -0.64342415 35
1.4095488 2.1796663 -0.59926963 36
1.5400447 2.3778174 -0.5506748 23
1.7044898 2.6287022 -0.49621019 25
1.9455614 2.9970496 -0.43872967 16
2.2045963 3.3908918 -0.35385233 15
2.5364463 3.8968446 -0.24367623 14
2.6594913 4.0812087 -0.085028127 1
2.5077305 3.8793283 0.080630124 12
2.4068694 3.7190287 0.23216233 16
2.3346903 3.6033621 0.37564126 18
2.536114 3.9082625 0.57205474 12
6.5796165 10.127859 1.9128809 60
4.319119 6.6407118 1.5398288 10
4.1492634 6.3698163 1.7550683 31
5.7543893 8.8238487 2.8226805 38
1.3222595 2.0160143 -0.64601237 40
1.4215227 2.1648858 -0.59791994 25
1.5468988 2.3522449 -0.5472402 20
1.7434391 2.6480865 -0.50215465 20
1.9686224 2.9867089 -0.43921715 16
2.2265272 3.374145 -0.35367799 22
2.5448694 3.8507156 -0.24189681 12
2.5930252 3.9191194 -0.08202631 12
2.4875669 3.7898428 0.079129212 11
2.43716 3.7088127 0.23258102 15
2.360883 3.5886405 0.37581557 30
2.5458641 3.8639383 0.56815493 27
6.3086309 9.5639057 1.81464 19
4.1143818 6.2303171 1.4512933 13
4.2236924 6.3885679 1.7681154 23
5.8147802 8.7818527 2.8221629 14
1.3298773 1.9970865 -0.64290655 27
1.4117396 2.1176157 -0.58757222 29
1.5563352 2.3318634 -0.54495054 28
1.7570338 2.6295881 -0.50090319 20
2.0026739 2.9926898 -0.44214204 15
2.2478127 3.3552074 -0.35332939 14
2.5320835 3.7752488 -0.23823328 14
2.5322332 3.7697847 -0.079268835 17
2.3835943 3.5781069 0.075045347 21
2.3725872 3.5575459 0.22410259 12
2.3781326 3.5604737 0.37459537 23
2.5136223 3.7590625 0.55523676 20
4.0087619 5.9882207 1.141346 10
4.2146287 6.2862363 1.4711374 16
4.1856499 6.2359533 1.7339228 46
6.2364597 9.2808304 2.9960892 11
1.3358684 1.9767835 -0.63928306 35
1.4512365 2.1450803 -0.59791994 24
1.5703741 2.3176906 -0.54418731 23
1.7664777 2.6041794 -0.49840027 22
2.0308044 2.9904842 -0.44384819 13
2.2633386 3.3279004 -0.35210916 15
2.5550056 3.7525265 -0.23791927 20
2.5544577 3.7475026 -0.079164118 9
2.4981351 3.6938956 0.077837728 12
2.3940065 3.5359335 0.22378856 30
2.365423 3.4897792 0.36884311 17
2.4907479 3.6691566 0.54451227 17
4.0649042 5.981328 1.1454133 5
4.1148539 6.0480127 1.4219086 23
4.2005496 6.164711 1.7222253 31
6.2825894 9.209938 2.9872897 38
1.3430786 1.9578516 -0.63617724 35
1.4628661 2.1300781 -0.59657025 37
1.5887415 2.309906 -0.54495054 36
1.7610893 2.5576169 -0.49182999 28
2.0414927 2.9615242 -0.44165453 15
2.2808554 3.3038213 -0.35123762 10
2.5629702 3.7083111 -0.23624454 20
2.6522384 3.8331788 -0.081363119 3
2.4740644 3.6038272 0.076301925 15
2.384696 3.4697547 0.22064841 23
2.3705297 3.4452765 0.36587983 23
2.5500953 3.7007151 0.55182445 15
3.2305126 4.6828918 0.90106261 1
4.3589158 6.3115315 1.4909816 18
4.5383568 6.5615606 1.8418994 21
6.197166 8.9498491 2.9168906 40
1.3567152 1.9484268 -0.63617724 36
1.4687867 2.1070235 -0.59297103 36
1.5913419 2.2794416 -0.54037106 34
1.7766374 2.5420225 -0.49120426 25
2.0461845 2.9244299 -0.4382422 19
2.2735693 3.2457917 -0.34670553 9
2.5830615 3.6821523 -0.23572117 24
3.260462 4.6426139 -0.099024951 10
2.5117393 3.6045144 0.076685868 13
2.3860068 3.4202607 0.21855497 34
2.3671451 3.3894398 0.3616963 18
2.5292192 3.6161284 0.54183114 12
2.9877985 4.2670197 0.82503545 6
4.3296194 6.1764541 1.4661764 10
4.6030645 6.5592299 1.8499975 51
7.5525012 10.746117 3.5194216 23
1.3725146 1.9420629 -0.63721251 35
1.4823352 2.0951271 -0.59252113 33
1.6215737 2.2893832 -0.54533213 25
1.8053267 2.5459836 -0.49433297 25
2.040117 2.8728471 -0.4326362 19
2.3054109 3.2428298 -0.34810004 9
2.5652153 3.6042781 -0.23184831 20
2.8540642 4.0042071 -0.085830934 5
2.4681048 3.4909976 0.07462649 26
2.3746157 3.3550344 0.21541482 23
2.3723137 3.3468249 0.35890734 25
2.5526245 3.5972111 0.54158741 20
3.0751193 4.3287134 0.8409918 16
4.5285549 6.3652363 1.518458 24
4.5130801 6.3364592 1.7960093 29
6.2885718 8.8195114 2.9023969 14
1.3823242 1.9279662 -0.63565958 31
1.5011064 2.0913219 -0.59432071 34
1.6191815 2.2525017 -0.53922629 37
1.81498 2.5220942 -0.49214289 26
2.0636055 2.8633657 -0.43336743 23
2.3081763 3.1991882 -0.34513673 13
2.6043487 3.6057105 -0.23310436 24
2.6522372 3.6666167 -0.078989588 6
2.4527822 3.4184401 0.073439725 23
2.3805034 3.3140409 0.21384473 33
2.374104 3.3014824 0.35576975 18
2.6089973 3.6227958 0.54816836 12
3.0971756 4.2959242 0.83880174 13
4.3292408 5.9960213 1.4375551 5
4.6531005 6.4374638 1.8338012 27
6.3103518 8.7206144 2.8842795 17
1.3915375 1.9117775 -0.63358909 45
1.5137378 2.0773766 -0.59342092 30
1.6510656 2.2633479 -0.5445689 27
1.8353119 2.5122321 -0.49276862 26
2.0741704 2.8360708 -0.43141752 15
2.3198614 3.1685278 -0.34356794 17
2.6619709 3.63047 -0.23593052 14
2.8280473 3.8527379 -0.083422504 10
2.5307319 3.475596 0.075045347 8
2.3959203 3.2856255 0.21311203 30
2.4058914 3.2956736 0.35698992 32
2.5475521 3.4858916 0.5301317 27
2.9201701 3.9899099 0.78311098 13
nan nan nan nan
7.6496887 10.429052 2.9860003 21
nan nan nan nan
1.387634 1.8787071 -0.62582451 22
1.5270452 2.0651913 -0.59297103 31
1.671893 2.2577863 -0.54609537 24
1.8398646 2.4819031 -0.48932707 18
2.0761731 2.7976108 -0.42776144 13
2.3241012 3.1282666 -0.34095326 17
2.6562538 3.5701354 -0.23320904 31
2.8907106 3.8810124 -0.084469646 15
2.4818449 3.3576944 0.072881252 30
2.3962276 3.2383144 0.21112327 9
2.3932621 3.2307677 0.35176057 30
2.6303852 3.5456924 0.54207492 17
2.8596232 3.8504848 0.75964588 15
4.7276349 6.3588061 1.5402104 23
4.9624348 6.667326 1.9188327 4
3.5570836 4.7721982 1.594843 15
1.3705939 1.8287802 -0.6123659 54
1.5402571 2.0529208 -0.59252113 34
1.6789702 2.2353644 -0.54342401 39
1.8436581 2.4519539 -0.4858855 33
2.102818 2.792563 -0.42922387 20
2.3374887 3.1008279 -0.33973309 16
2.6468053 3.5073345 -0.23027822 16
2.5934067 3.4315901 -0.075080253 16
2.444664 3.2607262 0.071136013 12
2.4026272 3.2011638 0.20976254 27
2.404983 3.1996477 0.35019177 13
2.5768764 3.4246044 0.52623188 12
2.8928955 3.8403986 0.76152301 10
4.9220691 6.5246935 1.5886757 37
4.6800256 6.1970892 1.79286 19
3.5836618 4.740169 1.5922549 1
1.3830094 1.8194091 -0.6123659 40
1.5482937 2.0346358 -0.59027159 21
1.6957239 2.2251506 -0.54380566 43
1.8355685 2.4060428 -0.47931525 23
2.0988853 2.7482102 -0.42459282 19
2.3324521 3.0496159 -0.33589822 13
2.6493726 3.4602251 -0.22839414 22
2.5072207 3.2710178 -0.07193882 12
2.429836 3.1942432 0.070053965 31
2.3777239 3.1223431 0.20568034 16
2.4556983 3.2212296 0.35437521 23
2.5212188 3.3023942 0.51014513 25
2.9652181 3.8797493 0.77341211 10
4.7671371 6.2306514 1.5249456 12
nan nan nan nan
nan nan nan nan
1.4086542 1.8265375 -0.61805987 33
1.556505 2.0160654 -0.58802211 34
1.6956061 2.1930671 -0.53884465 29
1.8825483 2.4322226 -0.48713696 25
2.119236 2.7350593 -0.42483655 20
2.3549056 3.0348334 -0.33607253 14
2.6955175 3.4700372 -0.23027822 9
2.6797562 3.4460211 -0.076197207 8
2.4887314 3.2246926 0.071101107 30
2.451973 3.1736274 0.21018122 16
2.4269297 3.1378162 0.34705415 21
2.515038 3.2470467 0.50429535 30
2.9559181 3.8121219 0.76402605 27
4.8225598 6.2127242 1.5287617 39
nan nan nan nan
7.2586484 9.3275089 3.1669102 1
1.4332761 1.8318738 -0.6232363 26
1.5729461 2.0082171 -0.5889219 38
1.7205685 2.1935339 -0.54189759 32
1.8982627 2.4174669 -0.48682413 23
2.1260109 2.7045913 -0.42239916 20
2.356317 2.9932706 -0.33328354 26
2.7147326 3.4448595 -0.22985955 18
2.5278747 3.204294 -0.071240723 19
2.5148816 3.2119629 0.071205825 11
2.4112318 3.0762637 0.20484295 10
2.4020393 3.0612335 0.34043032 21
2.5879323 3.2934046 0.51428866 18
2.9849021 3.7944977 0.76465172 28
5.0735149 6.4426603 1.5940183 10
7.3742666 9.3508587 2.749352 4
7.2433867 9.1750154 3.1322281 1
1.4364225 1.8097171 -0.61909521 38
1.5917771 2.0032899 -0.59072149 38
1.7395067 2.1860783 -0.54304242 37
1.8806307 2.3608942 -0.47806379 17
2.13989 2.6834748 -0.42142424 22
2.3784001 2.9783046 -0.33345786 17
2.7050433 3.3837025 -0.22703341 20
2.8912907 3.612797 -0.08076974 14
2.4999311 3.1473515 0.070158668 23
2.452538 3.0843675 0.2065177 6
2.3824048 2.9929485 0.33467805 10
2.5861144 3.2442122 0.5094139 22
2.9977667 3.7565825 0.7612102 13
nan nan nan nan
7.3638911 9.2048025 2.721458 2
7.2686205 9.0759706 3.1156638 5
1.4502332 1.8011494 -0.61961281 48
1.5983862 1.9830251 -0.58802211 30
1.7460951 2.1631866 -0.54037106 45
1.899551 2.3507793 -0.47868952 22
2.1648142 2.6761868 -0.42264292 23
2.3828294 2.9415026 -0.33119181 17
2.7109869 3.3430188 -0.22556801 28
2.8660283 3.5304232 -0.079373546 6
2.4904754 3.0908952 0.069286056 14
2.608181 3.2335112 0.2177176 11
2.4858513 3.0785525 0.34618258 10
2.6037073 3.2199044 0.50843894 21
2.9866333 3.6895013 0.75182414 12
5.0999365 6.2934046 1.574556 16
3.5893476 4.4229975 1.315064 7
7.3634763 9.0639896 3.1291223 9
1.4749918 1.805944 -0.62478918 34
1.6023223 1.9597493 -0.58442289 38
1.773592 2.1661339 -0.54418731 46
1.9121596 2.3328774 -0.47775093 26
2.1607795 2.6333854 -0.41825563 16
2.4096329 2.9324913 -0.33206338 13
2.7228415 3.3101273 -0.22462595 18
2.8346746 3.4424067 -0.077837728 19
2.4892144 3.0455632 0.068657771 14
2.4308598 2.9709902 0.20117943 25
2.518647 3.0749941 0.34775141 16
2.5883536 3.1556051 0.50112677 23
2.9884984 3.6395557 0.74587959 16
5.2696586 6.4108295 1.6130993 7
7.4471073 9.0469255 2.7052617 24
7.4228897 9.0078897 3.1275694 28
1.4838665 1.7911398 -0.6232363 45
1.615965 1.9485153 -0.58442289 33
1.7711097 2.1325557 -0.53884465 40
1.9296615 2.320991 -0.47806379 23
2.1651413 2.6014538 -0.41557449 12
2.4116817 2.8945925 -0.32962301 16
2.7561202 3.3033061 -0.22546332 13
2.7278845 3.2659864 -0.074277438 15
2.5601916 3.0881488 0.070019051 11
2.4196556 2.9155233 0.19856264 12
2.5642443 3.0864534 0.35106334 11
2.6344435 3.1664522 0.50575781 27
2.9480965 3.539674 0.72961038 15
7.5659781 9.0745249 2.2965772 31
7.5322404 9.0244503 2.7138095 16
7.4186897 8.8758106 3.099617 33
1.487635 1.7703835 -0.61961281 24
1.6232575 1.929729 -0.58217335 29
1.7767334 2.1099377 -0.53617334 43
1.9530553 2.3168635 -0.47994098 22
2.1934941 2.5984099 -0.4175244 13
2.4202571 2.8639894 -0.32805422 14
2.7450013 3.2448251 -0.22274184 18
2.7170098 3.2071934 -0.073369913 24
2.5103822 2.9864612 0.06809929 23
2.4741642 2.9402483 0.20138879 20
2.5099788 2.9785862 0.34077895 9
2.6725755 3.1681714 0.50892639 17
3.0103571 3.5648022 0.73899657 13
7.6392879 9.0334768 2.2996302 44
7.6731257 9.0638599 2.7417037 38
7.395256 8.7263594 3.0649354 20
1.5096741 1.7719808 -0.62375391 19
1.6401479 1.923084 -0.58352309 33
1.7773938 2.0810616 -0.53197551 23
1.9473587 2.2776492 -0.47462222 36
2.2175841 2.5909598 -0.4187431 8
2.4124725 2.815676 -0.32439366 15
2.7597859 3.2164865 -0.22211383 19
2.5811236 3.0050733 -0.069146432 15
2.4624095 2.8882117 0.066249333 24
2.4440637 2.8636553 0.19730657 15
2.5754931 3.0144506 0.34687987 10
2.6907566 3.1449111 0.50819516 26
3.0415957 3.5512004 0.74056083 12
7.7376547 9.0244932 2.3106971 31
3.6388595 4.2395396 1.2898694 15
7.3879981 8.5954046 3.0369828 41
1.5156926 1.7540892 -0.62116575 12
1.6446095 1.9012698 -0.58037376 28
1.8017993 2.0807881 -0.53502846 28
1.9589354 2.2598631 -0.47368363 45
2.2265093 2.5649211 -0.41703692 11
2.4294572 2.7957573 -0.32404503 15
2.7619514 3.1750243 -0.22054374 15
2.6191156 3.006582 -0.069600195 16
2.4937813 2.8849995 0.06656348 27
2.4896376 2.8771594 0.19940001 15
2.4920943 2.8759387 0.33293492 13
2.6873863 3.0980318 0.50356412 15
3.2029867 3.6885149 0.77372491 15
nan nan nan nan
3.6875615 4.2360802 1.296618 5
7.3701825 8.457531 3.0059245 18
1.5164415 1.7303898 -0.61650699 15
1.6475606 1.8780235 -0.57677454 27
1.8101643 2.060467 -0.53312039 30
1.9946244 2.2680376 -0.47837666 17
2.2207506 2.5224957 -0.41264963 12
2.4475985 2.7772334 -0.32387072 13
2.8057463 3.1791387 -0.2222185 17
2.6215045 2.9672449 -0.069111533 20
2.4813998 2.8294942 0.06569086 22
nan nan nan nan
2.5252638 2.8734365 0.33467805 23
2.674077 3.038487 0.4969832 21
3.1431153 3.5676749 0.7530756 25
7.999258 9.0701809 2.3507669 2
3.8898726 4.4059877 1.3569047 1
2.8688145 3.2448881 1.1605446 28
1.5310525 1.722648 -0.61754227 17
1.6761765 1.8839456 -0.58217335 23
1.8306763 2.0554283 -0.53502846 39
2.0021288 2.2455616 -0.47649944 18
2.2171519 2.4832392 -0.40874982 13
2.4695821 2.7630508 -0.32421938 12
2.8433037 3.1778266 -0.22347455 22
2.5647593 2.8624897 -0.067087047 28
2.503258 2.8155282 0.065760665 24
2.4578609 2.761555 0.19374773 7
2.532006 2.840863 0.33293492 14
2.6629796 2.9846654 0.49113351 26
3.1515362 3.5285184 0.74932122 10
9.1094437 10.184783 2.6560614 2
8.6405172 9.6503286 2.9904995 2
3.0442739 3.396476 1.2221435 39
1.5414487 1.7107522 -0.6170246 18
1.6863501 1.8695992 -0.58127356 37
1.8226099 2.0178299 -0.52854097 30
2.0005338 2.2124815 -0.47243217 32
2.2286761 2.4622021 -0.40777487 16
2.4807842 2.7368839 -0.32317349 16
2.8573658 3.1490262 -0.22284654 18
2.5909069 2.8523667 -0.067261577 19
2.5938251 2.8766954 0.067610621 10
2.5306113 2.803632 0.1979346 6
2.4885042 2.7540817 0.32474229 23
2.7769823 3.0690403 0.50819516 13
5.1626401 5.6995988 1.2179989 3
8.775013 9.6775017 2.5392861 2
2.9881473 3.290848 1.0262268 16
7.5235953 8.2770281 2.9971247 24
1.5507481 1.6970967 -0.61598933 23
1.6967306 1.854905 -0.58037376 36
1.8339994 2.002162 -0.52777767 37
2.0172651 2.199918 -0.472745 20
2.2552071 2.4568207 -0.40948102 13
2.4971342 2.7165647 -0.32282487 15
2.8508797 3.0981374 -0.22064841 8
2.5741765 2.794498 -0.066319145 34
2.5787613 2.8201468 0.066703096 12
2.5703511 2.8079956 0.19950469 8
2.523823 2.7542691 0.32683402 16
2.6976807 2.9398813 0.48991477 31
5.0112138 5.4553838 1.1732587 1
3.1029341 3.3744156 0.89107805 2
3.1852963 3.4591339 1.0856138 30
3.2249541 3.4985235 1.2749426 16
1.5625591 1.6862284 -0.61598933 28
1.7043386 1.8372988 -0.57857412 23
1.8559495 1.9979401 -0.53006744 41
1.9962542 2.1467235 -0.46429756 21
2.256073 2.4235809 -0.40655616 15
2.5046999 2.6878445 -0.32143039 21
2.8560882 3.0606365 -0.21939236 19
2.6427655 2.8290653 -0.067575715 16
2.6310184 2.8372667 0.06754081 12
2.6945188 2.9026957 0.20756441 10
2.5158637 2.7073934 0.32334781 25
2.6654007 2.8642993 0.480409 14
4.9522333 5.3161969 1.150732 12
3.2710214 3.5077405 0.93229276 6
7.4467893 7.977325 2.5194521 14
3.2888775 3.5182617 1.2904718 12
1.5729693 1.6738714 -0.61547172 26
1.7024353 1.8097429 -0.57362527 27
1.8681601 1.9838313 -0.5296858 39
2.0081103 2.1302111 -0.46367183 10
2.2715762 2.4063268 -0.40631241 13
2.520668 2.6673956 -0.32108176 28
2.8315606 2.9932444 -0.21593818 21
2.8398554 2.9978206 -0.072078437 19
2.5722001 2.7362435 0.065551244 15
2.504797 2.6617477 0.19154961 16
2.5306041 2.6854134 0.32282487 14
2.6235368 2.7811124 0.46944076 16
4.9598207 5.2522068 1.1441618 7
nan nan nan nan
3.358619 3.5479164 1.1279047 26
3.0310392 3.198518 1.1807325 1
1.5789968 1.657531 -0.61340117 30
1.709335 1.7924715 -0.57182562 27
1.8697616 1.9579622 -0.52625126 29
2.017473 2.1104281 -0.46242031 11
2.2769222 2.3793364 -0.4043625 19
2.5378497 2.6482942 -0.32090744 21
2.9035466 3.0267317 -0.21981104 36
2.8449607 2.962554 -0.071694486 13
2.5539856 2.6791396 0.064608812 28
2.5081511 2.6283021 0.19039823 37
2.5598361 2.6796501 0.32421938 11
2.6181889 2.7369089 0.46505347 14
4.9635773 5.1832113 1.1366529 14
3.9766378 4.1482511 1.1169959 9
nan nan nan nan
3.2072303 3.3374684 1.240261 16
1.5865026 1.6422995 -0.61184824 31
1.7285796 1.7874997 -0.5740751 37
1.8820192 1.9434507 -0.52586961 14
2.0239079 2.0877824 -0.46054313 10
2.285183 2.3548348 -0.4029001 13
2.5382242 2.6119382 -0.31864139 13
2.8744686 2.9548507 -0.21604285 40
2.8446457 2.9211321 -0.071170911 19
2.8756161 2.9746695 0.072218053 12
2.5542173 2.6394329 0.19249167 27
2.6713605 2.7575936 0.33589822 7
2.6178827 2.6986151 0.4616411 15
3.1569459 3.2508948 0.7177214 16
3.251478 3.3447344 0.90672439 23
3.2134433 3.3009984 1.0635686 1
3.0929286 3.1738737 1.1874619 8
1.587115 1.6201428 -0.60770714 25
1.7260088 1.7600825 -0.56912625 51
1.8859113 1.9204599 -0.52319831 24
2.0259695 2.0609245 -0.45772728 9
2.2987812 2.3359952 -0.40241259 9
2.5354204 2.5728676 -0.31602672 25
2.8908195 2.9304454 -0.21572883 36
2.7904999 2.8257902 -0.069320954 31
2.6065421 2.6589267 0.064992763 29
2.5627894 2.6115582 0.19175896 26
2.6360936 2.6834457 0.32910007 3
2.7382817 2.7835793 0.47943404 23
3.1268935 3.1752927 0.70583236 15
nan nan nan nan
3.2281978 3.2701612 1.0608692 34
3.119086 3.1563244 1.1890148 26
1.5983871 1.609023 -0.60770714 27
1.7547438 1.7645714 -0.57452506 32
1.9020443 1.9100283 -0.52396154 32
2.0333362 2.0397344 -0.45616296 9
2.3136325 2.3184836 -0.40216887 5
2.5490956 2.5508764 -0.31550378 18
2.8391685 2.8381784 -0.21039055 29
2.8073297 2.8034136 -0.06925115 20
2.6095324 2.625066 0.064608812 10
2.5668697 2.5794468 0.19071224 28
2.7025704 2.7129703 0.33502665 31
2.7744715 2.7812593 0.4823589 14
3.4421086 3.446919 0.77153486 39
nan nan nan nan
3.3639998 3.3604803 1.0977612 11
3.0589964 3.0525978 1.1579564 33
1.6191777 1.607353 -0.61133063 18
1.7545656 1.7399291 -0.57047588 22
1.9139376 1.8953216 -0.5235799 33
2.053144 2.0310462 -0.45741442 9
2.3184664 2.2911124 -0.40021896 4
2.5668418 2.5330181 -0.31550378 10
2.8944721 2.8533413 -0.21300736 28
2.7228215 2.6813207 -0.066703096 27
2.6249559 2.6039677 0.064539 21
2.6131883 2.5895808 0.19280569 25
2.7242765 2.69684 0.33537531 10
2.7288806 2.6976261 0.47114691 19
3.2861784 3.2451406 0.73148763 22
3.1964202 3.1531994 0.87276042 36
3.3096356 3.2603283 1.0725666 60
nan nan nan nan
1.6331205 1.5987124 -0.6123659 36
1.7736361 1.7344501 -0.57272542 28
1.9200997 1.8750556 -0.52167183 30
2.0630314 2.0125251 -0.45647582 9
2.3258746 2.2665579 -0.3987565 5
1.9947486 1.9411635 -0.24351314 2
2.927211 2.8455946 -0.21394941 31
2.7041752 2.6260254 -0.065795571 12
2.6559374 2.5981622 0.064853139 16
2.6940565 2.6326933 0.19741124 11
2.6660514 2.6025989 0.32596248 12
2.7675464 2.6979101 0.47455928 18
3.1007166 3.0195327 0.68549597 12
3.2746437 3.1855671 0.8880251 17
nan nan nan nan
3.406322 3.3055708 1.2718368 13
1.6317328 1.5751966 -0.60770714 31
1.7786878 1.7152618 -0.57047588 32
1.9402131 1.8684149 -0.5235799 34
2.0756066 1.9967047 -0.45616296 7
2.3216021 2.2310097 -0.3953442 12
2.0021653 1.9220225 -0.24281588 6
2.9917004 2.8679354 -0.21719423 12
2.7455509 2.6292117 -0.066354051 16
2.662498 2.5684505 0.064573906 30
2.6433384 2.5472975 0.19238698 10
2.603775 2.5065432 0.31620103 12
2.8220921 2.7129149 0.48065275 12
nan nan nan nan
3.8521752 3.6953936 1.0376194 10
3.5695436 3.4206781 1.1414018 29
3.6121559 3.4566827 1.3396474 46
1.6272993 1.5491139 -0.60201317 36
1.7877959 1.7001158 -0.56957608 31
1.9372295 1.8402901 -0.51938212 25
2.0776877 1.9716512 -0.45366001 14
2.3457661 2.22294 -0.3968066 12
2.5812747 2.4435511 -0.31097168 24
2.9531064 2.7926135 -0.21300736 21
2.979013 2.8131781 -0.071519956 16
2.6886094 2.5585403 0.064783335 16
2.6750906 2.5430079 0.1934337 11
2.6139843 2.4814472 0.31532949 31
2.7742326 2.6308103 0.46944076 16
3.367204 3.1897795 0.73461634 33
3.2446406 3.0693765 0.86818099 6
3.6910675 3.4880288 1.1724451 11
3.0891383 2.9161503 1.1382862 15
1.6434386 1.5432918 -0.60408366 30
1.7993261 1.6879081 -0.56957608 41
1.9600586 1.8361171 -0.52205342 19
2.0308223 1.9004108 -0.44051951 10
2.3738942 2.2191217 -0.39900026 13
2.5953584 2.4227519 -0.31062305 22
2.9316311 2.7337894 -0.21007656 42
2.9937046 2.7887447 -0.071415246 42
2.9003468 2.7217007 0.069425672 3
2.6709232 2.5037799 0.19186363 11
2.7151644 2.542583 0.32543954 20
2.7925317 2.6113784 0.46944076 21
3.3071103 3.0893321 0.71678281 18
3.701808 3.4544103 0.98419291 22
3.6483192 3.3997352 1.1512995 16
3.1094203 2.8945146 1.1382862 31
1.6555893 1.5330943 -0.60460132 23
1.8010522 1.6660422 -0.56642681 38
1.9483132 1.7997419 -0.51556593 45
2.0512989 1.8928849 -0.44208387 11
2.3878691 2.2011492 -0.3987565 15
2.6210032 2.4126711 -0.31166893 22
2.9491735 2.7119055 -0.20997187 36
2.9026487 2.6663201 -0.068797387 11
2.7548923 2.549273 0.065516338 12
2.763135 2.5542164 0.19720189 11
2.8440938 2.6262939 0.33868721 7
2.7844276 2.5675955 0.46505347 12
3.4259431 3.1558366 0.73774499 10
3.5900352 3.3035188 0.94832075 13
nan nan nan nan
7.1471624 6.5606556 2.5995786 26
1.6591198 1.5149846 -0.60201317 31
1.804001 1.6455481 -0.56372738 25
1.9477679 1.7741978 -0.51213133 21
2.1097562 1.9197309 -0.45178279 11
2.3943644 2.176414 -0.3972941 12
2.6757159 2.4295981 -0.31620103 10
2.9487998 2.6738095 -0.20861115 30
3.0397594 2.7533882 -0.071589775 7
3.1714547 2.8939071 0.074940629 7
2.6879077 2.4500992 0.19060758 31
2.8667791 2.6103988 0.33921015 31
2.7743783 2.5227211 0.4604224 19
3.0545554 2.7745638 0.65358323 9
3.6740742 3.333786 0.96434873 24
3.8204639 3.4629719 1.190441 11
3.1652873 2.8650768 1.1439801 38
1.6610421 1.4956088 -0.59890729 35
1.8139964 1.6316106 -0.56327748 31
1.9408147 1.7438409 -0.50717038 27
2.1286547 1.9106035 -0.45303425 9
2.4095001 2.1596451 -0.3972941 12
2.691128 2.4095297 -0.31602672 4
3.0011711 2.6843004 -0.21101859 15
2.9202051 2.6082158 -0.068343624 15
2.9607022 2.6648951 0.06953039 9
2.6822436 2.4117169 0.1890375 26
2.6536639 2.3826694 0.31201756 10
2.7796636 2.4931743 0.45847249 18
3.1101511 2.7866631 0.66140497 16
3.4178064 3.0580199 0.8914597 24
3.2372074 2.8933821 1.002382 31
nan nan nan nan
1.6639612 1.4778544 -0.59631914 31
1.8265172 1.6205194 -0.56372738 38
1.9573501 1.7341546 -0.50831515 34
2.1271489 1.8826045 -0.44990557 9
2.42117 2.1405642 -0.3968066 15
2.7183394 2.3999138 -0.31724688 3
3.0632782 2.7015939 -0.21405408 21
2.9769027 2.6226473 -0.06925115 17
2.7877991 2.4742534 0.065062575 13
2.7617841 2.4485805 0.1934337 7
2.7712445 2.4543777 0.32387072 27
2.9382629 2.598644 0.48162767 15
3.3826737 2.9885328 0.71490556 16
3.3413918 2.9489446 0.86627293 37
3.8830624 3.4221766 1.1949401 14
nan nan nan nan
1.6756911 1.4674742 -0.59683669 43
1.8245865 1.5961797 -0.55967826 32
1.9605373 1.7126988 -0.50602549 14
2.108984 1.840434 -0.44333532 12
2.4420395 2.128828 -0.39778158 15
2.7365305 2.3821859 -0.3174212 4
3.065486 2.6657259 -0.21290269 52
3.2321541 2.8076892 -0.074731201 10
3.0201957 2.6430495 0.070053965 5
2.7998631 2.4476438 0.19489913 11
2.7327855 2.3864815 0.3174212 18
2.7618389 2.4084566 0.44994166 12
3.3572831 2.9246199 0.70520669 34
3.280442 2.8546622 0.84528393 13
3.23316 2.8095558 0.98888493 1
1.9373802 1.6817678 0.68742341 7
1.6902825 1.459527 -0.59838963 25
1.8312585 1.5795841 -0.55832857 34
1.9739337 1.700251 -0.50640708 12
2.112797 1.817935 -0.44145811 13
2.4402833 2.0974929 -0.39510044 11
2.7168088 2.331881 -0.31323773 13
3.0779552 2.6390612 -0.21248402 31
3.2562323 2.7889602 -0.074835919 14
2.9855831 2.5761783 0.068832293 21
2.8758814 2.4788945 0.19898133 3
2.7795749 2.3933465 0.32090744 11
3.0028596 2.5819547 0.48625872 11
3.0929041 2.6565626 0.64576155 16
nan nan nan nan
1.9741118 1.6914209 0.60016948 7
1.947607 1.6669443 0.68690574 4
1.6842495 1.4339163 -0.59269565 26
1.8452097 1.5692869 -0.55922836 34
1.9752815 1.6775321 -0.50373578 10
2.1194127 1.7980282 -0.44020665 13
2.4503241 2.0765553 -0.39436921 12
2.7391059 2.3180056 -0.31393498 12
3.1954467 2.7013204 -0.21928766 17
3.1946504 2.697778 -0.072985962 18
3.0461411 2.5915537 0.069809623 8
2.8078914 2.3863261 0.19311969 7
2.7643199 2.3468046 0.31724688 40
2.9011893 2.4595189 0.46700338 7
nan nan nan nan
2.0009804 1.6927575 0.50946003 10
1.9784287 1.6713099 0.59791994 6
1.9842963 1.6744871 0.69570565 9
1.7090158 1.4345435 -0.59787202 36
1.8635867 1.5626273 -0.56147784 41
1.9779123 1.6561397 -0.50144607 10
2.1622171 1.8085364 -0.446464 13
2.2042696 1.8417495 -0.35268989 22
2.7383947 2.2847846 -0.31201756 24
3.2004211 2.6674364 -0.21834564 19
2.9214187 2.4323068 -0.066354051 15
2.9232082 2.4519947 0.066598386 10
2.8382607 2.3782096 0.19406174 13
2.7974434 2.3415146 0.31916434 12
2.0348825 1.7008233 0.32563493 3
2.0076132 1.6762463 0.41423854 9
2.0248106 1.6888068 0.51251298 5
2.0065191 1.6711767 0.60286885 9
1.9855425 1.6519444 0.69208211 5
1.7160124 1.4201137 -0.59683669 28
1.8699446 1.545854 -0.56012815 26
1.9818561 1.6360418 -0.49953794 10
2.1321175 1.758208 -0.43770367 23
2.4668202 2.0320449 -0.39241934 8
2.7542777 2.2656126 -0.31201756 22
3.1958182 2.626008 -0.21677555 14
2.9568763 2.4270768 -0.066772908 15
3.0619953 2.5322032 0.069355868 10
2.8347769 2.3418007 0.19270101 18
2.0576584 1.6980137 0.23340309 7
2.0405788 1.6815261 0.32465994 6
2.0375681 1.6772547 0.41799295 7
2.0350358 1.6733819 0.51213133 9
2.015125 1.6546545 0.60196906 5
1.9761147 1.620891 0.68483526 4
1.7124126 1.3971088 -0.59217799 45
1.8701169 1.5241437 -0.55697882 26
1.9932295 1.6221659 -0.49953794 10
2.152004 1.7495104 -0.43926802 22
2.2420974 1.8208046 -0.3546398 13
2.6555126 2.1534641 -0.29911849 9
3.2125204 2.6023774 -0.21667089 21
2.9550931 2.3912814 -0.066354051 15
2.9230614 2.3831418 0.065830477 21
2.0782826 1.6925915 0.14046971 9
2.0601895 1.6760628 0.2323572 6
2.0615129 1.6747493 0.3261224 8
2.0707026 1.6804142 0.42237309 9
2.0359929 1.6504796 0.50946003 4
2.0205688 1.6356416 0.60016948 5
1.9813738 1.6021968 0.68276465 4
1.7206198 1.3839083 -0.59166032 28
1.8624821 1.4964041 -0.55158001 25
2.0090988 1.6118977 -0.50068283 10
2.1549163 1.7270331 -0.43739083 27
2.2191131 1.7765721 -0.34903383 11
2.8214357 2.2555499 -0.31602672 15
2.1537402 1.7199244 -0.14444725 5
2.1260037 1.6959525 -0.047470544 11
2.0948355 1.683689 0.04691207 7
2.0822613 1.6717891 0.13994636 4
2.0920458 1.6778442 0.23462325 8
2.0669568 1.6553528 0.32514745 8
2.0654154 1.652344 0.41893157 5
2.0336623 1.6251959 0.50602549 8
2.0243235 1.615417 0.59791994 6
4.2569351 3.3934021 1.4587041 17
1.7302393 1.3718623 -0.59166032 26
1.8759389 1.4857848 -0.5524798 37
2.0110648 1.5905242 -0.49839315 10
2.1746716 1.7180686 -0.43895519 42
2.208087 1.742591 -0.34537774 31
2.2315073 1.7585492 -0.24856818 2
2.1405845 1.6850811 -0.14277251 8
2.1299331 1.6748874 -0.047296021 5
2.1002684 1.6640569 0.04677245 5
2.0970135 1.6596916 0.1401557 6
2.1162112 1.6730845 0.23601775 7
2.076905 1.6396524 0.3249037 6
2.0613897 1.6256523 0.41580287 10
2.0557539 1.619463 0.50869679 4
3.7142296 2.921762 1.0910127 9
nan nan nan nan
1.7215086 1.3454748 -0.58544868 17
1.8908733 1.4762506 -0.55382955 43
2.0174749 1.5728244 -0.49724829 10
2.1647935 1.6858526 -0.43457499 32
2.190429 1.7039748 -0.34074673 25
2.1634851 1.6805917 -0.23967829 5
2.1712325 1.6847879 -0.14402856 5
2.139993 1.658753 -0.047261119 7
2.1370506 1.6690476 0.047330927 7
2.1116984 1.6474682 0.14036505 5
2.1042681 1.6398979 0.23340309 6
2.0789008 1.617799 0.32344127 8
nan nan nan nan
nan nan nan nan
3.4095936 2.6437995 0.99608326 31
nan nan nan nan
1.7400422 1.3404976 -0.58855456 21
1.8887784 1.4535061 -0.55023032 30
2.0268483 1.5575061 -0.49686664 10
2.1812105 1.6743078 -0.43551362 24
2.2085726 1.6934727 -0.34172165 7
2.1780379 1.6682495 -0.24002692 6
2.1940465 1.6780821 -0.14476126 8
2.1594663 1.6498426 -0.047435641 5
2.129637 1.6394485 0.04691207 4
2.1057334 1.619292 0.13921365 3
2.1046047 1.6166713 0.23218289 7
nan nan nan nan
3.1799254 2.4365194 0.6344983 39
3.6278241 2.7766922 0.8880251 11
3.59161 2.7459934 1.0437729 39
3.3689086 2.572001 1.135698 59
1.7432038 1.3236439 -0.58648396 15
1.9004332 1.4414613 -0.55068022 41
2.0389688 1.5448583 -0.49724829 20
2.2083085 1.671342 -0.43864229 6
2.2266753 1.6828011 -0.34269661 7
2.2087121 1.6674094 -0.24211864 7
2.197444 1.6570972 -0.14423791 5
2.1613469 1.6275092 -0.047226213 5
2.1280036 1.6152433 0.04663283 5
2.1230724 1.6097491 0.13963234 6
2.9942622 2.2670097 0.32857716 33
2.9892287 2.2607353 0.4601787 19
3.2169275 2.4302959 0.6385656 28
nan nan nan nan
3.7429814 2.8205385 1.0820147 39
3.3878813 2.5501719 1.1362157 35
1.7459873 1.3071165 -0.58441341 12
1.8930333 1.4156551 -0.54573131 28
2.0544236 1.5341101 -0.49839315 11
2.2215061 1.6570655 -0.43895519 15
2.2444465 1.6723489 -0.34367159 7
2.2136183 1.647577 -0.24142142 3
2.186518 1.6250355 -0.14277251 6
2.175586 1.6151435 -0.047296021 6
2.1504366 1.6087328 0.046877164 6
3.0381985 2.2703838 0.19877198 43
3.0064309 2.2441924 0.32822853 28
3.0268261 2.2569501 0.46359101 13
3.1989572 2.3818264 0.63168246 25
3.9288406 2.9220746 0.95175534 38
3.9638841 2.944916 1.1400521 11
3.8907251 2.8874035 1.2982364 15
1.7595072 1.2986435 -0.58596635 12
1.9089001 1.4073615 -0.54753089 31
2.0521693 1.5107799 -0.4953402 9
2.2470558 1.6524394 -0.44177097 12
2.2365789 1.6429315 -0.34074673 5
2.2183557 1.6277577 -0.24072415 5
2.2088051 1.6183789 -0.1435052 2
3.8534546 2.8203046 -0.083352692 24
3.134985 2.3121555 0.067994572 27
3.0423265 2.2413585 0.19803928 18
3.0087991 2.2142286 0.32683402 23
3.0389199 2.2339432 0.46310353 18
3.3074572 2.4277909 0.64982885 36
4.3238726 3.1703935 1.0421988 21
4.2542496 3.1159201 1.2174351 12
3.7387862 2.7353752 1.2412962 60
1.752685 1.2752707 -0.58078998 12
1.9152822 1.392045 -0.5466311 39
2.0639942 1.4979292 -0.49572179 10
2.2486556 1.6301492 -0.43989375 6
2.2479951 1.6272762 -0.34074673 5
2.2345097 1.6157321 -0.24124709 1
3.3482757 2.418407 -0.21646154 31
4.0222631 2.9009495 -0.08656393 16
4.0240331 2.9257812 0.086843178 13
3.1302321 2.2734149 0.20274951 8
3.1560411 2.2896364 0.34112757 24
3.1042771 2.2487745 0.47065943 16
3.3239048 2.4052227 0.64982885 13
3.9241989 2.8354318 0.94107002 27
3.9740882 2.8683138 1.1315038 47
3.7656257 2.7148576 1.2438843 13
1.7554847 1.2581943 -0.57871938 12
1.9283634 1.3805727 -0.54753089 29
2.0680137 1.4789155 -0.49419534 10
2.2618709 1.6151646 -0.44020665 10
2.5792866 1.8397878 -0.38900697 8
2.4485648 1.7446111 -0.26303601 3
3.3687506 2.3967009 -0.21667089 26
3.9348383 2.7963426 -0.084260218 12
5.5528703 3.9783971 0.11923484 6
3.1529176 2.2556057 0.2031682 26
3.1885548 2.2785776 0.34287068 16
3.1182852 2.2258947 0.47041571 15
3.3024254 2.3538592 0.64232004 15
