# .PCD v0.7 - Point Cloud Data file format
VERSION 0.7
FIELDS x y z intensity
SIZE 4 4 4 4
TYPE F F F F
COUNT 1 1 1 1
WIDTH 1388
HEIGHT 1
VIEWPOINT 0 0 0 1 0 0 0
POINTS 1388
DATA ascii
2.4175363 -2.8872421 -0.46237233 9
2.5994878 -3.1089523 -0.35454956 33
2.6759081 -3.203757 -0.21876432 29
2.5327282 -3.035563 -0.069006816 37
2.5425506 -3.024729 0.06897191 7
nan nan nan nan
3.3188403 -3.9566422 0.45181534 35
2.6423812 -3.154654 0.50527036 7
3.4276814 -4.0965543 0.84599775 18
2.445106 -2.9253516 0.74110222 21
2.5273964 -3.0280981 0.91060197 21
2.5360858 -3.0417452 1.0611582 1
1.5094692 -1.8201025 -0.63358909 10
1.6994842 -2.0514059 -0.61501622 11
1.8471042 -2.232765 -0.56326818 9
2.0599279 -2.4926815 -0.5121665 7
2.394793 -2.9009876 -0.46188486 9
2.622076 -3.1808324 -0.36065045 21
2.6522067 -3.2208183 -0.21865964 35
2.5597479 -3.1118557 -0.070333198 48
2.6961837 -3.2533417 0.073753871 3
2.7510581 -3.3230953 0.22609136 30
3.823154 -4.6230416 0.52485186 6
4.2824669 -5.1858206 0.82578677 3
2.4059479 -2.9165733 0.59883118 5
2.3971567 -2.9090173 0.73270655 7
3.3927739 -4.1230893 1.2327319 8
nan nan nan nan
1.5052853 -1.8410652 -0.63721251 9
1.6777252 -2.0541644 -0.61231679 11
1.8302305 -2.2440844 -0.56288654 11
2.0462189 -2.5115957 -0.51310509 5
2.3832533 -2.9284132 -0.46359101 8
2.5872402 -3.1835983 -0.35890734 36
2.7165146 -3.3462484 -0.22588199 50
2.6727309 -3.2958407 -0.074068017 16
2.5165186 -3.080065 0.069425672 12
2.6873798 -3.2927058 0.22274184 2
2.7483513 -3.3710124 0.38052195 40
4.2599454 -5.2325249 0.82846785 1
2.3618474 -2.9041805 0.59288669 27
2.412689 -2.969872 0.74377352 24
2.621146 -3.2310765 0.96054101 16
4.1085863 -5.0700617 1.7485816 33
1.4923958 -1.8515289 -0.63721251 4
1.6670099 -2.0703807 -0.61366653 11
1.8268213 -2.2721074 -0.56670272 11
2.0360565 -2.5350604 -0.51498228 6
2.3702049 -2.9542701 -0.46505347 8
2.6016445 -3.2462215 -0.36396238 31
2.62445 -3.2793663 -0.22012506 35
2.6471593 -3.311295 -0.073998205 33
2.4849195 -3.0850995 0.069146432 30
2.5003107 -3.1075375 0.20902982 53
2.4526501 -3.0515716 0.34252208 14
2.3545675 -2.9337304 0.46188486 20
2.3538711 -2.9360106 0.59601539 19
2.2900355 -2.8594537 0.71209919 4
3.3623853 -4.2029533 1.2426296 31
4.0176253 -5.0291905 1.7247702 6
1.4878459 -1.8724903 -0.64083594 4
1.6573615 -2.0880735 -0.61546612 10
1.8088738 -2.2814126 -0.56593949 11
2.0297923 -2.5627975 -0.51779813 8
2.3261259 -2.9411621 -0.4604224 11
2.5653322 -3.2471082 -0.36204496 37
2.6181526 -3.3175364 -0.22148579 31
2.6153135 -3.3187006 -0.073753871 31
2.7573869 -3.471482 0.077383965 7
2.4108231 -3.0384321 0.20327288 25
2.4325233 -3.0701814 0.34269637 9
2.8334835 -3.5800982 0.56059903 32
2.3240311 -2.939568 0.59351242 26
3.2566106 -4.1250639 1.0215914 6
3.415019 -4.3303757 1.273223 38
nan nan nan nan
1.4798322 -1.888657 -0.64290655 9
1.6491158 -2.1069791 -0.6177156 10
1.783231 -2.2816103 -0.56288654 16
2.0130668 -2.5784626 -0.51811105 6
2.3311667 -2.9902062 -0.46554092 6
2.5413766 -3.2633667 -0.36187065 26
2.5924754 -3.3325806 -0.22127645 36
2.6239762 -3.3779376 -0.074661396 27
2.4384487 -3.1143441 0.069041722 29
2.3600214 -3.0174313 0.20076075 8
2.3735435 -3.037997 0.3372927 36
2.3725052 -3.0410416 0.47358429 14
2.3228807 -2.9806507 0.59851831 12
nan nan nan nan
3.3021791 -4.247951 1.2421799 31
2.4893584 -3.2057941 1.0875577 11
1.4698209 -1.9037852 -0.64445943 17
1.6387568 -2.1248987 -0.61951524 10
1.7636646 -2.2893386 -0.56174171 6
1.9969732 -2.5959332 -0.51873678 6
2.3150725 -3.0127041 -0.46651587 4
2.5088272 -3.2683854 -0.36047614 35
2.5637019 -3.3447056 -0.22085775 40
2.5930362 -3.3866475 -0.074451968 31
2.4581873 -3.1851156 0.070228487 28
2.5882986 -3.3585482 0.2222185 39
2.3614664 -3.067534 0.33868721 27
2.3052332 -2.9977334 0.46432224 33
2.2437444 -2.9219925 0.58350062 20
2.7410586 -3.5735083 0.87543172 15
2.2436562 -2.92822 0.85166478 17
3.1448667 -4.1103406 1.3867525 29
1.4611738 -1.9201497 -0.64653003 23
1.6168067 -2.1269789 -0.61681581 10
1.7282457 -2.2768795 -0.55563581 6
1.7114605 -2.2572188 -0.44865409 5
2.3011749 -3.0382876 -0.46797833 2
2.5123947 -3.3207762 -0.36431101 35
2.5222299 -3.3386176 -0.21928766 28
2.5500567 -3.3791285 -0.073893487 33
2.6072094 -3.4286542 0.075184964 33
nan nan nan nan
2.5531585 -3.364881 0.36954033 52
2.3844228 -3.1470599 0.48479629 28
2.2626307 -2.9895639 0.59382528 66
2.8699613 -3.7961462 0.92504203 11
nan nan nan nan
2.1239228 -2.8164945 0.94520718 7
1.4535289 -1.938031 -0.64911819 27
1.6112655 -2.1506915 -0.62041503 10
1.7303522 -2.3121681 -0.56136012 10
1.7007877 -2.2751448 -0.44990557 4
1.7051812 -2.2843461 -0.35000879 5
2.4272192 -3.255178 -0.35524681 14
2.5579064 -3.4341955 -0.2244166 16
2.7507608 -3.6985056 -0.080455594 22
2.5910084 -3.4559212 0.075394399 30
2.4292054 -3.2436433 0.21237932 34
2.8326805 -3.7879 0.41381544 26
2.5102594 -3.3604214 0.51501989 8
2.5151241 -3.3706131 0.66609806 60
2.1900201 -2.9392076 0.71248084 28
2.1362321 -2.8701549 0.8260203 28
2.6199281 -3.5238798 1.1765914 24
1.4506403 -1.9618598 -0.65377688 27
1.5954314 -2.1600413 -0.61996514 9
1.7048458 -2.3115516 -0.55830717 10
1.7024376 -2.3108189 -0.45459861 6
1.6825331 -2.2863069 -0.34854636 5
1.678857 -2.2846508 -0.24804525 4
2.5539601 -3.4793401 -0.22619602 1
2.5091364 -3.4220302 -0.074068017 6
nan nan nan nan
2.4124315 -3.268558 0.21290269 22
2.3185327 -3.1447811 0.34182483 9
nan nan nan nan
2.2750294 -3.0936806 0.6082173 13
2.1606648 -2.9413881 0.70942789 30
2.1368895 -2.9132826 0.83411855 37
3.0188625 -4.1202245 1.3686352 3
1.4323581 -1.9656942 -0.6517064 47
1.5780191 -2.1679757 -0.61906534 9
1.6759697 -2.305928 -0.55410933 7
1.6804612 -2.3146548 -0.45303425 4
1.6805155 -2.317281 -0.35147122 6
1.6652036 -2.2995434 -0.24839386 3
1.657531 -2.2914727 -0.14821544 5
1.654838 -2.2902741 -0.049320504 2
2.2741284 -3.1231859 0.067436099 7
2.5140836 -3.4565315 0.22399792 38
3.2802432 -4.5148678 0.48824647 2
2.6880734 -3.7052519 0.56206143 21
2.4330432 -3.3574152 0.656712 12
2.1527407 -2.9738944 0.71362567 10
2.413311 -3.338763 0.95109314 31
2.0932436 -2.8991528 0.95814812 11
1.4197271 -1.9772152 -0.65222406 45
1.5458087 -2.1551867 -0.61231679 7
1.6678327 -2.3287451 -0.5567807 9
1.6504688 -2.3070512 -0.44927984 4
1.6666055 -2.3321869 -0.35195872 3
1.6514238 -2.3143561 -0.24874248 5
1.6507671 -2.3159997 -0.14905281 5
1.6121331 -2.2643044 -0.048517693 7
2.3909957 -3.3323298 0.071589775 10
2.3747046 -3.3132858 0.2136354 13
2.26512 -3.1638861 0.34043032 27
2.6598315 -3.7206984 0.56157398 17
nan nan nan nan
2.748703 -3.8535395 0.92008096 2
2.0813084 -2.9221995 0.82826984 22
2.1995025 -3.0915716 1.0166413 3
1.4159309 -2.0012717 -0.65688276 31
1.5307249 -2.1659257 -0.61231679 10
1.6854934 -2.388454 -0.5682292 15
1.6388747 -2.3249755 -0.4505313 3
1.6411406 -2.3307803 -0.35000879 3
1.6329346 -2.3225689 -0.24839386 3
1.6334106 -2.3258333 -0.14894815 8
1.6146607 -2.3016965 -0.049076166 7
1.6023067 -2.266372 0.048447877 5
nan nan nan nan
2.2429771 -3.1796224 0.34043032 20
2.151387 -3.0543098 0.45871624 7
2.6280458 -3.7351725 0.72335303 10
2.3695226 -3.3714893 0.80101627 55
2.0787675 -2.9621809 0.83546829 16
2.0115321 -2.8695664 0.93899554 18
1.401925 -2.0111079 -0.65688276 46
1.5133398 -2.1733608 -0.611417 11
1.6721402 -2.4049983 -0.56937408 21
1.8952912 -2.7289984 -0.52624559 13
1.630486 -2.3503361 -0.35122749 2
1.6125485 -2.3270795 -0.24769662 3
1.6114514 -2.3289678 -0.14842479 5
1.6053742 -2.322783 -0.049285594 8
1.5910174 -2.2840664 0.048587501 5
1.5753362 -2.2640812 0.14455192 6
nan nan nan nan
2.0473919 -2.9502034 0.44092333 22
2.5782726 -3.719336 0.71678281 16
2.3470452 -3.3895636 0.80139786 10
2.3212807 -3.356108 0.9420951 9
nan nan nan nan
1.3834761 -2.0144765 -0.65481222 31
1.5080513 -2.1983356 -0.61546612 10
1.6612799 -2.4244223 -0.57128215 22
1.8867134 -2.7565074 -0.52906144 8
2.1886401 -3.2024193 -0.47626543 17
1.5951399 -2.3366349 -0.24752231 1
1.5865598 -2.3266816 -0.14758742 6
1.5722376 -2.3091402 -0.048762023 5
1.5878832 -2.3129778 0.048971456 6
1.5655366 -2.2829876 0.14507528 6
1.5657574 -2.2867308 0.24246727 7
1.5442611 -2.2578714 0.33587193 6
nan nan nan nan
2.1396716 -3.1366408 0.73804927 33
nan nan nan nan
5.3609705 -7.8765936 2.5529912 17
1.3783945 -2.0366454 -0.65895331 27
1.4919617 -2.2069352 -0.61501622 10
1.6498059 -2.4440968 -0.57319027 10
1.869632 -2.7728875 -0.52968717 9
2.1823161 -3.2402935 -0.47967777 16
2.322088 -3.4517262 -0.36396238 46
2.3966224 -3.5678957 -0.22525398 39
1.5520266 -2.3131461 -0.048622403 6
1.5705767 -2.3223503 0.04893655 5
1.5596223 -2.3087566 0.14601734 9
1.5590714 -2.3105483 0.24386176 7
1.5373342 -2.2817678 0.33782184 6
1.5363412 -2.2828724 0.43582645 6
nan nan nan nan
nan nan nan nan
2.2527275 -3.3600078 1.0839342 20
1.3652141 -2.0478263 -0.65947098 28
1.486239 -2.2318952 -0.61906534 11
1.639655 -2.4650779 -0.57547992 10
1.846342 -2.7789679 -0.52843571 8
2.1739075 -3.2769547 -0.48284638 11
2.2847281 -3.4479232 -0.36187065 31
2.3667696 -3.5757987 -0.22473061 24
3.0452197 -4.607811 -0.096407093 2
1.530336 -2.2963781 0.048168644 5
1.5372307 -2.3093436 0.1453893 4
1.5395941 -2.3163981 0.24333882 8
1.5327468 -2.3087173 0.34025922 8
1.5185834 -2.2899847 0.43520072 6
1.5098426 -2.2802584 0.53159386 7
1.5297457 -2.3129475 0.64021075 1
2.2212861 -3.3623686 1.0797932 37
1.3561862 -2.0653815 -0.66205913 29
1.4716902 -2.2438462 -0.61951524 7
1.6252004 -2.4816751 -0.57662481 10
1.8350599 -2.8053334 -0.53093863 8
2.1802938 -3.3369205 -0.48942733 13
2.3405554 -3.5876665 -0.37476969 69
2.438168 -3.7415698 -0.23404641 22
2.6049926 -4.0021553 -0.083352692 3
1.5292224 -2.3306773 0.048657309 4
1.5119078 -2.3069208 0.14455192 6
1.5212028 -2.3237562 0.24299021 6
1.5129285 -2.314641 0.33952799 6
1.5140368 -2.3189874 0.43864229 7
1.4981766 -2.2973216 0.53312039 5
1.4865718 -2.2830083 0.62896323 7
1.4609169 -2.2461803 0.71796405 5
1.3532736 -2.0926435 -0.66775316 7
1.4496453 -2.2442441 -0.61681581 9
1.6174122 -2.5078096 -0.58005941 10
1.8218489 -2.8280399 -0.53281587 8
2.1547966 -3.3487213 -0.48893982 19
2.3079135 -3.5921855 -0.37354952 50
2.5640852 -3.9955072 -0.24880517 25
2.5726724 -4.0135093 -0.083213076 22
nan nan nan nan
nan nan nan nan
1.5049431 -2.3343194 0.24299021 8
1.4795413 -2.2984405 0.33562821 6
1.5010155 -2.3344855 0.43958092 5
1.4884675 -2.3176363 0.53541011 8
1.4737529 -2.2982521 0.63031286 6
1.447284 -2.2595782 0.71899933 4
1.3427821 -2.1085579 -0.66982371 25
1.4444013 -2.2707527 -0.62131482 7
1.5977603 -2.5157256 -0.57929617 11
1.8147593 -2.8607066 -0.53657025 8
2.1377406 -3.373744 -0.49040228 13
2.2919328 -3.6212797 -0.37494397 41
2.2875311 -3.6199148 -0.2244166 31
2.4880207 -3.9417484 -0.081363119 24
2.2909608 -3.6002469 0.074486867 25
2.5519843 -4.0150852 0.24932852 24
2.0919561 -3.2951236 0.3414762 27
1.4708987 -2.3204498 0.33733436 6
1.4720006 -2.3248796 0.43582645 6
1.4701523 -2.3246524 0.53464681 4
1.4559939 -2.3049352 0.62941307 9
1.4531163 -2.303941 0.72986972 9
1.3177663 -2.1015139 -0.66464734 24
1.4409263 -2.3005996 -0.62671363 10
1.5868468 -2.5365288 -0.58158582 10
1.8036195 -2.8863947 -0.53907323 8
2.1036282 -3.3717439 -0.4879649 16
2.2845094 -3.6659384 -0.37790731 30
2.2522838 -3.6184452 -0.22336988 43
2.5248287 -4.0626259 -0.083492316 17
2.1994932 -3.5090125 0.072287865 33
2.4313281 -3.8833921 0.2401174 12
2.0424984 -3.2674115 0.33711842 50
nan nan nan nan
1.4571872 -2.3365216 0.43613935 4
1.4486986 -2.3265266 0.53273875 7
1.4336916 -2.305115 0.62671363 6
1.4241478 -2.2924457 0.72314042 5
1.3064765 -2.1153657 -0.66620022 10
1.4242102 -2.3086958 -0.6262638 15
1.571159 -2.5508885 -0.58234906 11
1.781355 -2.8955507 -0.5384475 9
2.1003747 -3.4181197 -0.49259594 12
2.2636724 -3.6881955 -0.37860456 22
2.2947993 -3.7447729 -0.23017356 24
2.5440941 -4.1564679 -0.085063025 13
2.1780927 -3.5293875 0.072392583 41
2.7154193 -4.405232 0.27120495 16
2.0024529 -3.2523961 0.33415511 41
2.0396366 -3.317977 0.47821537 22
2.1436882 -3.491339 0.64889026 51
1.434882 -2.3396809 0.53350198 1
1.4118607 -2.3048499 0.62401426 9
1.4020611 -2.292444 0.7200346 4
1.3027169 -2.1425927 -0.67189431 23
1.4191849 -2.3369045 -0.63121271 7
1.5619048 -2.5749528 -0.58540201 11
1.7523921 -2.8924038 -0.53563172 4
2.0476928 -3.3851409 -0.48577127 16
2.2419903 -3.7107298 -0.37930179 40
2.1805091 -3.6132452 -0.22117178 22
2.5480397 -4.2289376 -0.086179987 22
2.14571 -3.5304606 0.072113343 42
2.1806335 -3.5921583 0.22022973 4
2.4258275 -4.0023637 0.40945768 7
2.0385938 -3.3674443 0.48333386 32
2.1127191 -3.4940171 0.64670014 25
2.0942857 -3.468998 0.78765959 1
5.1532526 -8.5460157 2.3039489 4
1.3844314 -2.2986245 0.71899933 6
1.2881024 -2.1514103 -0.67189431 24
1.4032453 -2.3465104 -0.63121271 7
1.5479164 -2.5925367 -0.58692849 10
1.7432864 -2.9232295 -0.53907323 8
2.0493991 -3.4419954 -0.49186471 13
2.2516739 -3.7862272 -0.38540271 26
2.2194903 -3.7365615 -0.22776611 33
2.4450116 -4.1227851 -0.083666839 21
2.1302507 -3.5607989 0.072427489 35
2.6267622 -4.3959613 0.26837882 32
2.406697 -4.0324693 0.41085216 15
1.9002094 -3.1888964 0.45579138 25
1.9215769 -3.2285979 0.5950768 4
nan nan nan nan
2.9361277 -4.9469681 1.3281112 1
1.9229801 -3.2438245 1.0104296 3
1.2795379 -2.1722243 -0.67551774 12
1.3864185 -2.3564916 -0.63121271 11
1.5287846 -2.6015875 -0.5865469 10
1.7203243 -2.9322217 -0.5384475 12
2.0303378 -3.4647815 -0.49308339 15
2.1798975 -3.7244763 -0.37755868 40
2.2662551 -3.878231 -0.23540714 35
2.3909705 -4.0965776 -0.082794219 36
nan nan nan nan
nan nan nan nan
2.3233037 -3.9568102 0.40143937 27
1.9090319 -3.255167 0.46334729 23
1.932361 -3.3002241 0.60571432 4
2.0159132 -3.4470592 0.77621108 20
2.0296876 -3.4747863 0.92904788 12
nan nan nan nan
1.2672485 -2.1861184 -0.67707068 23
1.378721 -2.3812914 -0.63526183 16
1.5140593 -2.6192594 -0.58807337 11
1.71759 -2.9749534 -0.54407912 17
2.0051081 -3.4771526 -0.49283966 28
2.1697533 -3.7672279 -0.38034767 46
2.2650113 -3.9389744 -0.23812862 22
2.2677007 -3.9484351 -0.079478264 14
2.7161376 -4.6893549 0.094592042 18
2.0722873 -3.5820839 0.21688022 46
2.3295143 -4.0315871 0.40736595 15
1.8579149 -3.2205989 0.45652261 37
1.7850132 -3.0979738 0.56629282 2
1.9976749 -3.4712582 0.7785008 6
1.702388 -2.9617393 0.78867847 22
nan nan nan nan
1.2423843 -2.1781313 -0.67189431 9
1.3591692 -2.3857784 -0.63391209 7
1.5000795 -2.6363297 -0.58959985 13
1.6973007 -2.9865754 -0.54407912 30
1.9876415 -3.5031517 -0.49454582 18
2.1384885 -3.7736168 -0.3794761 38
2.2686448 -4.0081835 -0.24137343 60
2.5332484 -4.482976 -0.089879893 22
2.3265989 -4.080616 0.081991412 16
2.0676236 -3.6308179 0.21897365 28
2.291465 -4.0304317 0.40562281 17
1.9329921 -3.4040642 0.48065275 39
1.8204073 -3.2097111 0.58443922 44
nan nan nan nan
1.6691988 -2.9515004 0.78282976 7
1.8527249 -3.2800205 1.0093943 11
1.2398237 -2.2084365 -0.67862362 19
1.3438513 -2.3966749 -0.63436204 4
1.4835558 -2.6501639 -0.59036303 12
1.6686975 -2.9845586 -0.54157621 19
1.9927857 -3.5685945 -0.501858 10
2.2178421 -3.9781373 -0.39847603 17
2.2289474 -4.0029845 -0.2401174 36
2.5094786 -4.5123491 -0.090124227 34
1.9742327 -3.5194802 0.070437916 35
2.013916 -3.5946336 0.21593818 33
nan nan nan nan
nan nan nan nan
1.7594548 -3.1533411 0.57192445 26
1.7374594 -3.1177554 0.69378155 21
1.9204692 -3.4518199 0.91195166 3
1.9686565 -3.5427957 1.0860047 42
1.2299794 -2.2271848 -0.68172938 25
1.3308517 -2.4128234 -0.63616163 9
1.4678591 -2.665616 -0.59150791 11
1.6487725 -2.9978664 -0.54188907 15
1.9764258 -3.598079 -0.50405163 13
2.0932565 -3.8170822 -0.38087061 34
2.1827183 -3.9851646 -0.23812862 22
2.461601 -4.4999342 -0.089530841 16
1.9641057 -3.5594392 0.070961483 8
nan nan nan nan
1.9705086 -3.5799003 0.35751286 62
1.8374742 -3.343735 0.46846578 9
2.0101731 -3.662545 0.66171783 30
1.6533667 -3.0161858 0.66859478 12
2.3088946 -4.2190294 1.1103585 16
1.9058872 -3.4869516 1.0647817 6
1.2144006 -2.2357173 -0.68172938 18
1.3130453 -2.4203429 -0.63571173 7
1.4501492 -2.6775248 -0.59188956 11
1.6606978 -3.0701156 -0.55283946 15
1.9446532 -3.5995636 -0.5023455 10
2.0826361 -3.861414 -0.38383389 44
2.1112733 -3.9194202 -0.23331371 58
2.1591642 -4.0133586 -0.079548068 16
2.2425377 -4.1319599 0.082061216 44
2.5926602 -4.7830453 0.28512633 5
2.2015758 -4.0666385 0.40457696 13
1.8169174 -3.3617208 0.46919701 2
1.7321457 -3.2088885 0.57755613 16
1.6574246 -3.0743139 0.67889845 20
1.700302 -3.1591244 0.82826984 11
1.8183846 -3.3827622 1.0290645 3
1.1969427 -2.2407329 -0.6806941 14
1.3016201 -2.4397666 -0.6384111 6
1.4360356 -2.6962476 -0.59379762 10
1.6271641 -3.0589623 -0.54877216 16
1.9381027 -3.648113 -0.50722027 12
2.0500264 -3.8652985 -0.382788 44
2.1016219 -3.9675982 -0.23530249 22
2.3994675 -4.5356326 -0.089565754 31
2.2174029 -4.154572 0.082200833 33
2.2350767 -4.1929693 0.24901451 6
1.9268874 -3.6193745 0.35873303 40
2.1120248 -3.9738133 0.55255568 13
1.7310033 -3.2610333 0.58475208 35
1.6506346 -3.1135631 0.68500435 19
1.6873219 -3.1881413 0.83276886 30
nan nan nan nan
1.1821686 -2.2507448 -0.68121177 15
1.2872714 -2.4539714 -0.63976085 9
1.4226424 -2.7166421 -0.59608734 10
1.6066844 -3.0719981 -0.54908502 13
1.9153446 -3.6668329 -0.5079515 13
2.0837922 -3.9961131 -0.39429256 57
2.1236892 -4.0778303 -0.24095476 24
2.094614 -4.0271478 -0.07923393 24
2.0610402 -3.9273679 0.077418879 10
1.9924998 -3.8015988 0.22493997 12
1.8895606 -3.6097915 0.35646698 42
nan nan nan nan
1.7145926 -3.2852969 0.5869422 15
1.6542665 -3.1737576 0.69568962 10
1.7846603 -3.4297619 0.89260584 35
2.2475724 -4.3249154 1.3060009 9
1.1699723 -2.2658091 -0.68328232 31
1.2620697 -2.4473104 -0.63571173 9
1.4000474 -2.7195258 -0.59456086 16
1.5888121 -3.090167 -0.55033648 13
1.8779107 -3.6571591 -0.50478286 12
2.1012862 -4.0992141 -0.40300813 20
2.0678644 -4.0392222 -0.23781461 34
2.0191114 -3.9490879 -0.077418879 24
2.4617403 -4.7715778 0.093719423 4
3.543031 -6.8762712 0.40539435 2
1.8807234 -3.6547835 0.3596046 52
2.5171289 -4.8999062 0.67637491 8
1.6979271 -3.30949 0.58913231 2
1.6186402 -3.1590204 0.68996537 10
1.5663246 -3.0621839 0.79407728 17
1.8192078 -3.5611727 1.0715109 4
1.1637431 -2.2928712 -0.68897635 22
1.2528831 -2.4717052 -0.63976085 11
1.3916644 -2.7502549 -0.59914029 11
1.5859102 -3.1382074 -0.55690676 16
1.8612777 -3.6879015 -0.50722027 15
1.9899361 -3.9479601 -0.38679719 36
2.0548763 -4.0838904 -0.23959403 22
2.0004711 -3.9809556 -0.077767923 26
1.8585839 -3.6650541 0.071729392 22
2.0213439 -3.9911895 0.23446509 15
1.8992261 -3.7549412 0.36814582 40
2.2348988 -4.4243479 0.60861558 17
1.6899017 -3.3512478 0.59445107 1
1.6512954 -3.2789576 0.71362567 11
1.7398291 -3.4592652 0.89395553 27
1.6622574 -3.3093464 0.99231225 23
1.1498345 -2.3041964 -0.69001162 23
1.2368989 -2.4819205 -0.64021075 21
1.3825312 -2.7789989 -0.60333806 12
1.572423 -3.164851 -0.55972254 13
1.8123093 -3.6524732 -0.50063932 9
1.9674402 -3.9703403 -0.38766876 44
1.9305054 -3.9026506 -0.22818479 61
1.9228431 -3.8922868 -0.075778343 39
1.9745705 -3.9603763 0.077244349 22
1.84368 -3.702704 0.21677555 42
2.0820992 -4.1870193 0.40910906 6
1.871859 -3.7691829 0.51672608 8
1.8574467 -3.7467256 0.66234362 6
1.7665706 -3.5681105 0.77392131 56
2.1748862 -4.3986149 1.1328536 17
1.572121 -3.183742 0.95141882 36
1.1366761 -2.317173 -0.6915645 23
1.2328366 -2.5165322 -0.6469593 15
1.360996 -2.7830541 -0.60219324 25
1.5517114 -3.1772556 -0.56003547 19
1.8180825 -3.7292728 -0.5094139 6
1.9606059 -4.0269713 -0.39185223 51
2.0322783 -4.1797409 -0.24357156 18
1.9218178 -3.9595861 -0.0768255 34
1.9757298 -4.0311852 0.078361303 23
1.8105317 -3.6990223 0.2158335 28
2.3519156 -4.8114796 0.46854928 33
1.7593181 -3.6055396 0.49259594 1
1.8569949 -3.8107789 0.67141682 1
1.6102235 -3.3102405 0.71553379 12
1.8571635 -3.822978 0.98123652 3
1.5743102 -3.2450449 0.96643037 10
1.1175508 -2.3200259 -0.69001162 25
1.2249348 -2.5463631 -0.65235811 24
1.3415334 -2.7924879 -0.60219324 23
1.5485812 -3.2292447 -0.56723142 15
1.7860014 -3.729342 -0.50770777 21
1.9161124 -4.0064092 -0.3885403 42
1.9618751 -4.1094642 -0.23865199 22
2.0688245 -4.3393302 -0.083911166 14
1.8182812 -3.7764227 0.073160492 13
1.9743569 -4.1079135 0.23886132 27
1.9863645 -4.1384454 0.40161365 10
1.8490821 -3.8576035 0.52525693 1
1.7478286 -3.6529071 0.64138144 13
1.5819958 -3.3107729 0.71324408 2
1.8421787 -3.8604734 0.98753524 4
nan nan nan nan
1.1029792 -2.3312638 -0.69104689 23
1.2037979 -2.5478048 -0.65055853 32
1.3265413 -2.8126702 -0.60448295 20
1.5142155 -3.2149582 -0.56285131 20
1.7700607 -3.7632749 -0.51063257 21
1.9729154 -4.2021723 -0.40614575 22
1.9331384 -4.1230597 -0.23865199 24
1.9180712 -4.0965042 -0.078954689 40
1.905726 -4.0315943 0.077837728 32
1.9200528 -4.0674133 0.23572117 9
1.7611723 -3.7359095 0.36134771 10
1.801991 -3.8294244 0.51965094 10
1.7130423 -3.645354 0.63793981 6
2.0592752 -4.3881044 0.94221485 56
1.9360248 -4.1329703 1.0536708 17
nan nan nan nan
1.0907469 -2.3476672 -0.69363505 16
1.1794201 -2.5420048 -0.6469593 27
1.3184237 -2.8468032 -0.60982555 18
1.5050011 -3.2541375 -0.56785715 16
1.753733 -3.7971668 -0.51355743 4
1.9410282 -4.2104154 -0.40562281 15
1.8658864 -4.0530005 -0.23383708 13
1.9737903 -4.2933006 -0.082480073 7
1.9272084 -4.1518154 0.079897113 12
1.8588513 -4.0100489 0.23163895 12
1.7392329 -3.7571537 0.36221924 35
1.6711313 -3.6166584 0.4891836 10
1.6867243 -3.6554303 0.63762695 13
5.0151939 -10.883796 2.3293962 10
1.9958848 -4.3393641 1.1027101 17
2.8431482 -6.1899834 1.825192 21
1.0735291 -2.3534672 -0.69311744 22
1.1519511 -2.5288959 -0.64156049 21
1.3025805 -2.8648739 -0.61173368 21
1.47408 -3.2465785 -0.5647285 17
1.7312802 -3.818357 -0.51477611 13
1.8204023 -4.0223818 -0.38627425 18
1.8852527 -4.1714892 -0.23990804 24
1.8952365 -4.1994376 -0.080420688 17
1.9139327 -4.1997418 0.080560312 30
1.6719699 -3.6738989 0.21154197 20
1.7212043 -3.7873423 0.36396238 16
1.6384609 -3.6119668 0.48698995 45
1.7369673 -3.8344584 0.66672373 30
1.6506793 -3.6490541 0.7785008 12
1.6712319 -3.7013681 0.93759608 7
2.2956355 -5.0913749 1.4964917 6
1.0625991 -2.3732467 -0.69674093 13
1.1493815 -2.5706773 -0.65010858 21
1.2801478 -2.8685193 -0.61058879 30
1.4473585 -3.2477684 -0.56316411 27
1.7191086 -3.8629956 -0.51916343 13
1.8011734 -4.0550213 -0.38819164 28
1.8471764 -4.1644664 -0.23875666 22
1.839148 -4.1522303 -0.079268835 11
1.9237602 -4.3006201 0.082235746 15
nan nan nan nan
1.6249201 -3.6427834 0.34897158 26
1.6156269 -3.628758 0.48772117 12
1.7037355 -3.832051 0.66422081 6
1.6761494 -3.7753279 0.80292428 37
1.6082438 -3.6292078 0.91645068 21
2.0661621 -4.669157 1.3681176 1
1.0421191 -2.3717639 -0.69415271 13
1.1361047 -2.5893459 -0.65280801 9
1.2884426 -2.9421277 -0.62432706 20
1.4254411 -3.259604 -0.56347704 38
1.6905096 -3.8712645 -0.51867592 13
1.892987 -4.3411336 -0.41433838 18
1.8292178 -4.2028985 -0.24022207 20
1.7662772 -4.0641003 -0.077349067 26
1.6557729 -3.7719555 0.071903922 27
1.7584265 -4.0115137 0.22954552 12
1.5906608 -3.6339617 0.34705415 24
1.5751545 -3.605386 0.48309013 25
2.2330251 -5.1184974 0.8844806 9
1.659161 -3.8085361 0.80750376 15
nan nan nan nan
2.03967 -4.6976438 1.3722585 7
1.0354775 -2.4020438 -0.70088202 12
1.125705 -2.615114 -0.65730703 11
1.2707125 -2.9562407 -0.62547189 21
1.4032211 -3.2692308 -0.56347704 44
1.6587517 -3.8720243 -0.51721358 13
1.6918077 -3.954906 -0.37633851 20
1.7174035 -4.0205612 -0.22912684 11
1.6139532 -3.7856903 -0.071834102 31
1.8049355 -4.1889992 0.07961788 16
1.6071503 -3.7353497 0.21311203 12
1.5943404 -3.7127149 0.3535037 37
1.559965 -3.6379175 0.48601499 39
1.6624016 -3.8824155 0.66891384 1
1.621731 -3.7947519 0.80216104 8
1.7110277 -4.0095081 1.006431 15
1.9743248 -4.6332211 1.3494825 18
1.0213617 -2.4143741 -0.70243496 18
1.1131867 -2.6352816 -0.66045636 9
1.2508059 -2.9668491 -0.62585354 15
1.4041231 -3.335387 -0.57317597 11
1.6462044 -3.9161649 -0.52160084 13
1.6602222 -3.9553075 -0.37529263 22
1.6476203 -3.9329765 -0.22347455 22
1.6583718 -3.9644651 -0.075010449 13
1.6324118 -3.8625789 0.07319539 12
1.6749951 -3.9691324 0.22577733 13
1.5729005 -3.732661 0.35437521 22
1.5322217 -3.6432295 0.48528376 39
nan nan nan nan
4.8916025 -11.665149 2.4587648 47
nan nan nan nan
1.50468 -3.6005828 1.0456289 6
1.0067018 -2.4267988 -0.70398778 22
1.0969992 -2.6483901 -0.66180605 12
1.2073215 -2.9190538 -0.61402339 21
1.3700771 -3.3174801 -0.56848288 17
1.6203371 -3.9312327 -0.52208835 31
1.6932303 -4.1141977 -0.38923752 19
1.6428272 -3.997674 -0.22651003 22
1.6238256 -3.9592946 -0.074696302 30
1.6198686 -3.9068499 0.073823676 18
1.7610105 -4.2535553 0.24126878 21
1.55213 -3.7564411 0.35559544 30
1.5142008 -3.6700902 0.48747739 37
nan nan nan nan
4.8682766 -11.840645 2.4885311 10
1.6511424 -4.0219021 1.0037317 27
1.4962572 -3.6500666 1.057017 1
0.98724794 -2.4264374 -0.70191729 25
1.0796806 -2.6576014 -0.66225594 20
1.207568 -2.9783545 -0.62470871 15
1.3735689 -3.3928807 -0.57974619 18
1.5972606 -3.9513726 -0.52330703 19
1.6234704 -4.0242949 -0.37965041 14
1.6536829 -4.1053815 -0.23195298 52
1.5610207 -3.8812034 -0.073020868 30
1.6000841 -3.9365888 0.074172728 10
1.5427481 -3.8012328 0.21499613 11
1.9029181 -4.6957226 0.44327411 11
1.5599923 -3.8572395 0.51087636 16
1.54369 -3.8226883 0.65295756 7
4.8418975 -12.008247 2.5167708 18
nan nan nan nan
1.5218762 -3.7876956 1.0937693 24
0.97171527 -2.4368594 -0.70295256 20
1.0704716 -2.6886106 -0.66810465 10
1.183121 -2.9775896 -0.62280059 13
1.3571334 -3.4207489 -0.58287489 16
1.5893753 -4.0122576 -0.52988791 27
1.6173103 -4.0911164 -0.38487977 18
1.7511088 -4.4363627 -0.24995655 8
1.5720146 -3.988749 -0.074835919 17
1.6672863 -4.1854525 0.078640543 12
1.5634147 -3.9306843 0.22169513 12
1.5899069 -4.0033922 0.37686142 18
1.5315635 -3.8643453 0.51038885 25
nan nan nan nan
2.0662262 -5.2293544 1.0929539 1
1.488315 -3.7744427 0.93669623 10
1.4812419 -3.7622774 1.0834166 11
0.96100646 -2.4597785 -0.70761132 18
1.0495514 -2.690572 -0.66675496 11
1.1694274 -3.004072 -0.62661678 20
1.3332194 -3.4301398 -0.58287489 15
1.5598897 -4.0195541 -0.52940047 22
1.5779079 -4.0723057 -0.38209078 30
1.5681095 -4.055419 -0.22787078 15
1.5059583 -3.9007545 -0.072985962 36
1.5973119 -4.0926704 0.076685868 31
1.4880735 -3.8186808 0.21478678 22
1.532299 -3.9382658 0.36971465 11
1.5483767 -3.987824 0.52525693 23
1.4009141 -3.613642 0.61384892 23
4.775816 -12.338326 2.5717237 44
1.4604815 -3.7790322 0.93534648 16
1.7941717 -4.6521215 1.3360239 1
0.94726288 -2.4754488 -0.71019953 10
1.0223962 -2.6759887 -0.66135615 32
1.1559495 -3.0303056 -0.63043296 20
1.315465 -3.4539037 -0.58537781 16
1.5437796 -4.0618916 -0.53354406 13
1.61023 -4.2434216 -0.39708155 31
1.5234867 -4.021174 -0.22535865 28
1.4914185 -3.9448421 -0.073614255 33
1.5379857 -4.0212674 0.075150065 21
1.4819964 -3.880965 0.2177176 8
1.4657476 -3.8464682 0.36012751 30
1.5127263 -3.9760063 0.52233207 28
nan nan nan nan
nan nan nan nan
1.516148 -4.0060234 0.98888493 13
1.7774878 -4.7039833 1.347412 27
0.93445975 -2.4926925 -0.71330529 15
1.0116718 -2.7029619 -0.66630507 24
1.1430089 -3.0603714 -0.63501233 20
1.3023636 -3.4926169 -0.59038377 15
1.5250986 -4.0964904 -0.53671265 14
1.5715466 -4.2302794 -0.3948155 17
1.5113512 -4.0747819 -0.22776611 13
1.516614 -4.0955458 -0.076232105 24
1.5070692 -4.024416 0.075010449 32
1.4618605 -3.9099243 0.21876432 11
1.5544989 -4.1643424 0.38888893 12
1.4087102 -3.7818449 0.49552077 17
1.7537656 -4.7157326 0.79687726 1
nan nan nan nan
1.4170538 -3.8246386 0.94164521 12
1.3478292 -3.6436553 1.0409703 16
0.92036217 -2.5082235 -0.71589351 12
0.98942512 -2.7008097 -0.66405559 14
1.1283561 -3.0867159 -0.63882852 33
1.2772716 -3.4997685 -0.59007084 18
1.4978228 -4.1107674 -0.53720009 17
1.5290405 -4.2055712 -0.39150357 42
1.5632805 -4.3067675 -0.2401174 20
1.5390831 -4.2470379 -0.078849971 22
1.7535288 -4.7839775 0.088937461 10
1.6596609 -4.5352364 0.25309673 4
1.4788957 -4.0478377 0.37703574 25
1.4380268 -3.944519 0.51550734 16
1.7201251 -4.7260046 0.79656434 16
2.7906485 -7.6797519 1.5882941 1
2.5321996 -6.9836974 1.715027 19
1.3302494 -3.6747737 1.0471818 30
0.90087104 -2.5091333 -0.71434063 10
0.98698491 -2.7535126 -0.6753031 15
1.1081017 -3.0982153 -0.63959181 26
1.2541361 -3.512321 -0.59069663 18
1.4824188 -4.1585207 -0.54207492 4
1.476274 -4.1504416 -0.38540271 24
1.4857233 -4.1839457 -0.23268569 45
1.5060555 -4.2482553 -0.078675449 13
1.4716606 -4.1034169 0.076092489 8
1.5889095 -4.4376507 0.24702574 10
1.4036555 -3.9267352 0.36483395 45
1.5945137 -4.4705052 0.58277923 30
1.6857642 -4.7341766 0.79593867 43
2.6389818 -7.4234195 1.531433 3
4.4775162 -12.623106 3.0921774 23
1.3864607 -3.9152436 1.112922 9
0.88333201 -2.5153615 -0.71434063 13
0.97160619 -2.7713699 -0.67800254 20
1.0916309 -3.1207011 -0.64264476 31
1.2413076 -3.5545597 -0.59632826 21
1.4579252 -4.18189 -0.5437811 16
1.4570811 -4.1888738 -0.38801736 22
1.5278932 -4.3998699 -0.24409491 18
1.5261406 -4.4022589 -0.081328213 22
1.5058595 -4.2928529 0.079408452 34
1.4450091 -4.126298 0.22912684 28
1.3656874 -3.9063461 0.36204496 36
1.4821926 -4.2491112 0.55255568 40
1.6500751 -4.738368 0.79468721 36
1.5981565 -4.5970302 0.94603103 15
2.5532305 -7.3608208 1.7987087 17
1.4279962 -4.123807 1.1693444 5
0.87076902 -2.5360839 -0.71848166 22
0.95539403 -2.7873027 -0.68025202 13
1.0736302 -3.1393914 -0.64493442 33
1.2305033 -3.6042664 -0.60321134 13
1.4318963 -4.2013607 -0.54499972 14
1.4561297 -4.2798018 -0.39551273 46
1.4778793 -4.3536916 -0.24095476 36
1.381773 -4.0775847 -0.075150065 42
1.4972615 -4.3656816 0.080560312 11
1.3495314 -3.9416592 0.21834564 12
1.3370939 -3.9120145 0.3616963 46
1.4396778 -4.2217784 0.54768091 30
1.3903264 -4.0840559 0.6833058 36
2.5312881 -7.4483886 1.5291433 2
2.5199718 -7.4278555 1.8108561 2
1.2616707 -3.7274449 1.0544289 19
0.85611582 -2.5512586 -0.72106987 13
0.94210231 -2.8123827 -0.68475103 21
1.0497452 -3.1391792 -0.643408 30
1.2078178 -3.6181798 -0.60415 16
1.3975128 -4.1961875 -0.54304987 14
1.4193019 -4.2690659 -0.39359534 34
1.4633096 -4.4091449 -0.2434669 18
1.3545295 -4.0909286 -0.075219877 19
1.4916723 -4.4478168 0.081886694 19
1.3068188 -3.903405 0.21572883 28
1.3198501 -3.9514902 0.36448529 27
1.4580014 -4.3727174 0.56596124 30
1.3837059 -4.1571503 0.69394338 6
2.4699461 -7.4379306 1.523419 12
nan nan nan nan
1.2708637 -3.8404868 1.0839342 41
0.84354693 -2.5717118 -0.72521096 16
0.92536271 -2.826138 -0.68655062 18
1.0326817 -3.1613607 -0.64646095 34
1.1862038 -3.6377916 -0.60602719 13
1.3842783 -4.2527933 -0.54914331 11
1.4337689 -4.4153094 -0.40614575 38
1.425102 -4.3964539 -0.24221084 6
1.3463521 -4.1609354 -0.076336823 29
1.3721771 -4.1882782 0.076930203 20
1.4173609 -4.3338594 0.23896599 39
1.3102357 -4.0134149 0.36936605 21
1.3548985 -4.1600637 0.53720009 21
1.4022889 -4.3132386 0.71834713 19
1.3393205 -4.1269045 0.8433758 17
1.4766217 -4.5608196 1.1067592 32
1.1869886 -3.6727948 1.034241 27
0.82675099 -2.5812178 -0.7262463 13
0.91391832 -2.858516 -0.69284928 27
1.0117792 -3.1722338 -0.64722413 34
1.1751608 -3.6911592 -0.61353606 18
1.3587641 -4.2755966 -0.55084944 14
1.4161562 -4.4669943 -0.4099806 40
1.3624377 -4.3053732 -0.23666322 38
1.3365448 -4.2312527 -0.077453777 11
1.3892118 -4.3425069 0.079582974 13
1.2527989 -3.923173 0.2158335 35
1.4437443 -4.5293059 0.4159072 8
1.3456739 -4.2318492 0.54524344 28
1.3643737 -4.2984471 0.71427983 37
1.4865904 -4.692008 0.95671636 16
nan nan nan nan
1.205493 -3.8210099 1.0735815 37
0.81274575 -2.5998337 -0.72986972 10
0.88697445 -2.8425033 -0.68745047 23
0.98610711 -3.167973 -0.64493442 30
1.1470187 -3.6917279 -0.6122846 16
1.3412297 -4.3247943 -0.55596799 13
1.3855251 -4.4786754 -0.41015494 42
1.3046514 -4.2250872 -0.23174362 43
1.390021 -4.5099292 -0.082375363 15
1.353498 -4.3349195 0.079268835 44
nan nan nan nan
1.2700512 -4.082684 0.37407246 37
1.2807975 -4.1273861 0.53061914 7
1.2899122 -4.1644602 0.69050181 13
2.1525719 -6.9624386 1.416566 13
1.2588843 -4.0819249 0.98618549 10
1.2197107 -3.9622695 1.1108514 42
0.79852045 -2.6183791 -0.73349321 9
0.86710846 -2.8486264 -0.68745047 23
0.9685297 -3.1898086 -0.64798737 34
1.1212175 -3.6996455 -0.6122846 19
1.3144529 -4.3454533 -0.55743045 14
1.4048715 -4.6560946 -0.42549434 30
1.2693641 -4.2149682 -0.2306969 41
1.3193589 -4.3892994 -0.080001831 10
1.2666843 -4.1587086 0.075883061 7
1.2310145 -4.0492043 0.22179982 24
1.2473035 -4.1105161 0.37581557 41
1.2611541 -4.1666269 0.53451896 17
1.3864894 -4.5893769 0.75933295 12
1.2242594 -4.0600653 0.82429492 26
1.2275497 -4.0812826 0.98393595 16
1.1609132 -3.8670728 1.0818636 41
0.78572762 -2.6424072 -0.73866957 9
0.8521902 -2.8714242 -0.69149959 38
0.95125282 -3.2134352 -0.65142196 20
1.0903248 -3.6903329 -0.60946876 13
1.2829608 -4.3507156 -0.55694294 13
1.3180176 -4.47824 -0.4084118 20
1.2539715 -4.2716374 -0.23331371 30
1.298242 -4.4310265 -0.08059521 8
1.3924657 -4.6888609 0.085377172 12
1.2134997 -4.0940824 0.22378856 13
1.2191415 -4.1210341 0.37598985 30
1.2101244 -4.1010761 0.52501315 12
1.9660513 -6.675765 1.1022373 1
1.2235684 -4.1626916 0.8433758 10
1.2332047 -4.2036099 1.0113801 3
1.1295478 -3.8602502 1.0777225 24
0.76726133 -2.6478281 -0.73866957 18
0.82508522 -2.8529673 -0.68565083 16
0.93534642 -3.2405844 -0.65561974 16
1.071195 -3.718549 -0.61291033 19
1.2552973 -4.3691058 -0.55816168 15
1.2642056 -4.4088082 -0.40126503 19
1.2523426 -4.3760824 -0.23854731 20
1.2513597 -4.3842187 -0.079582974 9
1.354399 -4.6771021 0.084993221 12
1.1867137 -4.1060853 0.22399792 22
1.2140715 -4.2117658 0.38348526 8
nan nan nan nan
1.2614782 -4.3935084 0.72397882 33
1.1923156 -4.1635823 0.84184933 48
1.3778695 -4.8210745 1.1575983 16
1.1318603 -3.9681683 1.105675 13
0.74922031 -2.6529894 -0.73866957 11
0.81886256 -2.9054089 -0.6968984 20
0.91323203 -3.248925 -0.65600139 20
1.0601478 -3.779192 -0.62167066 16
1.2356964 -4.4138694 -0.56279266 14
1.2403607 -4.4424729 -0.40353107 9
1.2142557 -4.3577833 -0.2370819 44
1.1936302 -4.2924514 -0.077767923 16
1.2104399 -4.2918968 0.077837728 12
1.1623479 -4.1296506 0.22483528 12
1.2672734 -4.5114908 0.4099806 27
1.2182604 -4.3486629 0.55450553 3
1.1850337 -4.2385993 0.69707209 55
1.1781938 -4.2226591 0.852153 16
1.2276796 -4.4119143 1.0572701 4
1.0457187 -3.7656338 1.0471818 31
0.7332409 -2.6674688 -0.74125779 20
0.80680788 -2.9411237 -0.70409685 13
0.89467239 -3.2703707 -0.65905434 16
1.0389416 -3.8055573 -0.62479931 19
1.2126795 -4.451118 -0.56644875 15
1.244839 -4.5817671 -0.41538426 13
1.1838031 -4.3661542 -0.2370819 20
1.2116836 -4.4782662 -0.080979168 21
1.2540274 -4.568285 0.082689509 13
1.1234635 -4.1010652 0.22284654 39
1.2094768 -4.4241347 0.40126503 13
nan nan nan nan
1.166304 -4.286797 0.70364231 30
1.1615458 -4.2781487 0.8616935 46
1.6949413 -6.2600069 1.4972743 1
1.0627402 -3.9332306 1.0916989 22
0.7116068 -2.6613252 -0.73815197 23
0.78123164 -2.927856 -0.69959784 7
0.87888658 -3.3030984 -0.66439694 16
1.0032237 -3.7783515 -0.61916769 22
1.1851348 -4.4729075 -0.56815493 24
1.4108022 -5.3396721 -0.48319143 27
1.1792616 -4.4728069 -0.24242018 24
1.1798816 -4.4846821 -0.080944255 15
1.1349219 -4.2504187 0.076790586 11
1.0978905 -4.1203871 0.22347455 33
1.2097914 -4.5499258 0.41189805 20
nan nan nan nan
1.0944109 -4.1363325 0.67767417 28
1.1070927 -4.1931415 0.84299421 11
1.0791332 -4.098834 0.9785372 16
1.0229838 -3.8938429 1.0787579 26
0.69641173 -2.6793163 -0.74177545 10
0.76224011 -2.9388976 -0.70094752 11
0.84744865 -3.2768416 -0.65790945 17
0.98521245 -3.8177791 -0.62448645 21
1.1543741 -4.4829946 -0.56839865 21
1.2134483 -4.726068 -0.42688882 11
1.1182661 -4.3648438 -0.23613985 50
1.1371529 -4.4482493 -0.080141447 19
1.1328514 -4.3646941 0.078710355 12
1.0590836 -4.0892825 0.22138111 19
1.1809893 -4.5698352 0.41294393 11
1.1417825 -4.430891 0.56181771 15
1.0315646 -4.0118656 0.65608621 34
1.0743768 -4.1874561 0.84032285 16
1.0746408 -4.2006645 1.0010322 34
1.0650584 -4.1723046 1.1538154 4
0.68336463 -2.7065897 -0.74798709 13
0.75074929 -2.9800518 -0.70949566 7
0.83076936 -3.3074312 -0.66287047 15
0.96621943 -3.8552222 -0.62949234 19
1.1341251 -4.5352378 -0.57400465 17
1.198615 -4.8038101 -0.43316403 7
1.1350188 -4.5624871 -0.2463977 16
1.0395908 -4.1882496 -0.07532458 6
1.1258177 -4.46557 0.080385789 13
1.093363 -4.3464394 0.2348838 18
1.1427513 -4.5528464 0.41067785 16
2.1382706 -8.5443611 1.0814687 3
1.1016362 -4.4118586 0.72022432 7
1.8723837 -7.5153046 1.505483 7
1.0004209 -4.0244374 0.95739174 7
1.0433401 -4.20964 1.1620976 24
0.66721207 -2.7225523 -0.75109291 12
0.7313152 -2.9908991 -0.71084535 12
0.82452285 -3.3797657 -0.67622709 17
0.94415987 -3.878984 -0.63230819 17
1.1061811 -4.5584774 -0.57595456 14
1.2255288 -5.061862 -0.45565021 5
1.1738124 -4.8593783 -0.26199383 13
1.052462 -4.3703761 -0.078466021 11
1.0934927 -4.4653602 0.080246165 15
1.0566422 -4.3246775 0.23331371 12
1.1000938 -4.5161901 0.40666869 13
1.7059606 -7.0194216 0.88696516 2
nan nan nan nan
0.99135709 -4.1009092 0.82009715 23
1.0687094 -4.431046 1.0523212 14
1.0128545 -4.2091317 1.160027 16
0.65134698 -2.7383072 -0.75419873 13
0.71048993 -2.9939117 -0.71039551 11
0.80271626 -3.3930814 -0.67775363 17
0.91433388 -3.8739455 -0.630431 17
1.074672 -4.5639691 -0.57571083 19
1.0449191 -4.4515405 -0.40004486 57
1.0701833 -4.5699239 -0.24597903 10
1.0117714 -4.3307042 -0.077628307 26
1.0341059 -4.3542051 0.078116976 12
0.99280912 -4.1900773 0.22567266 27
1.0821613 -4.5778642 0.41154939 13
1.6915187 -7.1780047 0.90548927 1
0.98328739 -4.1824136 0.68049002 12
1.0010786 -4.2681179 0.852153 26
0.98894483 -4.2296667 1.0028318 27
1.533314 -6.5734286 1.8086276 14
0.63221413 -2.7427878 -0.75419873 18
0.68869805 -2.9950004 -0.70949566 13
0.78471071 -3.4234798 -0.68271458 19
0.88374472 -3.8648288 -0.62792808 17
1.0458741 -4.584908 -0.57741702 19
1.0319283 -4.5383816 -0.40719163 27
1.0267661 -4.5266414 -0.24325755 14
0.97665811 -4.3162079 -0.077244349 16
1.0144466 -4.4080882 0.078954689 5
0.96844912 -4.2183189 0.22682405 16
1.0746396 -4.6921229 0.42113656 8
1.5689068 -6.8722496 0.86551613 2
0.94046646 -4.1294684 0.67079103 16
0.9890905 -4.3534966 0.8677994 5
0.93399775 -4.124332 0.9762876 16
0.90205204 -3.9929707 1.0968752 5
0.61557531 -2.7584476 -0.75730455 18
0.67962903 -3.0529964 -0.72209293 7
0.76036596 -3.4269583 -0.68233299 13
0.86101031 -3.8901911 -0.63105673 16
1.0249674 -4.6424966 -0.58375424 14
1.0015038 -4.5513124 -0.40771458 20
0.9887166 -4.5044365 -0.24168746 12
0.95077854 -4.3424554 -0.077593401 21
1.0340916 -4.6414762 0.08300364 5
0.9619413 -4.3283105 0.23237166 18
1.0578123 -4.771482 0.42758605 13
1.845114 -8.3503571 1.0500263 10
0.91629148 -4.1571531 0.67423266 12
1.597367 -7.2652416 1.4459506 7
0.93897009 -4.2849412 1.0127298 37
1.0795944 -4.9390416 1.354659 21
0.59630281 -2.7626779 -0.75730455 29
0.65706813 -3.0519516 -0.72074324 15
0.73889393 -3.4437003 -0.6846227 17
0.84540594 -3.9501932 -0.63981706 17
0.99957693 -4.6825423 -0.58789778 12
1.0671325 -5.0161562 -0.44867775 5
0.97631645 -4.6011024 -0.24650237 16
0.94404149 -4.4604998 -0.079582974 3
0.93342507 -4.3319006 0.077349067 11
0.92582542 -4.3075833 0.23090626 16
1.0299046 -4.8040762 0.4298521 23
3.9140646 -18.319859 2.3001621 5
0.8798359 -4.1286731 0.66860098 10
nan nan nan nan
1.0725858 -5.0634995 1.1949401 32
0.89972585 -4.2584524 1.1662387 4
0.57857877 -2.7743382 -0.75937515 34
0.63812649 -3.0679116 -0.72344261 10
0.72160858 -3.4814553 -0.69111025 19
0.82140738 -3.9734092 -0.6426329 14
0.97487932 -4.7282906 -0.59277254 39
0.95951217 -4.6702399 -0.41712737 16
0.92051649 -4.4923663 -0.24032672 24
0.91167718 -4.4611039 -0.079478264 21
0.90601337 -4.352015 0.077593401 13
0.90182102 -4.3432751 0.23247635 18
0.99068493 -4.7838354 0.42741176 15
1.5193236 -7.3624139 0.92303848 1
1.5168124 -7.3697371 1.1917179 19
1.5356443 -7.4810743 1.4844941 9
0.85210592 -4.1658978 0.98168647 30
0.85221183 -4.1775579 1.1424273 1
0.56148386 -2.7896729 -0.76248091 31
0.6163094 -3.0703814 -0.72299278 26
0.69728631 -3.4864085 -0.69111025 13
0.78978378 -3.9596744 -0.63950419 14
0.93293917 -4.6902013 -0.58716655 22
0.94586349 -4.7725892 -0.42566866 14
0.91004318 -4.6044888 -0.24597903 10
0.87625682 -4.4457784 -0.079094306 24
0.89924163 -4.4758654 0.079687685 5
0.86441493 -4.3142152 0.23059224 25
0.97795516 -4.8941846 0.43665028 9
1.657042 -8.3229198 1.0419829 7
1.4707109 -7.4072723 1.1960981 33
1.4807107 -7.4781318 1.4818227 31
0.84638673 -4.2902827 1.0095805 16
0.84689337 -4.3047185 1.1755562 15
0.54273045 -2.7973175 -0.76351619 28
0.59708077 -3.0860884 -0.72569215 11
0.67850327 -3.5201077 -0.6968345 9
0.77069706 -4.0097089 -0.64670014 21
0.89905161 -4.6907511 -0.58643532 19
0.88972831 -4.6596971 -0.41503564 2
0.90776068 -4.7676911 -0.25435278 12
0.84780896 -4.4655395 -0.07933864 16
0.84059876 -4.340683 0.077174544 11
0.84449977 -4.3730922 0.23341838 25
0.9735269 -5.0554519 0.45042086 19
1.3973048 -7.2834826 0.91060776 11
1.4033735 -7.3358712 1.1829575 35
1.4935817 -7.829628 1.5493692 29
0.87426227 -4.6004887 1.0811149 14
0.81933838 -4.323813 1.1791797 4
0.52496183 -2.8105335 -0.7661044 34
0.57908928 -3.1093395 -0.73019117 8
0.65713471 -3.5421317 -0.70026904 7
0.74627823 -4.0344157 -0.64982885 17
0.86844301 -4.7086267 -0.58789778 19
0.85897589 -4.6755929 -0.4159072 23
0.85430288 -4.6638961 -0.24849114 8
0.82236183 -4.5028238 -0.079897113 22
0.82493401 -4.4250784 0.078570738 26
0.82197934 -4.4220815 0.23572117 21
0.91787672 -4.9524198 0.44065943 8
1.3583163 -7.3574796 0.91865122 20
1.3521261 -7.3454895 1.1829575 26
1.3789898 -7.5135255 1.4848757 11
0.78675294 -4.3035984 1.0100303 34
0.78601474 -4.3123226 1.1745209 22
0.50840074 -2.831243 -0.77076316 12
0.55908495 -3.1228979 -0.73244065 21
0.63411355 -3.5562971 -0.70217711 12
0.71947801 -4.047307 -0.65108031 17
0.84559596 -4.7712584 -0.59496623 18
0.85139632 -4.8186712 -0.42810899 7
0.81410694 -4.626471 -0.24618836 16
0.78676045 -4.4848204 -0.079478264 21
0.81024778 -4.5212731 0.080176361 11
0.78019863 -4.3667622 0.23247635 18
1.2599318 -7.0732188 0.62856722 8
1.3103868 -7.3863287 0.92108858 36
1.3286792 -7.5123105 1.2083 36
1.3397985 -7.5983725 1.4997588 6
0.80163974 -4.5602841 1.0689675 14
nan nan nan nan
0.48927918 -2.8385308 -0.77179843 22
0.54584992 -3.1766603 -0.74413812 21
0.61254352 -3.5760114 -0.70523006 13
0.69822943 -4.0891075 -0.65702486 15
0.82058471 -4.8259706 -0.60105962 22
0.81440592 -4.8048544 -0.42636588 7
1.1785542 -6.9754291 -0.37074795 5
0.75874895 -4.5099235 -0.079827309 33
0.76418346 -4.4380026 0.078605637 20
0.7599178 -4.4270883 0.23540714 28
1.3155954 -7.6965446 0.68312669 3
1.2540762 -7.3598533 0.91670126 62
1.2857833 -7.5698671 1.2161217 35
0.72292012 -4.2741609 0.84261262 7
0.71567822 -4.2448587 0.99383384 4
0.72648317 -4.3227496 1.1745209 26
0.47341365 -2.8627613 -0.77749246 17
0.52421474 -3.1803021 -0.74413812 30
0.58597404 -3.5705137 -0.70332199 15
0.67572439 -4.1309218 -0.66296935 15
0.79697973 -4.8882618 -0.60812807 22
0.99983519 -6.159544 -0.54594356 19
0.76842326 -4.7496386 -0.25215468 6
0.74840719 -4.6413317 -0.082061216 10
0.76573861 -4.6405306 0.082096115 11
0.74163395 -4.5091467 0.23948936 18
1.1497191 -7.0132384 0.62176907 3
1.2272885 -7.5192852 0.93546921 36
1.2370297 -7.6040058 1.220189 19
0.69506741 -4.2867341 0.84413904 7
3.1400678 -19.451897 4.5489602 7
0.69475269 -4.3181801 1.1719327 12
0.45583194 -2.8812613 -0.78163356 26
0.49957123 -3.1684847 -0.7405389 12
0.57107848 -3.6385214 -0.71591538 9
0.64595288 -4.1296835 -0.66203076 15
0.76894933 -4.9329348 -0.61300284 18
0.96597391 -6.2254386 -0.55117291 19
0.73127806 -4.7292285 -0.25079393 6
0.76258188 -4.9488282 -0.087401658 1
0.72833496 -4.6141596 0.081537649 17
0.72844869 -4.630621 0.245665 16
1.2741562 -8.127305 0.71973211 1
1.1824162 -7.5767031 0.94156259 40
1.2318772 -7.9208584 1.2696222 40
0.66873223 -4.3147635 0.84871852 11
0.72765005 -4.7166667 1.1018103 14
0.66576385 -4.3305626 1.1740032 16
0.4345516 -2.8767326 -0.77956301 22
0.48324087 -3.2104359 -0.74953699 22
0.54508162 -3.6385365 -0.71515214 13
0.62264806 -4.1712132 -0.66797519 28
0.74033308 -4.9774528 -0.6178776 15
0.93934965 -6.3382959 -0.56058574 9
1.2487377 -8.4666634 -0.4485192 3
0.7160936 -4.8729148 -0.085970551 5
0.68865448 -4.5696974 0.080665022 19
0.70173836 -4.673121 0.24765378 39
1.168443 -7.8089075 0.69079643 15
1.1563917 -7.7654099 0.96398658 25
1.1527746 -7.7690392 1.2439669 19
0.63888031 -4.3212686 0.84910011 6
0.69780046 -4.7369337 1.1054095 16
0.6764257 -4.6141725 1.2495784 4
0.41720968 -2.8988178 -0.78473938 27
0.45943302 -3.2040863 -0.74728745 23
0.52030265 -3.6421623 -0.71515214 4
0.59591103 -4.187089 -0.66985244 14
0.70695817 -4.9923277 -0.61909634 16
0.90899307 -6.4433427 -0.56930131 15
1.0309713 -7.3357415 -0.38822815 2
0.97365552 -6.9631863 -0.12272533 2
0.68484837 -4.764297 0.084015884 17
0.68860108 -4.8082767 0.25456211 14
1.1720803 -8.225173 0.72687888 7
1.0797919 -7.6060433 0.94326878 11
1.1242096 -7.9488258 1.2714995 40
2.9928722 -21.268459 4.174901 52
0.71422195 -5.0948563 1.1877416 4
0.67225593 -4.8138247 1.3023775 22
0.3966822 -2.8958488 -0.7831865 25
0.44288248 -3.2457561 -0.75628549 18
0.49803171 -3.6690509 -0.71973157 10
0.57142979 -4.2263832 -0.67548412 15
0.6803785 -5.0521092 -0.62592101 16
0.86829287 -6.4730763 -0.57139301 15
1.1318834 -8.4830751 -0.4485192 21
0.62750119 -4.7217612 -0.083143272 7
0.67918181 -4.9710526 0.087576173 10
0.95316702 -7.0037374 0.37043396 11
1.0804707 -7.9703751 0.70369548 35
1.0980281 -8.1425972 1.0088346 11
nan nan nan nan
2.9115565 -21.763144 4.2680159 40
0.60874236 -4.5683908 1.0640185 9
0.6449784 -4.8662786 1.3153185 18
0.37844619 -2.9138734 -0.78732753 16
0.4169623 -3.2236445 -0.75043678 25
0.47705922 -3.7035108 -0.72583747 9
0.54239756 -4.2282157 -0.6751712 16
0.64283127 -5.0390134 -0.62372732 15
0.83839858 -6.5995474 -0.58202606 12
0.94025856 -7.4324803 -0.39262438 2
0.88654131 -7.0473752 -0.1239819 23
0.90099245 -6.9467478 0.12227156 17
0.93105745 -7.2081437 0.38090113 12
1.0095695 -7.8591552 0.69323677 7
1.0589514 -8.2778692 1.0246775 13
1.0282369 -8.0713444 1.2887073 5
2.818521 -22.248434 4.3592224 49
0.56585854 -4.4855261 1.0437729 7
0.6111179 -4.8648052 1.3137655 25
0.36001825 -2.9278865 -0.79043341 15
0.39500996 -3.2264082 -0.75043678 28
0.45285276 -3.7203929 -0.72850877 12
0.51595533 -4.2573924 -0.6792385 15
0.62468749 -5.1772866 -0.64030159 4
0.78822941 -6.5615816 -0.57819116 15
0.88929534 -7.4467959 -0.39304307 5
0.86452025 -7.2716742 -0.12782143 16
0.85296059 -6.9568381 0.12234137 21
0.89354032 -7.3195419 0.38644874 17
1.0175925 -8.3721704 0.7378605 10
nan nan nan nan
0.96997571 -8.0626373 1.2862043 17
2.7295902 -22.789522 4.4614964 50
0.54131305 -4.5395851 1.0554705 14
0.58140665 -4.8976283 1.3215301 15
0.3427529 -2.9532967 -0.79664505 15
0.37348697 -3.2328939 -0.75133657 28
0.42550319 -3.7058353 -0.72507423 16
0.48898348 -4.2784696 -0.68205434 16
0.59391975 -5.2208662 -0.64517635 16
0.75565255 -6.6737008 -0.58760399 18
0.84684902 -7.5261126 -0.39691594 20
0.81589442 -7.2853394 -0.12796104 16
0.81500965 -7.0439277 0.12377247 21
0.85740829 -7.4445038 0.39272904 7
5.2431445 -45.734596 4.0274668 24
3.6800067 -32.248955 3.9853714 12
3.6326926 -32.032825 5.1060219 45
2.6371641 -23.363571 4.5702572 45
0.51279366 -4.564466 1.0604193 26
0.53667837 -4.7997179 1.2940953 10
0.32327172 -2.9613225 -0.79819798 25
0.35441953 -3.2624838 -0.75763524 23
0.40342849 -3.7379243 -0.73079848 13
0.46364641 -4.3170524 -0.68768603 22
0.56187999 -5.2663369 -0.6502949 4
0.71998203 -6.7818384 -0.59666818 15
0.78465176 -7.4404736 -0.39210105 11
0.76835299 -7.3226781 -0.12851952 16
0.77396703 -7.1129265 0.12488942 29
0.81961668 -7.5693069 0.39900938 18
4.8205876 -44.811302 3.9431 23
3.4484384 -32.214649 3.9780595 64
3.4210529 -32.117702 5.1157203 30
nan nan nan nan
2.4527314 -23.297049 5.4082737 20
0.50010842 -4.7823005 1.2884012 13
0.30266044 -2.969326 -0.79975086 18
0.33519313 -3.3056512 -0.76708311 13
0.38178426 -3.7915034 -0.74072057 13
0.43471125 -4.3399153 -0.69081473 18
0.53380758 -5.3670149 -0.66223812 4
0.67300236 -6.8026791 -0.59806269 18
0.75774693 -7.7142363 -0.40623173 2
0.71787792 -7.3478913 -0.12886856 19
0.72325122 -7.1202717 0.12492433 21
0.75840396 -7.5054278 0.39534587 7
4.4055181 -43.904972 3.8604765 21
3.2245347 -32.30566 3.9863467 77
3.1993339 -32.223923 5.1288614 30
3.1681316 -32.137791 6.277235 13
0.47312745 -4.825326 1.1193565 13
0.47710526 -4.9011221 1.3194594 12
