# .PCD v0.7 - Point Cloud Data file format
VERSION 0.7
FIELDS x y z intensity
SIZE 4 4 4 4
TYPE F F F F
COUNT 1 1 1 1
WIDTH 1413
HEIGHT 1
VIEWPOINT 0 0 0 1 0 0 0
POINTS 1413
DATA ascii
nan nan nan nan
1.8264549 -1.1671684 -0.58078998 12
1.9846191 -1.2697051 -0.54393172 9
2.2167063 -1.4203699 -0.51174974 9
2.4707325 -1.5849645 -0.46492329 6
2.8411624 -1.824694 -0.41459954 6
3.3165376 -2.1324506 -0.34496242 4
3.8386672 -2.4719558 -0.23928 6
4.4386973 -2.8616414 -0.092183605 6
5.2645259 -3.3668046 0.10907754 3
6.1511912 -3.9383907 0.3827852 32
nan nan nan nan
nan nan nan nan
5.9939027 -3.8524508 1.1285183 45
5.9369535 -3.8202419 1.3722984 76
5.8779693 -3.7866411 1.6142489 100
5.8227839 -3.7568445 1.8567679 100
1.818262 -1.179891 -0.58078998 12
1.9789751 -1.2856524 -0.54483151 9
2.2053409 -1.4343551 -0.5113681 7
2.4582314 -1.6006674 -0.4646104 5
2.838331 -1.8509909 -0.416062 8
3.3149161 -2.1642659 -0.34635693 4
3.8535163 -2.5187895 -0.24126878 6
4.4253039 -2.8969409 -0.092323236 4
5.2616143 -3.4156263 0.1094964 3
6.1342893 -3.9866991 0.38341326 32
6.1098762 -3.9769025 0.6378057 2
6.0421815 -3.9373457 0.8855027 7
6.0767341 -3.9643965 1.1491677 7
nan nan nan nan
5.9737024 -3.9075923 1.6479915 84
5.8180866 -3.8101504 1.8634971 100
1.8053488 -1.1890523 -0.57923704 12
1.9766855 -1.3033839 -0.5466311 9
2.1838057 -1.442143 -0.50869679 9
2.4568839 -1.6243265 -0.46648762 6
2.8389084 -1.8790326 -0.41801187 8
3.3013864 -2.1884561 -0.34653121 3
3.8441591 -2.5511532 -0.24179214 8
4.4154763 -2.933635 -0.092532657 6
5.9105034 -3.8957787 0.12356304 11
6.1346464 -4.0481272 0.38519266 30
6.1059375 -4.0337739 0.64024603 1
6.0344129 -3.9925764 0.88842762 8
6.1180773 -4.0525393 1.1623082 10
nan nan nan nan
nan nan nan nan
nan nan nan nan
1.8002154 -1.2037745 -0.58027232 12
1.9756349 -1.3225724 -0.54888058 8
2.1965141 -1.4726598 -0.51403946 9
2.4487643 -1.643641 -0.46711335 6
2.8356075 -1.905449 -0.4194743 8
3.2975986 -2.2192376 -0.34775141 4
3.844475 -2.590203 -0.24294353 6
4.414782 -2.977808 -0.092951514 6
5.9280329 -3.9669745 0.12450547 9
6.122829 -4.1019726 0.38623938 30
6.0859017 -4.0818515 0.64111763 2
6.0294623 -4.0501027 0.89183992 8
6.151927 -4.1370406 1.1741973 14
nan nan nan nan
nan nan nan nan
nan nan nan nan
1.802956 -1.2239081 -0.5838958 12
1.9663535 -1.3363324 -0.54888058 9
2.1845565 -1.4868535 -0.51365787 9
2.432333 -1.6573595 -0.46617478 6
2.835355 -1.934148 -0.42142424 6
3.2918961 -2.2489481 -0.34879729 5
3.8180559 -2.6113422 -0.24242018 6
4.4202852 -3.0266323 -0.093509994 4
5.9398928 -4.0352311 0.12534317 14
6.125422 -4.1659589 0.38822815 30
6.0918417 -4.1477871 0.64477819 1
6.0108805 -4.0988083 0.89330238 8
6.163681 -4.2077322 1.182019 19
24.494665 -16.740467 5.7670112 10
7.7945766 -5.3350596 2.1806755 12
8.5545292 -5.8617949 2.7786813 2
1.7895955 -1.2331768 -0.58234286 11
1.9585805 -1.3511342 -0.54933053 9
2.1886601 -1.5121118 -0.51709241 9
2.446697 -1.6922787 -0.47118065 7
2.8283112 -1.9584156 -0.42239916 8
3.2990367 -2.2877703 -0.35123762 5
3.816139 -2.6493235 -0.2434669 8
4.435173 -3.0825253 -0.094277903 4
5.94944 -4.1027117 0.12614599 14
6.1093383 -4.2176981 0.38906553 34
6.0627365 -4.1902146 0.64477819 3
6.0066028 -4.157618 0.89695841 10
6.1779947 -4.2810373 1.1904664 38
24.483662 -16.984921 5.7921982 10
7.7491388 -5.3837867 2.178426 8
nan nan nan nan
1.7872751 -1.2500693 -0.58441341 12
1.9491001 -1.3647747 -0.54933053 9
2.1764431 -1.5262274 -0.51671082 7
2.4380567 -1.7115886 -0.47180638 7
2.8210666 -1.9826788 -0.42337415 6
3.2960188 -2.3199198 -0.35263211 7
3.8138766 -2.6874046 -0.24451362 8
4.4168124 -3.1157186 -0.094347708 6
5.8813353 -4.1166248 0.12530828 14
6.0895581 -4.2671232 0.38969359 34
6.0692191 -4.2576108 0.64861304 1
6.0082927 -4.2211328 0.90158945 8
6.1705775 -4.3399734 1.1948466 100
24.483278 -17.239073 5.8204379 10
nan nan nan nan
7.3229127 -5.1695757 2.4018409 2
1.776929 -1.261398 -0.5838958 12
1.9490558 -1.3851216 -0.55202997 9
2.159337 -1.5368309 -0.51518428 7
2.4389184 -1.7377375 -0.47430936 8
2.8168528 -2.0092416 -0.42483655 8
3.2862275 -2.3475065 -0.35332939 5
3.8112683 -2.7255828 -0.24556033 8
4.4128389 -3.1592822 -0.094731666 8
6.0138431 -4.2722363 0.12876385 13
6.0872898 -4.3292103 0.391473 34
6.0507092 -4.3079672 0.6498332 1
6.006155 -4.2825665 0.90573299 10
6.1497755 -4.389832 1.1967238 100
24.522064 -17.523726 5.8585997 11
26.030611 -18.629217 7.3900924 20
7.1987019 -5.1575661 2.372853 2
1.7712142 -1.2760308 -0.58493102 12
1.9456605 -1.4032545 -0.55382955 9
2.1644704 -1.5633637 -0.51900047 7
2.423526 -1.7524071 -0.47368363 8
2.8091891 -2.0335135 -0.42581153 8
3.272985 -2.37273 -0.35367799 5
3.805079 -2.7615085 -0.2463977 8
4.4214134 -3.2123449 -0.09539485 8
6.0292897 -4.3468614 0.12974119 14
6.0812101 -4.3891344 0.39304307 31
6.0204864 -4.3501034 0.6498332 1
5.9986253 -4.3406858 0.90914541 10
6.1541734 -4.4581532 1.2036068 100
nan nan nan nan
nan nan nan nan
7.1531453 -5.2008796 2.3697472 2
1.7685012 -1.2929256 -0.58700162 12
1.9358166 -1.4168036 -0.55382955 9
2.1535034 -1.578436 -0.51900047 7
2.4112329 -1.7692837 -0.47368363 7
2.8077228 -2.0624776 -0.42776144 8
3.2531307 -2.3931606 -0.35332939 5
3.801789 -2.7998493 -0.24744442 8
4.4149752 -3.2550001 -0.095743902 6
6.0246181 -4.4077396 0.13029967 13
6.0778122 -4.4515448 0.39482248 31
6.0446 -4.4320846 0.65575975 1
5.9681759 -4.3824577 0.90914541 10
6.1340404 -4.5091982 1.205797 100
nan nan nan nan
7.2945976 -5.3760757 2.0920448 2
8.8079967 -6.4985623 2.9329376 2
1.7609835 -1.3063917 -0.58751929 12
1.9196204 -1.4256359 -0.55202997 9
2.1534591 -1.6016335 -0.52167183 9
2.4241734 -1.8049492 -0.47868952 8
2.8059886 -2.0915194 -0.42971134 8
3.2463465 -2.4223971 -0.35437521 5
3.7917497 -2.8334959 -0.24807246 8
4.3953462 -3.2881389 -0.095813714 6
6.0338397 -4.4794908 0.13117228 14
6.0610142 -4.5045896 0.39576453 31
6.0294962 -4.4860682 0.65750289 1
5.9629045 -4.4429932 0.91304523 10
6.1214128 -4.5660849 1.2095515 100
nan nan nan nan
nan nan nan nan
9.647006 -7.222136 3.2290266 2
1.761081 -1.3256243 -0.59062505 12
1.9251844 -1.4507303 -0.55652899 9
2.1393723 -1.6138897 -0.52090853 9
2.414984 -1.823789 -0.47931525 8
2.7944853 -2.1134527 -0.43019882 8
3.2452407 -2.4570286 -0.35611835 5
3.7882919 -2.8713038 -0.24911918 8
4.4455528 -3.3743584 -0.097419336 17
6.0287681 -4.5397038 0.13173077 14
6.0461602 -4.5577636 0.39681125 31
6.0107517 -4.5376558 0.6588974 3
5.949945 -4.4966435 0.9157263 10
6.1090946 -4.6219482 1.2133058 94
nan nan nan nan
7.437151 -5.6410146 2.1550314 2
9.680707 -7.3507195 3.256979 2
1.748946 -1.3352365 -0.58958983 12
1.9214581 -1.4685342 -0.55832857 10
2.1311715 -1.6311725 -0.52167183 9
2.4178729 -1.8526186 -0.48244393 7
2.7816098 -2.1336329 -0.43044254 9
3.2311687 -2.4820518 -0.35646698 5
3.783987 -2.9098561 -0.25016591 8
4.5460768 -3.4996865 -0.10014191 15
6.0541325 -4.6253862 0.13298734 11
6.0490961 -4.6265564 0.39911404 31
6.0129471 -4.6039004 0.66255796 1
5.9483385 -4.5610223 0.92035741 7
6.093915 -4.6777153 1.2167474 89
nan nan nan nan
7.3759665 -5.676158 2.1487324 2
7.5570188 -5.8217893 2.556097 2
1.7349998 -1.3438647 -0.58803689 12
1.915779 -1.4854952 -0.55967826 10
2.1259344 -1.6508272 -0.52319831 9
2.3955228 -1.8621792 -0.48056671 8
2.7870128 -2.1688492 -0.43361115 8
3.213762 -2.5045493 -0.35646698 5
3.7761779 -2.9460301 -0.25100327 8
4.5893021 -3.5842652 -0.10164282 13
5.985343 -4.6393623 0.13218452 14
6.0403185 -4.6870399 0.40068412 31
5.9838061 -4.6482105 0.66290659 1
5.9445543 -4.6243773 0.92474467 10
6.0891633 -4.7419915 1.2223791 85
nan nan nan nan
7.3760967 -5.7586932 2.16043 2
7.6379595 -5.9695749 2.597508 4
1.7346896 -1.3631061 -0.59114271 9
1.9022987 -1.4964238 -0.55877846 10
2.1205268 -1.6704886 -0.52472478 9
2.397975 -1.8910897 -0.48369545 7
2.7811518 -2.1956332 -0.43507358 8
3.2279029 -2.5510743 -0.35995319 5
3.7649152 -2.979758 -0.25163129 8
4.6143231 -3.6559565 -0.10275977 9
6.064414 -4.768796 0.13466278 39
6.038837 -4.7538028 0.40277758 31
5.9856377 -4.7170024 0.66674143 1
5.9308252 -4.6805229 0.92766953 10
6.0745106 -4.7990804 1.2261335 87
nan nan nan nan
7.312283 -5.7894125 2.1532316 2
7.2146292 -5.7202945 2.4670632 7
1.7281524 -1.3775917 -0.59217799 11
1.8872358 -1.5060213 -0.55742878 9
2.1167765 -1.6910105 -0.52663285 9
2.3943036 -1.9147707 -0.48557264 7
2.7564592 -2.2075505 -0.43361115 8
3.2037966 -2.5685613 -0.35925597 7
3.7523341 -3.0115662 -0.25215468 12
4.792871 -3.85219 -0.1073323 9
6.0834079 -4.8511076 0.13581464 42
6.0219479 -4.8072577 0.4038243 33
5.9696794 -4.7723598 0.66865885 1
5.9220767 -4.7393885 0.93132555 8
6.0632863 -4.8576088 1.2305136 84
6.0181122 -4.8283186 1.4997588 11
7.251936 -5.8244572 2.147383 2
7.2176805 -5.803164 2.4815571 2
1.7292521 -1.3978239 -0.59580147 11
1.8905748 -1.5298648 -0.56147784 8
2.1003435 -1.7020389 -0.52548802 9
2.3839459 -1.9339283 -0.48619837 8
2.7506149 -2.2337704 -0.43507358 8
3.2016985 -2.6028779 -0.36099908 7
3.7498043 -3.0528204 -0.25341073 6
4.8502445 -3.9529443 -0.10921716 9
6.0696039 -4.9098077 0.13626839 39
6.0115223 -4.8680353 0.40539435 33
5.9664636 -4.8367214 0.67197078 1
5.911963 -4.7993846 0.9349817 7
6.0522208 -4.9185066 1.2352067 19
nan nan nan nan
nan nan nan nan
5.9613638 -4.8619695 2.061235 3
1.7194515 -1.4098622 -0.59580147 12
1.8964176 -1.5566267 -0.56642681 10
2.1008444 -1.7262672 -0.52854097 9
2.3737781 -1.9526201 -0.48682413 8
2.7349534 -2.2529185 -0.43507358 8
3.2049692 -2.6429119 -0.36343944 5
3.7443404 -3.0909891 -0.25445744 6
4.9042153 -4.0542364 -0.11106712 14
6.0515041 -4.9636908 0.13661744 40
6.0106635 -4.9354577 0.40759248 30
5.9387074 -4.8833184 0.67266804 3
5.908278 -4.8634849 0.93961275 7
3.8569057 -3.1782572 0.7915585 4
5.9979095 -4.9495721 1.5115889 76
5.9374728 -4.9049263 1.7780132 100
nan nan nan nan
1.7095668 -1.4218317 -0.59580147 12
1.901978 -1.5835438 -0.57137573 10
2.0929613 -1.7450277 -0.5296858 7
2.3718772 -1.9796826 -0.48932707 7
2.730947 -2.2826161 -0.43702352 6
3.1859751 -2.6657784 -0.36343944 5
3.7267191 -3.1215508 -0.25477144 6
4.9486184 -4.1509123 -0.11274255 10
6.0434961 -5.0298924 0.13724573 30
6.0074162 -5.0051904 0.40979058 35
5.9519029 -4.96422 0.67807168 1
5.9037962 -4.9310894 0.94448751 8
3.7719309 -3.1538236 0.77873087 10
5.8660011 -4.9117007 1.4871653 49
5.8648853 -4.9159923 1.7667657 53
5.8159451 -4.8801575 2.0343177 54
1.7008253 -1.4352746 -0.59631914 12
1.8831545 -1.5908256 -0.56912625 10
2.0912216 -1.7684708 -0.53235716 9
2.3516204 -1.9914982 -0.48807558 7
2.72403 -2.3093283 -0.43848595 8
3.1733634 -2.6931129 -0.36413667 7
3.7332029 -3.1727135 -0.25676021 6
4.9636879 -4.2229357 -0.11375479 17
6.0387945 -5.0977597 0.13794382 40
5.9927998 -5.0661016 0.41125599 33
5.9542494 -5.0388603 0.68242943 1
5.8858876 -4.9863 0.94716859 10
nan nan nan nan
nan nan nan nan
5.7903352 -4.9227362 1.7546183 44
5.7455716 -4.8915944 2.0218945 97
1.6995699 -1.4546506 -0.59942496 12
1.8586839 -1.5925221 -0.56507707 9
2.0844731 -1.7885036 -0.53388357 9
2.3556418 -2.0233121 -0.49182999 7
2.7078416 -2.3282888 -0.43848595 6
3.1726055 -2.730798 -0.36622843 5
3.7245777 -3.2104342 -0.25770226 8
4.9764771 -4.2940645 -0.11473212 12
6.0340557 -5.1681585 0.13867682 50
5.9815459 -5.1286159 0.41293073 30
5.9310217 -5.0906868 0.68382394 1
5.8741431 -5.0489936 0.95106846 10
6.0194516 -5.1793737 1.2577332 91
3.720279 -3.2044661 0.95442665 16
nan nan nan nan
nan nan nan nan
1.6995853 -1.4753449 -0.60304838 12
1.8622304 -1.6182414 -0.56957608 9
2.0722511 -1.8026506 -0.53388357 9
2.3582017 -2.0535696 -0.49527156 7
2.6975055 -2.3523552 -0.4394609 8
3.1624689 -2.7607422 -0.36727428 9
3.7507644 -3.2777686 -0.26105177 8
4.9885135 -4.3655758 -0.11570945 7
6.0319548 -5.2379556 0.13944472 48
5.9691086 -5.1888666 0.41450083 30
5.9299006 -5.1620569 0.68783307 1
5.8710675 -5.1162477 0.95618695 10
6.0048985 -5.2384062 1.2621135 92
3.7347798 -3.2626505 0.96396708 12
8.8294706 -7.7214537 2.7079608 4
7.3709722 -6.4527988 2.6249428 7
1.6837028 -1.4817742 -0.60097784 12
1.8657945 -1.6437619 -0.5740751 9
2.0713933 -1.8274642 -0.53693652 9
2.354172 -2.0791359 -0.49746165 8
2.6963034 -2.3838103 -0.44189829 8
3.1550527 -2.7933187 -0.36866876 7
3.7113478 -3.2893012 -0.25990039 21
5.0170202 -4.4511881 -0.11707074 10
6.0237536 -5.3050504 0.14010793 42
5.9567089 -5.2515445 0.41617554 22
5.9050832 -5.2115293 0.6890533 7
5.8619809 -5.1807733 0.96057427 7
5.9903731 -5.2998347 1.2668065 89
3.7727439 -3.3413649 0.97961342 5
3.8256385 -3.3929803 1.1805432 1
8.5522385 -7.5930328 3.0644176 1
1.6761997 -1.4960654 -0.60201317 12
1.8571801 -1.6593443 -0.57497495 9
2.0585849 -1.8418807 -0.53693652 10
2.3351855 -2.0915666 -0.49652308 8
2.6855075 -2.4078765 -0.44287321 8
3.1325097 -2.8126144 -0.36832017 9
3.7343421 -3.3565204 -0.26314521 4
3.3788834 -3.0402253 -0.07933864 4
6.0089417 -5.3669553 0.1406315 47
5.9362793 -5.3076463 0.41732696 11
5.9086404 -5.2885036 0.69375974 1
5.8374953 -5.2321701 0.96252412 7
5.9855738 -5.3705478 1.2736895 56
3.53754 -3.1773982 0.92427886 27
3.4613717 -3.1133523 1.0748162 3
7.3562474 -6.6235952 2.6523776 2
1.6771723 -1.518102 -0.6061542 11
1.839774 -1.6670352 -0.57317531 9
2.063123 -1.8720384 -0.54151595 10
2.3176022 -2.1051617 -0.49589729 8
2.6745069 -2.4319079 -0.44384819 8
3.128027 -2.8472831 -0.37006328 7
3.5676403 -3.2519982 -0.25299203 6
3.39746 -3.1001329 -0.080281071 21
5.9891124 -5.4248838 0.14105035 45
5.9212747 -5.3690834 0.41889706 2
5.8907547 -5.3470335 0.69602579 1
3.5709822 -3.2459276 0.59252882 11
nan nan nan nan
3.5326881 -3.2178814 0.92885822 28
3.4041002 -3.1040154 1.0635686 30
3.4737377 -3.171958 1.2604488 1
1.6693797 -1.5323869 -0.60718954 12
1.8367008 -1.6877499 -0.57587475 10
2.0604472 -1.8953422 -0.54418731 10
2.309032 -2.1262407 -0.49714881 8
2.6560044 -2.4491744 -0.44360444 8
3.1256404 -2.8852682 -0.37215498 5
3.6187656 -3.3439813 -0.25822562 4
3.3786697 -3.1264925 -0.080350876 40
5.9859252 -5.4966326 0.14185315 43
5.8963547 -5.4200768 0.41973442 2
5.8723388 -5.4055691 0.69829178 1
5.8246536 -5.367311 0.97251743 10
3.5573192 -3.2814503 0.76652896 28
nan nan nan nan
3.496809 -3.2335491 1.0995607 9
3.5073559 -3.2467105 1.2806368 18
1.6673959 -1.5516105 -0.6102953 11
1.829448 -1.7041976 -0.57722449 11
2.0486007 -1.9110196 -0.5445689 11
2.3143444 -2.1611838 -0.50152892 8
2.627671 -2.4563515 -0.44165453 6
3.1083305 -2.9097419 -0.37250364 7
3.6827743 -3.4511051 -0.26450595 2
3.3383505 -3.1316319 -0.079897113 12
5.9839916 -5.5723567 0.14272578 47
5.9051223 -5.5046887 0.42308393 2
5.8878484 -5.4943514 0.70456702 1
3.2851248 -3.0698662 0.55206817 15
5.967958 -5.5827632 1.2943389 89
3.5080478 -3.2850707 0.93420094 20
3.4713068 -3.2552166 1.0986611 17
3.4916472 -3.2777278 1.2832248 15
1.656523 -1.5632132 -0.6102953 11
1.8373382 -1.7356631 -0.58352309 11
2.0380619 -1.9279733 -0.54533213 11
2.3020689 -2.1800048 -0.50215465 8
2.6248653 -2.4882932 -0.44409195 5
3.0908313 -2.9341147 -0.37285227 3
3.2807155 -3.1176386 -0.23718657 28
3.2613504 -3.1024873 -0.078570738 30
5.9754753 -5.6428289 0.14345878 43
5.8897705 -5.5677323 0.42475864 2
3.426832 -3.2428603 0.41276959 15
3.2736993 -3.1022837 0.55377436 20
nan nan nan nan
nan nan nan nan
3.3002198 -3.1383657 1.0514213 17
3.4798732 -3.3126805 1.287366 13
1.6469653 -1.5760754 -0.61081296 12
1.8265837 -1.7497958 -0.58397299 11
2.0330532 -1.9503089 -0.54762185 11
2.2839441 -2.1932864 -0.50152892 8
2.6131542 -2.5120602 -0.44506687 8
3.0817552 -2.9666755 -0.37424675 5
3.2372985 -3.119678 -0.23561651 24
3.2352941 -3.1210151 -0.078466021 30
5.9561558 -5.7037706 0.14394745 43
5.9026608 -5.6584716 0.42852688 2
3.3753581 -3.2391148 0.40928334 32
3.5797341 -3.4400449 0.60959053 30
3.2472293 -3.1237872 0.7136541 21
3.4377985 -3.3105793 0.92771345 30
3.3189094 -3.2005587 1.0644685 4
3.2592967 -3.1463666 1.2138613 81
1.642854 -1.5942618 -0.61340117 11
1.8185167 -1.7665784 -0.58532268 11
2.0264244 -1.9712996 -0.54952991 10
2.2685766 -2.2091777 -0.50152892 8
2.6040816 -2.5385563 -0.44652933 8
3.0581179 -2.9853342 -0.37389815 7
3.2325814 -3.1589532 -0.23687255 12
3.233439 -3.1631024 -0.078954689 37
5.9448824 -5.7730761 0.14464554 43
3.3496804 -3.2562845 0.24482764 12
3.5597053 -3.4640803 0.43455851 12
3.5229323 -3.4330871 0.60398453 11
3.2182722 -3.1394837 0.71208972 21
3.2067201 -3.1314933 0.87123388 8
3.5514531 -3.4729862 1.1468005 16
3.1820321 -3.1149883 1.1931559 17
1.6371917 -1.611112 -0.61547172 12
1.8075277 -1.7805985 -0.58577257 11
2.0126126 -1.9853987 -0.54952991 10
2.2615316 -2.2332895 -0.50340617 8
2.591943 -2.5622563 -0.44750425 6
3.0485294 -3.0178244 -0.37529263 7
3.5495114 -3.5174422 -0.26188916 9
3.2027595 -3.1771491 -0.078745253 37
5.9571528 -5.8663526 0.14593703 9
3.345356 -3.2978175 0.24618836 28
3.4872181 -3.4412661 0.42863193 42
nan nan nan nan
3.5403395 -3.5022349 0.78874266 12
nan nan nan nan
3.2738991 -3.2465858 1.0644685 17
nan nan nan nan
1.6313741 -1.6279609 -0.61754227 11
1.8088398 -1.8069463 -0.59027159 10
1.9987031 -1.9994007 -0.54952991 10
2.2598438 -2.263001 -0.50653487 8
2.5767956 -2.5830996 -0.44799173 8
3.0414476 -3.0531485 -0.37703574 8
3.2107017 -3.2264307 -0.23854731 6
3.2101071 -3.229213 -0.079478264 42
3.3690791 -3.3643785 0.083108358 2
3.3250768 -3.3239162 0.2463977 9
nan nan nan nan
nan nan nan nan
3.1253135 -3.1351473 0.70113939 16
nan nan nan nan
3.2676435 -3.2859442 1.0698673 14
3.2621255 -3.2838328 1.240261 4
1.6118217 -1.6310656 -0.61443645 10
1.8016571 -1.8250778 -0.59207124 9
1.990209 -2.0188982 -0.55105644 10
2.2439902 -2.2787228 -0.50653487 8
2.5586996 -2.6010258 -0.44799173 8
3.0144742 -3.0686221 -0.37633851 6
3.190897 -3.2516177 -0.23875666 62
3.3736663 -3.4414682 -0.084120601 5
3.3286488 -3.370743 0.082689509 24
3.3943641 -3.4408906 0.25330606 1
3.4681983 -3.5194211 0.43229246 16
3.5393736 -3.5966663 0.61958379 26
3.1352005 -3.1892896 0.70833534 19
5.8503175 -5.9574847 1.6230214 20
3.7017088 -3.7747848 1.2205845 5
3.135025 -3.2002647 1.2004027 26
1.607137 -1.6491961 -0.6170246 9
1.8024651 -1.8515748 -0.59657025 10
1.9829085 -2.0397816 -0.55296451 10
2.2252746 -2.2914987 -0.50590914 7
2.5543008 -2.6330738 -0.45042911 8
3.0012956 -3.0981789 -0.37738436 4
3.0708947 -3.1733475 -0.23142964 30
3.2925746 -3.4059896 -0.082689509 38
3.097163 -3.1804368 0.077488683 31
3.2936625 -3.3857648 0.24754909 31
3.2783091 -3.3735147 0.41154939 37
3.1851559 -3.2822375 0.56157398 6
3.371347 -3.4777455 0.76715469 18
5.7607837 -5.9488201 1.6096648 12
3.0954599 -3.2009673 1.0280263 24
3.0830784 -3.1915057 1.1890148 35
1.6036158 -1.6687335 -0.62013048 11
1.7894948 -1.8641131 -0.59657025 11
1.9713371 -2.0564096 -0.55372775 10
2.2146878 -2.3126848 -0.5071606 7
2.5413454 -2.6565797 -0.45140409 6
2.9030533 -3.0378716 -0.36762294 11
3.0348773 -3.1802595 -0.23038292 35
3.1555734 -3.3102059 -0.079827309 38
3.138598 -3.2683289 0.079094306 34
3.3349297 -3.4764178 0.25246868 45
3.2064304 -3.3459713 0.40544853 18
3.1141279 -3.2541969 0.55304313 27
3.1026504 -3.2456033 0.71115112 4
3.0927677 -3.2386591 0.8704707 30
2.8530004 -2.9907148 0.95424241 12
5.623095 -5.9027677 2.184433 31
1.6092016 -1.6981171 -0.62685978 11
1.7737581 -1.8737303 -0.59567046 12
1.9680854 -2.081192 -0.5567807 10
2.1975384 -2.3262701 -0.50684774 5
2.5200126 -2.6713688 -0.45091662 8
2.9664917 -3.1479647 -0.37843022 4
3.218509 -3.4189837 -0.24608369 22
3.0324025 -3.2257943 -0.077279255 45
3.190541 -3.3680103 0.080979168 34
3.1684184 -3.3481665 0.2415828 31
3.0954125 -3.2755964 0.39429256 27
3.1041691 -3.2883101 0.55523676 43
3.035763 -3.2192211 0.70082647 27
2.7753227 -2.9471607 0.78689629 5
5.6026826 -5.9558268 1.8877894 2
2.9038424 -3.0901158 1.1362157 37
1.6028824 -1.7146761 -0.62893027 12
1.7702731 -1.8957304 -0.59881973 11
1.9535081 -2.0948808 -0.5567807 9
2.1772051 -2.3372188 -0.50590914 8
2.5044758 -2.6913664 -0.45140409 8
2.9376621 -3.1613004 -0.37755868 14
3.1334152 -3.3754988 -0.24137343 34
2.975023 -3.2082367 -0.076371737 19
3.0986972 -3.3171375 0.07923393 24
3.0890992 -3.3103354 0.23729126 37
3.0581007 -3.2805593 0.39237517 36
nan nan nan nan
5.6874437 -6.1161351 1.3228099 5
2.9850202 -3.2133887 0.85253465 3
2.8851821 -3.1102643 0.97943693 43
2.8021011 -3.023876 1.1046398 42
1.5869447 -1.7215632 -0.62737739 12
1.771516 -1.9238117 -0.60376865 12
1.9388356 -2.1084676 -0.5567807 10
2.1715257 -2.3639996 -0.50841206 7
2.499047 -2.7234116 -0.45384148 8
2.9114819 -3.177325 -0.37703574 6
3.0895455 -3.3751934 -0.23980337 26
2.9849393 -3.2643459 -0.07720945 24
3.1025603 -3.3681052 0.079932027 34
nan nan nan nan
3.5825517 -3.8973606 0.46314558 8
2.7935045 -3.0432391 0.50722027 11
3.0412519 -3.3166192 0.71271551 13
2.9200788 -3.1878231 0.84032285 18
2.8370926 -3.1015725 0.9704389 43
2.8291388 -3.0961311 1.1237923 8
1.580085 -1.7383186 -0.62944794 12
1.7593522 -1.937575 -0.60421854 11
1.9280249 -2.1263151 -0.55792552 9
2.1549695 -2.379102 -0.50841206 7
2.4759774 -2.7363756 -0.45311025 11
2.8764274 -3.1822884 -0.37529263 7
2.9882889 -3.3106878 -0.2337324 37
2.8214722 -3.1291666 -0.073544443 21
3.213424 -3.5377038 0.083422504 22
3.0707626 -3.3842044 0.23948936 3
4.3179564 -4.7637129 0.56250316 9
4.6012239 -5.0833511 0.84187353 3
nan nan nan nan
2.8872244 -3.196476 0.8372699 43
2.8537741 -3.1627703 0.98348606 16
2.8074548 -3.1158066 1.1237923 26
1.5769368 -1.759377 -0.63307142 12
1.7509823 -1.9556178 -0.60601819 11
1.9174334 -2.1437795 -0.55907035 10
2.1360931 -2.390769 -0.50778633 8
2.4713511 -2.7698879 -0.45579138 8
2.8448615 -3.1918805 -0.37407246 20
2.9563878 -3.3205097 -0.2329997 31
2.8593495 -3.2160378 -0.075115159 24
3.0424833 -3.3956692 0.079582974 35
2.8824859 -3.2204897 0.22651003 27
2.8479877 -3.1864197 0.37389815 56
nan nan nan nan
2.8913608 -3.2417736 0.68799889 66
2.8152201 -3.1608438 0.82276845 13
2.8355103 -3.1869838 0.9848358 34
2.7348471 -3.0770857 1.1030868 24
1.5777203 -1.7845432 -0.63824779 11
1.7324703 -1.9616481 -0.60421854 7
1.9024203 -2.1571133 -0.55907035 9
2.1324089 -2.4204454 -0.51091504 7
2.4537516 -2.7881355 -0.45603511 11
2.7520318 -3.1303678 -0.36465961 35
3.175586 -3.6172395 -0.25225934 19
2.7543273 -3.1407084 -0.07291615 36
2.849232 -3.2250044 0.075115159 45
2.9035449 -3.2899513 0.22996421 35
2.8868418 -3.2744792 0.38191649 52
2.8241444 -3.207875 0.52476943 41
2.8099551 -3.1951292 0.67391974 16
2.7210777 -3.0973375 0.80139786 13
2.9255822 -3.3336384 1.0239773 21
2.5019388 -2.854924 1.0171589 30
1.5639541 -1.794058 -0.63773018 9
1.7315309 -1.9883914 -0.60871756 12
1.894136 -2.1774187 -0.56097847 9
2.119771 -2.4393773 -0.51185364 7
2.4368291 -2.8081968 -0.45652261 9
2.7483814 -3.1705809 -0.3671 35
2.8436465 -3.2839532 -0.22766145 22
2.7257946 -3.1522973 -0.072741628 37
2.832469 -3.2503543 0.075254776 32
2.7630606 -3.1740592 0.22054374 39
nan nan nan nan
2.7007229 -3.1101136 0.50575781 42
2.6302247 -3.0321343 0.63574976 25
2.5888417 -2.9886405 0.76857871 46
2.6178799 -3.0253623 0.92364913 13
2.5279284 -2.9245028 1.0357939 33
1.5526503 -1.8063977 -0.63824779 7
1.7201463 -2.0033882 -0.60961735 12
1.8733948 -2.1849554 -0.559452 9
2.1151111 -2.4694865 -0.51498228 6
2.4236176 -2.8326821 -0.45774129 5
2.7476249 -3.2159183 -0.37006328 16
2.8097014 -3.2920642 -0.22682405 35
2.7179921 -3.187989 -0.073125578 40
2.7752612 -3.2310987 0.07434725 17
2.8547266 -3.3271389 0.22975488 26
2.7332237 -3.1889069 0.3674486 27
2.6641998 -3.1127706 0.50307667 33
2.7779074 -3.2490649 0.67704844 4
2.578114 -3.0185838 0.7716316 26
2.6024868 -3.0514314 0.92589861 25
2.8113768 -3.2998543 1.16158 37
1.533757 -1.8098242 -0.63565958 7
1.7187093 -2.0302215 -0.61411637 12
1.8618979 -2.2024786 -0.56059688 9
2.0825255 -2.4660819 -0.51122791 6
2.4153028 -2.863189 -0.45993495 9
2.6057308 -3.0933087 -0.35385233 19
2.7184949 -3.2306046 -0.22127645 40
2.5734315 -3.0614665 -0.069809623 36
2.7164514 -3.2076664 0.073369913 30
2.7256534 -3.221952 0.22117178 22
2.6761725 -3.1668224 0.36274219 11
3.4297476 -4.0643101 0.65297598 8
2.5781856 -3.0584416 0.63355964 30
2.4570763 -2.9178715 0.74148381 29
2.5898998 -3.0799658 0.92904788 13
3.352387 -3.990973 1.3965876 11
1.5210847 -1.8204876 -0.63565958 9
1.6945045 -2.0302022 -0.6105172 12
1.8527611 -2.2229638 -0.56250495 9
2.0728421 -2.4896688 -0.51310509 6
2.4092181 -2.8967695 -0.46261609 9
2.5993474 -3.129817 -0.35594404 33
2.6512413 -3.1957042 -0.21761292 36
2.5430641 -3.0685804 -0.069565296 35
2.536351 -3.0377488 0.069076627 5
2.8092732 -3.3682063 0.22985955 11
2.6017098 -3.1226692 0.35559544 11
3.3263831 -3.9981213 0.6385954 7
nan nan nan nan
nan nan nan nan
3.5347247 -4.2636499 1.2786219 14
2.5099666 -3.0307961 1.0544289 11
1.5181644 -1.8429911 -0.63980073 10
1.6840044 -2.0464966 -0.61186689 11
1.8459219 -2.2464623 -0.56517625 10
2.0554104 -2.5040793 -0.51310509 6
2.388936 -2.9135182 -0.46261609 9
2.5938425 -3.167928 -0.35821009 35
2.7161164 -3.3208096 -0.22483528 45
2.5974929 -3.1791725 -0.071659587 24
2.6332743 -3.1989646 0.072322771 27
2.633467 -3.2026145 0.21729892 30
nan nan nan nan
4.2299967 -5.1570177 0.81896204 16
2.3787358 -2.9031441 0.59445107 52
2.4310186 -2.9701245 0.74606317 13
2.6662688 -3.2621875 0.97268844 1
4.2199955 -5.1686983 1.787922 83
1.5052611 -1.853545 -0.63980073 7
1.6721317 -2.0612302 -0.61276674 12
1.8264863 -2.2547178 -0.56403142 10
2.049062 -2.5321877 -0.51592094 8
2.3760252 -2.9393878 -0.46407849 8
2.6029489 -3.2247179 -0.3625679 26
2.6577642 -3.2961569 -0.22190447 29
2.6542604 -3.295341 -0.073858589 34
2.5277121 -3.1147897 0.070019051 17
nan nan nan nan
3.8668776 -4.7751961 0.53757662 1
2.367801 -2.9281678 0.46237233 19
2.3720641 -2.9365835 0.59789258 9
2.362143 -2.9274359 0.73118013 1
3.3758132 -4.1896729 1.2421799 19
4.0820603 -5.0716186 1.7444404 13
1.4874549 -1.857976 -0.63773018 4
1.6637866 -2.0804632 -0.61501622 11
1.8107009 -2.2674141 -0.56403142 12
2.0288708 -2.5433426 -0.51529521 7
2.3504984 -2.9496939 -0.46310353 8
2.5704482 -3.2303388 -0.36117339 28
2.6185315 -3.2943053 -0.22054374 35
2.6137812 -3.2918656 -0.073369913 34
2.4709275 -3.0886385 0.069041722 27
2.5598168 -3.2031856 0.21489146 13
nan nan nan nan
2.3571999 -2.9570448 0.46432224 11
2.3601191 -2.9638889 0.6000827 22
26.454762 -33.258194 8.2605038 30
3.4264777 -4.3138509 1.2718734 28
4.0597625 -5.1166396 1.7501343 40
1.4756444 -1.8698313 -0.63824779 6
1.6528411 -2.0966189 -0.61636597 11
1.803328 -2.2907982 -0.56670272 11
2.020834 -2.5698674 -0.51779813 7
2.3347533 -2.9722755 -0.46407849 9
2.5576711 -3.2607465 -0.3625679 28
2.6361206 -3.3643866 -0.22399792 26
2.6178517 -3.3446765 -0.074137822 28
2.4852152 -3.1513486 0.070053965 12
2.401438 -3.0483975 0.20337754 26
2.3976872 -3.0469165 0.33921015 30
2.390465 -3.0421069 0.47504675 10
2.3198545 -2.9554317 0.5950768 31
2.7910624 -3.5595734 0.8792479 2
3.3890698 -4.3284607 1.2691739 29
nan nan nan nan
1.4767888 -1.8983853 -0.64445943 16
1.636968 -2.1065679 -0.61591601 10
1.7668308 -2.2769637 -0.56021523 21
2.0004237 -2.5807898 -0.5171724 7
2.3285298 -3.007338 -0.46700338 5
2.5385005 -3.2832513 -0.36309084 22
2.5796061 -3.3400292 -0.22117178 42
2.64574 -3.4293685 -0.075603828 39
2.4140625 -3.1054704 0.068657771 30
2.590791 -3.3364186 0.22138111 35
2.3592613 -3.0415409 0.33676979 38
2.3557975 -3.0414579 0.47236562 11
nan nan nan nan
nan nan nan nan
3.1730309 -4.1113505 1.1989893 14
3.151654 -4.0880761 1.383129 1
1.4623241 -1.9071161 -0.64394182 23
1.6245916 -2.1210389 -0.61681581 10
1.7389644 -2.2736487 -0.55639905 5
1.9439815 -2.5444624 -0.5071606 1
2.3195214 -3.0393012 -0.46944076 4
2.5221329 -3.3083763 -0.36396238 28
2.53566 -3.3309405 -0.21939236 31
2.5781598 -3.3904519 -0.07434725 27
2.5990829 -3.3920913 0.074591585 37
2.5552964 -3.3385644 0.2203344 31
2.4722941 -3.2336261 0.35611835 28
2.3007782 -3.0136509 0.46554092 45
nan nan nan nan
2.1843066 -2.867312 0.70065069 9
2.6788321 -3.520292 1.0212779 39
2.1552699 -2.8363781 0.9545247 13
1.4699404 -1.9450202 -0.65325934 23
1.6156151 -2.1401052 -0.61906534 10
1.7258124 -2.2885678 -0.55716228 7
1.7091149 -2.2688959 -0.44990557 5
1.7397941 -2.3129818 -0.35537103 1
2.4750385 -3.2940462 -0.36047614 28
2.539304 -3.3832648 -0.22169513 24
2.5364385 -3.3843656 -0.073823676 31
2.6060686 -3.4495931 0.075464211 32
2.4759672 -3.280951 0.21541482 17
2.5156069 -3.3383231 0.36570549 45
2.2945378 -3.0482738 0.46846578 29
2.256789 -3.001394 0.59476393 38
2.2113869 -2.9452906 0.71591538 14
2.1467376 -2.8623056 0.8260203 12
2.6363006 -3.5188918 1.1781443 55
1.4497416 -1.945686 -0.65015346 27
1.6079918 -2.1604326 -0.62176478 11
1.717991 -2.3115904 -0.55983365 12
1.7061861 -2.2982192 -0.45334715 6
1.6956313 -2.2865026 -0.34952128 5
1.7014475 -2.2976964 -0.25013697 2
2.551255 -3.4490814 -0.22483528 28
2.5751371 -3.485184 -0.075638726 11
2.6308858 -3.5334637 0.076895304 15
2.4148595 -3.2468729 0.21206531 34
2.8540356 -3.8415616 0.41869619 33
2.4825435 -3.3464072 0.51160759 42
2.47453 -3.3392575 0.65827632 27
2.1842794 -2.9508071 0.71362567 31
2.1336527 -2.8866255 0.82871974 11
3.0305016 -4.1044698 1.3670822 39
1.4361228 -1.9557596 -0.65015346 24
1.5928701 -2.1716056 -0.62176478 9
1.6936908 -2.3124406 -0.55716228 7
1.6901002 -2.3100746 -0.45334715 6
1.6913402 -2.3143117 -0.35195872 7
1.6571778 -2.2708924 -0.24595349 4
1.6682714 -2.2886102 -0.14842479 6
2.5154309 -3.4545798 -0.074591585 4
2.23824 -3.0503409 0.066039905 18
2.5550725 -3.4859548 0.22651003 12
nan nan nan nan
2.5223858 -3.4501917 0.52476943 41
2.2333028 -3.0581355 0.59976977 4
2.1613119 -2.9628117 0.71286243 32
2.2075324 -3.0306144 0.86561173 33
2.1072652 -2.8961477 0.95970106 13
1.4235666 -1.9673032 -0.65067112 54
1.554839 -2.1510859 -0.61276674 9
1.6729097 -2.3178408 -0.55563581 7
1.6658448 -2.3106005 -0.45115703 4
1.6821027 -2.3357279 -0.35342112 7
1.6626251 -2.3112328 -0.2490911 5
1.6522537 -2.3002012 -0.14842479 5
1.6332446 -2.2762525 -0.048901644 5
2.2379813 -3.0950601 0.06666819 15
2.4944212 -3.453516 0.22326522 42
2.2790325 -3.1587944 0.34077895 1
2.7871654 -3.8687675 0.58546036 20
nan nan nan nan
nan nan nan nan
2.1288853 -2.9648404 0.84266675 34
3.3004692 -4.6032538 1.517715 4
1.416527 -1.9866309 -0.65377688 38
1.5262175 -2.1428406 -0.60736787 9
1.6935136 -2.3803649 -0.56784761 13
1.6455014 -2.3154454 -0.44990557 6
1.6542673 -2.3312252 -0.35098374 3
1.6464492 -2.3227835 -0.2490911 4
1.6388668 -2.3146541 -0.14863414 6
1.6184684 -2.2892318 -0.04893655 7
nan nan nan nan
2.467381 -3.4655337 0.2229512 20
2.2534614 -3.1697567 0.34025604 29
5.6422167 -7.9452419 1.1965134 11
nan nan nan nan
3.3089635 -4.6716876 1.1127981 3
2.0676155 -2.9223607 0.82647026 8
2.0950077 -2.9643676 0.972642 22
1.4085259 -2.0041294 -0.6563651 45
1.5205538 -2.1659391 -0.6109671 12
1.6757278 -2.3905222 -0.56746602 23
1.9034898 -2.7184651 -0.52561986 9
1.6243027 -2.3231945 -0.34805888 6
1.6233484 -2.3244205 -0.24804525 3
1.6249529 -2.3293154 -0.14884347 5
1.6093049 -2.3103201 -0.049145978 7
1.5963283 -2.2730312 0.048482787 6
1.5863122 -2.2612858 0.14476126 6
2.3793263 -3.3955071 0.36274219 7
2.0530143 -2.9341877 0.43970463 11
2.5947981 -3.712647 0.7174086 25
nan nan nan nan
2.0783668 -2.9814861 0.83906752 4
2.3557608 -3.3831916 1.1046398 15
1.3952483 -2.0157459 -0.65688276 33
1.5105573 -2.1847789 -0.61321658 10
1.6567665 -2.3989315 -0.56670272 27
1.8952025 -2.7482784 -0.52874857 8
2.1981108 -3.1911068 -0.47577798 15
1.6003052 -2.3258486 -0.24699937 4
1.6037195 -2.3342988 -0.14842479 5
1.5874795 -2.3132548 -0.048971456 5
1.5917987 -2.3005645 0.048831832 7
1.5723608 -2.275866 0.14497061 4
1.5786548 -2.2875361 0.24316452 7
1.605479 -2.3290129 0.34732765 1
3.1416054 -4.5642347 0.87759745 12
nan nan nan nan
2.2505646 -3.2770422 0.91780043 36
3.1508999 -4.5948882 1.4928683 26
1.3822304 -2.0270336 -0.65740043 37
1.5051413 -2.2097669 -0.61726576 10
1.6561191 -2.4350765 -0.57242703 10
1.8693098 -2.7516387 -0.52687138 8
2.1813526 -3.2145879 -0.47699666 16
2.2916439 -3.380929 -0.35733855 43
1.5907423 -2.3504 -0.1487388 4
1.5522521 -2.2961178 -0.048378069 7
1.5786736 -2.316854 0.04893655 7
1.5643007 -2.2983451 0.14570332 6
1.5548053 -2.2869675 0.24194433 6
1.5408301 -2.2698181 0.33684689 9
1.5531695 -2.2905755 0.4383294 2
2.1512773 -3.176229 0.74568158 1
2.2855067 -3.3782187 0.94164521 37
3.0246637 -4.4775023 1.4478338 4
1.3723539 -2.0430484 -0.65947098 28
1.4896777 -2.220221 -0.61726576 11
1.6559011 -2.4707556 -0.57815129 10
1.8549323 -2.7708647 -0.52812284 8
2.1831267 -3.2660456 -0.4823589 15
2.3653419 -3.5426607 -0.37267792 15
2.3803451 -3.5691767 -0.22483528 39
1.5417262 -2.3152208 -0.048552595 3
1.54949 -2.3076239 0.048517693 5
1.5519577 -2.313916 0.14601734 4
1.5509965 -2.3159764 0.24386176 7
1.5264479 -2.2819033 0.33709061 7
1.5243728 -2.2813849 0.43457499 7
1.5188828 -2.2766075 0.53197551 6
nan nan nan nan
nan nan nan nan
1.3690784 -2.0684519 -0.66464734 28
1.4680824 -2.2205558 -0.61456633 10
1.6353669 -2.4773405 -0.57700646 8
1.8464171 -2.8002384 -0.53125149 8
2.1499262 -3.2642515 -0.47992152 11
2.3109941 -3.5141408 -0.36797154 61
2.4288383 -3.6975524 -0.23184831 30
2.5790544 -3.9307187 -0.082061216 5
1.5311358 -2.3150492 0.048447877 7
1.5214541 -2.3030305 0.1446566 3
1.5362937 -2.3281429 0.24403608 6
1.5181254 -2.3041079 0.33879682 9
1.5192684 -2.3084724 0.43770367 6
1.5033512 -2.2868934 0.53197551 4
1.4917215 -2.2726572 0.62761348 9
nan nan nan nan
1.3588246 -2.0844326 -0.66671789 11
1.4642413 -2.2487142 -0.61951524 7
1.6223127 -2.4952805 -0.57853287 10
1.8418847 -2.8362541 -0.53563172 8
2.1616542 -3.3324742 -0.48772117 12
2.3297281 -3.5970805 -0.37494397 46
2.5114512 -3.8821125 -0.2423155 20
2.6134131 -4.0443625 -0.084050797 10
2.3433492 -3.5974348 0.074940629 22
1.5064281 -2.3152699 0.14476126 5
1.5134885 -2.3287878 0.24299021 6
1.5009223 -2.3129847 0.33855307 6
1.5041897 -2.3206801 0.43801656 7
1.5033536 -2.322053 0.53769976 7
1.4705294 -2.274833 0.62536401 4
1.4576521 -2.2575042 0.7200346 4
1.345283 -2.0954938 -0.66723549 13
1.459026 -2.2752862 -0.62401426 6
1.6048528 -2.5065455 -0.57853287 11
1.8284252 -2.8590283 -0.5375089 8
2.1394053 -3.3491571 -0.4879649 16
2.3191218 -3.6346896 -0.37721002 28
2.5293591 -3.9702988 -0.24671172 18
2.5003033 -3.9292288 -0.081293307 42
2.3106194 -3.6019247 0.074696302 13
2.5882339 -4.0393381 0.25142196 55
1.4928979 -2.3325849 0.24229297 5
1.4793936 -2.3150432 0.33733436 8
1.4783864 -2.3161387 0.43520072 6
1.4913281 -2.3391135 0.53922629 5
1.4696656 -2.307802 0.63166261 7
1.4418563 -2.2676253 0.7200346 5
1.3275244 -2.0999355 -0.66568261 21
1.4493486 -2.2953029 -0.62671363 6
1.5929908 -2.5257144 -0.580441 11
1.8089219 -2.8714077 -0.5375089 9
2.1445091 -3.4093797 -0.49454582 12
2.2830911 -3.6339214 -0.37546691 38
2.300565 -3.6659935 -0.22682405 22
2.5227134 -4.0262322 -0.082933836 22
2.2262268 -3.5229034 0.072741628 26
2.5606797 -4.0568619 0.25142196 11
2.0512736 -3.2548468 0.33659548 36
1.468889 -2.3334589 0.33855307 1
1.4625865 -2.3261483 0.43520072 7
1.4603477 -2.3261895 0.53388357 5
1.4566246 -2.3229587 0.63301229 6
1.4366422 -2.2937593 0.72521096 10
1.2968615 -2.082685 -0.65740043 23
1.4306041 -2.3001506 -0.62536401 12
1.5836052 -2.5501165 -0.58349395 11
1.7950792 -2.8940387 -0.53938609 9
2.116025 -3.4154606 -0.49332717 16
2.2792718 -3.6832621 -0.37895316 22
2.281215 -3.6921594 -0.22745208 24
2.1539383 -3.490248 -0.071589775 12
2.1857316 -3.5128911 0.072218053 33
2.3994601 -3.860899 0.23823328 12
2.031173 -3.2721193 0.3369441 47
2.0235484 -3.2649217 0.47163439 42
2.162709 -3.493536 0.65076745 16
1.4424149 -2.3327363 0.53312039 7
1.4274668 -2.3112657 0.62716359 6
1.4165378 -2.2971559 0.72314042 4
1.3125805 -2.1410975 -0.67292953 15
1.4155287 -2.311744 -0.62581384 12
1.5682589 -2.5641863 -0.58425713 11
1.7712197 -2.8994472 -0.53813463 9
2.07249 -3.3979497 -0.48869613 12
2.2431366 -3.6820693 -0.37721002 40
2.3473928 -3.8577485 -0.23666322 24
2.5406802 -4.1819715 -0.085412078 16
2.1586349 -3.5225728 0.072113343 48
2.1823151 -3.5654037 0.21907835 12
1.9968512 -3.267519 0.33502665 14
2.0405798 -3.3430061 0.48089647 27
2.1285968 -3.4913099 0.6476388 46
2.7245858 -4.4758754 1.0185385 4
1.4163586 -2.3295004 0.62941307 6
1.3928468 -2.2935348 0.71899933 4
1.3015933 -2.1568248 -0.67500007 27
1.3993554 -2.3215697 -0.62581384 11
1.5569568 -2.5871177 -0.58692849 11
1.7555149 -2.9205127 -0.53969896 4
2.035434 -3.3902106 -0.48552752 15
2.2638521 -3.7766349 -0.38522837 20
2.1740386 -3.6311162 -0.22179982 42
2.6212397 -4.3832436 -0.089146897 24
2.136471 -3.5430663 0.072218053 45
2.2793705 -3.7845263 0.2315343 15
2.4567053 -4.0837984 0.41695309 35
1.9971857 -3.3251896 0.47626543 31
nan nan nan nan
2.0706611 -3.4557147 0.78308016 15
2.788301 -4.6607561 1.2538773 3
1.3793719 -2.3084183 0.72055227 3
1.2825581 -2.1592152 -0.67292953 24
1.3980286 -2.3564222 -0.6325624 20
1.5348548 -2.5911674 -0.58540201 10
1.7401127 -2.9411979 -0.54126334 8
2.0117166 -3.4043381 -0.48552752 8
2.2040217 -3.7357199 -0.3794761 24
2.2743707 -3.8595743 -0.23477912 28
2.4079971 -4.0912333 -0.082864024 40
2.2127268 -3.728138 0.07567364 30
2.1215088 -3.5787175 0.21803163 4
2.3865156 -4.0305595 0.40980628 15
1.8789643 -3.1784217 0.453354 20
1.9173257 -3.2471926 0.59726685 60
1.8171036 -3.0811393 0.69530803 27
2.5539863 -4.3375387 1.1620972 4
1.9028318 -3.2355299 1.0057708 10
1.2645278 -2.1631134 -0.67137665 10
1.3854746 -2.3728561 -0.63436204 10
1.5236492 -2.6136923 -0.58807337 11
1.7105914 -2.9379101 -0.5384475 16
2.0238268 -3.4800758 -0.49430209 25
2.1758876 -3.7475698 -0.3791275 44
2.2593937 -3.8960917 -0.23603518 40
2.3593314 -4.0733361 -0.082165927 35
2.3389442 -4.0042272 0.080944255 12
2.0954671 -3.5917156 0.21792693 39
2.3422689 -4.0195789 0.40701729 13
1.8687085 -3.2120519 0.45627886 39
1.800326 -3.0982425 0.56754434 3
2.0143263 -3.470705 0.78002721 42
1.7410493 -3.0046766 0.80172563 9
3.0839877 -5.3287282 1.6497126 18
1.2580653 -2.1869597 -0.6760354 21
1.3679042 -2.3807812 -0.63391209 11
1.5141569 -2.6395924 -0.59150791 12
1.7096796 -2.9840608 -0.54470485 26
2.0034258 -3.5010114 -0.49527705 25
2.1496716 -3.7626693 -0.3791275 40
2.2756932 -3.988097 -0.24064074 22
2.4229214 -4.2512817 -0.085412078 11
2.3398318 -4.0707355 0.081956498 9
2.0892348 -3.6391675 0.2199157 27
2.3141503 -4.0358329 0.40701729 20
1.8866746 -3.2956526 0.46627215 34
1.8227752 -3.1879036 0.58162344 8
1.972522 -3.4539959 0.77315807 22
1.7055525 -2.9913642 0.79497707 24
1.9329933 -3.3944023 1.0466642 1
1.247525 -2.2040951 -0.67862362 13
1.3493321 -2.3868799 -0.63301229 7
1.4937627 -2.6466792 -0.59074467 13
1.6849252 -2.9890406 -0.5434534 37
1.9886743 -3.5322104 -0.49771443 13
2.1806505 -3.8779397 -0.38923752 25
2.2419293 -3.9934375 -0.24001274 38
2.5046761 -4.4669333 -0.089391224 24
2.8163497 -4.9799089 0.099862665 3
2.0254688 -3.5858426 0.2158335 31
2.2751501 -4.0328021 0.4050999 3
1.9415557 -3.4471126 0.48577127 29
1.7781996 -3.1609533 0.57442743 44
1.7637188 -3.1390569 0.69988745 39
1.9302472 -3.4396594 0.91060197 22
1.8658143 -3.3302875 1.0228529 27
1.2358664 -2.2195022 -0.6806941 18
1.3421072 -2.4132726 -0.63751131 6
1.4776193 -2.660218 -0.59150791 12
1.6626242 -2.9969854 -0.54282767 19
1.96589 -3.5494812 -0.49820194 13
2.1390584 -3.8669178 -0.38662288 32
2.2282171 -4.0330801 -0.24147813 26
2.3353205 -4.2339177 -0.084399842 10
2.3155768 -4.1602697 0.083108358 24
2.002955 -3.6030383 0.21604285 12
1.9617223 -3.5346744 0.35367799 11
1.8035221 -3.2536404 0.45676634 18
1.7575991 -3.1747122 0.57474029 46
1.718968 -3.1100552 0.6907286 22
2.6049964 -4.7189422 1.2444292 28
1.9568976 -3.5493042 1.0860047 41
1.2225869 -2.2312512 -0.68172938 18
1.3219076 -2.415514 -0.63571173 6
1.4599531 -2.6721916 -0.59188956 11
1.6530151 -3.0293279 -0.5465821 17
1.964483 -3.6046133 -0.50405163 13
2.0863008 -3.8345037 -0.38191649 42
2.1256239 -3.9116557 -0.23331371 48
2.4361727 -4.4887395 -0.089146897 26
2.2182949 -4.0517979 0.080630124 17
1.9375076 -3.5433328 0.21164663 13
2.050303 -3.7542822 0.37424675 27
1.846331 -3.3864105 0.47358429 14
1.8034105 -3.3118134 0.59726685 16
1.6668051 -3.064769 0.67813522 13
2.23259 -4.1119194 1.080215 26
1.8270873 -3.3692818 1.026994 27
1.2033143 -2.2329299 -0.67965883 16
1.306859 -2.4281158 -0.63661152 7
1.4412621 -2.6823192 -0.59188956 10
1.6421014 -3.0599406 -0.55002367 16
1.9402082 -3.6199892 -0.50429535 12
2.0707595 -3.8700557 -0.3840082 40
2.1142669 -3.9563453 -0.23509313 31
2.2494164 -4.2145534 -0.083387598 35
2.2278757 -4.1376133 0.08202631 35
2.5635409 -4.7669897 0.28366089 5
1.9495676 -3.6298406 0.36047614 16
2.1049995 -3.9258082 0.54694968 6
1.7233599 -3.2180979 0.57818186 15
1.6416651 -3.069406 0.67660874 27
nan nan nan nan
nan nan nan nan
1.1922193 -2.2498107 -0.68224704 20
1.2916992 -2.4406247 -0.63751131 7
1.4325899 -2.7114098 -0.59608734 10
1.6013391 -3.0346417 -0.5434534 16
1.9408032 -3.6826181 -0.51112008 12
2.0406573 -3.8770089 -0.38331094 42
2.1395497 -4.0717878 -0.24105945 14
2.3704748 -4.5170045 -0.089042179 15
2.1886427 -4.1336265 0.081642359 8
2.2230272 -4.2038884 0.24922384 10
1.9102222 -3.616936 0.35786149 56
2.1080935 -3.9983549 0.55499303 8
1.7597557 -3.3419137 0.59820545 42
1.639387 -3.1172817 0.6846227 23
1.7896612 -3.4073572 0.88855672 15
2.1754923 -4.1489787 1.2552725 10
1.1800541 -2.2649324 -0.68431759 25
1.2692317 -2.4392107 -0.63481188 10
1.4104793 -2.7141302 -0.59456086 16
1.6070356 -3.0963163 -0.55252659 17
1.9031748 -3.6731641 -0.5079515 25
2.0785532 -4.0167966 -0.39568707 36
2.1053658 -4.0738363 -0.24032672 24
2.1005018 -4.0713911 -0.079966925 19
2.4671128 -4.7372599 0.093230762 12
1.9833117 -3.8131557 0.22525398 12
1.89227 -3.6443291 0.35925597 47
2.2233887 -4.2875204 0.59301627 8
1.7187982 -3.318733 0.59194809 22
1.7852938 -3.4530261 0.75560367 14
1.7640418 -3.4163048 0.88765693 27
2.0852201 -4.0435014 1.2190377 37
1.1725386 -2.2883859 -0.68897635 27
1.2668033 -2.4755502 -0.64201033 7
1.3843517 -2.7099242 -0.59150791 20
1.5871756 -3.1109796 -0.55315232 15
1.8781281 -3.6860337 -0.5079515 13
2.0457423 -4.0201969 -0.39464122 23
2.0397868 -4.0154276 -0.23603518 30
2.0030758 -3.9482782 -0.077279255 32
1.959213 -3.8269904 0.075045347 12
1.9157279 -3.7468843 0.22054374 1
1.8764813 -3.6748695 0.36099908 41
2.3890328 -4.686718 0.64590758 21
1.7000686 -3.3394532 0.59351242 19
1.5695577 -3.0870876 0.67317414 6
1.5572318 -3.0668178 0.79407728 53
1.7224145 -3.3980036 1.0207824 28
1.1530583 -2.2896142 -0.68690574 22
1.2468629 -2.479111 -0.64066064 16
1.378211 -2.7438457 -0.59685057 11
1.5889922 -3.1676183 -0.56128693 16
1.8532383 -3.7008305 -0.50819516 15
1.9730669 -3.945282 -0.38592559 48
1.9499385 -3.9041433 -0.22870816 37
1.9727863 -3.9567976 -0.077174544 13
1.897153 -3.7687914 0.073649161 27
1.8803114 -3.7402091 0.21939236 48
1.8936762 -3.773355 0.36936605 22
2.1578367 -4.3053451 0.59131008 21
nan nan nan nan
nan nan nan nan
1.7446156 -3.4961004 0.90205377 30
1.5941195 -3.1987073 0.95763052 7
1.1400183 -2.3026035 -0.68845868 23
1.2446431 -2.5172377 -0.64830899 23
1.3764006 -2.7886102 -0.60448295 16
1.5528654 -3.1502857 -0.55628103 15
1.8332648 -3.724045 -0.50965762 18
1.9709591 -4.0108171 -0.39098063 53
1.9199955 -3.9122818 -0.22839414 41
1.9475678 -3.9737248 -0.077244349 43
2.255595 -4.5598416 0.088797845 37
1.8276157 -3.6995242 0.21625218 30
2.5070524 -5.081562 0.49574184 6
nan nan nan nan
1.8770525 -3.8163552 0.67360687 9
1.6359051 -3.3304656 0.72125804 9
nan nan nan nan
1.5530589 -3.1715879 0.94624245 5
1.1298311 -2.3226666 -0.69208211 27
1.2227819 -2.517101 -0.64605951 20
1.3560425 -2.7963846 -0.6041013 22
1.5437496 -3.1877177 -0.56097406 22
1.7959863 -3.713521 -0.50648904 9
1.947242 -4.0334501 -0.39185223 46
2.0088654 -4.1666675 -0.24242018 18
1.8868138 -3.9187593 -0.075917974 35
1.9640992 -4.0413122 0.078431122 7
1.8872088 -3.8882799 0.22651003 30
2.3255188 -4.7977376 0.46645752 38
1.7309245 -3.5774024 0.4879649 15
1.7867652 -3.6977484 0.65045458 1
1.6177341 -3.3524141 0.72354776 10
3.0893488 -6.4134617 1.6434925 16
1.5869894 -3.2989929 0.98092425 23
1.1110896 -2.3252685 -0.69052929 20
1.2085363 -2.5326111 -0.6478591 25
1.3322657 -2.7969213 -0.60219324 20
1.5358828 -3.2287426 -0.56629282 24
1.7880995 -3.7657282 -0.51185131 16
1.9028159 -4.0127416 -0.3885403 40
1.936988 -4.0903349 -0.23718657 28
1.9629834 -4.1527228 -0.080176361 38
1.8591626 -3.8943162 0.07532458 21
1.9554251 -4.1014767 0.23812862 18
1.9767791 -4.1518607 0.40231091 11
1.7953784 -3.7776542 0.51355743 21
1.7312617 -3.6476724 0.63950419 4
nan nan nan nan
1.8068643 -3.819 0.97538787 10
1.6299424 -3.4497275 1.0223353 20
1.0968833 -2.3384066 -0.69208211 23
1.1953424 -2.5517828 -0.65055853 37
1.3035567 -2.7865925 -0.5979954 22
1.5144106 -3.2432299 -0.56691855 24
1.7609272 -3.7763209 -0.51160759 15
1.9445645 -4.1758389 -0.40300813 22
1.8377938 -3.9537652 -0.2284988 20
1.9524667 -4.2062297 -0.080944255 19
1.9371941 -4.1317101 0.079652779 17
1.8836957 -4.0249166 0.23289503 12
1.75721 -3.759779 0.36309084 12
2.0082381 -4.3027577 0.58302301 10
1.7026131 -3.6545956 0.6385656 15
1.804548 -3.8786991 0.83154565 11
1.6553502 -3.5628901 0.90700269 7
1.623909 -3.5016115 1.034241 8
1.0797232 -2.3442526 -0.6915645 23
1.1701699 -2.5441313 -0.64650935 19
1.3138912 -2.8618646 -0.61211532 31
1.5007883 -3.2734754 -0.57036012 20
1.7518741 -3.8264256 -0.51672608 6
1.9634142 -4.2944083 -0.41311821 15
2.0555902 -4.5043292 -0.2594817 12
1.8873962 -4.1415129 -0.07944335 3
1.920953 -4.1745329 0.080211259 27
1.6862576 -3.6695609 0.21164663 24
1.7234402 -3.7556574 0.36152202 27
1.6508617 -3.6041324 0.48674619 24
1.7091038 -3.7364511 0.65076745 19
nan nan nan nan
nan nan nan nan
2.3182836 -5.0917177 1.4990799 1
1.0617392 -2.348213 -0.69052929 15
1.1587955 -2.5664475 -0.65010858 18
1.2790481 -2.8367367 -0.60486454 10
1.454952 -3.2313797 -0.56128693 27
1.715354 -3.8168344 -0.51380116 13
1.8452823 -4.1116958 -0.39429256 19
1.8705047 -4.1737466 -0.23969871 22
1.8804837 -4.2038741 -0.080385789 22
1.9188472 -4.2458234 0.081328213 34
2.0753188 -4.5984612 0.26440126 17
1.6832675 -3.7367158 0.35855874 23
1.6279197 -3.618907 0.48723367 25
1.722484 -3.8344903 0.66578513 4
1.6867626 -3.7619934 0.80139786 10
1.6134071 -3.6034408 0.91150171 13
2.2804182 -5.1003251 1.4970094 6
1.0574898 -2.3818705 -0.69829381 12
1.1397201 -2.5707126 -0.64920878 18
1.2782803 -2.8886847 -0.61402339 17
1.4347529 -3.2468791 -0.56222552 33
1.7173827 -3.8919873 -0.52233207 13
1.7819036 -4.0439391 -0.38662288 30
1.8308684 -4.1629357 -0.23833798 24
1.8719281 -4.2623491 -0.081258401 15
1.6994323 -3.8313763 0.073160492 31
1.7819053 -4.0229936 0.23059224 4
1.6029907 -3.6241829 0.34670553 23
1.601814 -3.6283674 0.48698995 30
1.5522417 -3.5210667 0.60946876 4
1.6571614 -3.7644036 0.79948968 28
1.7252972 -3.924752 0.98978466 7
1.4157794 -3.2267652 0.94417191 2
1.0439216 -2.3962791 -0.70036435 12
1.1287416 -2.5946894 -0.65325791 7
1.2820544 -2.9513397 -0.62547189 18
1.4196941 -3.2728801 -0.56504136 42
1.6672978 -3.8510525 -0.51526362 19
1.7346537 -4.0123887 -0.38243937 14
1.8357371 -4.2523165 -0.24273418 6
1.7313453 -4.0182071 -0.076371737 26
1.6182287 -3.7163489 0.070752062 25
1.7361634 -3.9929025 0.22818479 4
1.5800296 -3.6407685 0.34722847 29
1.5652393 -3.6118653 0.48333386 38
4.8608656 -11.232798 1.938536 1
1.644853 -3.8083229 0.80635887 17
1.6916817 -3.9223859 0.98618549 1
1.8698394 -4.3417172 1.2666605 21
1.0359411 -2.4228687 -0.70605838 13
1.1255929 -2.6363647 -0.66180605 21
1.2552618 -2.9457693 -0.62241894 15
1.4184666 -3.3336062 -0.5738017 27
1.6464798 -3.8751016 -0.5169698 18
1.7011546 -4.0115609 -0.38121921 20
1.6541433 -3.9063907 -0.22232316 21
1.7086263 -4.0409503 -0.076581158 24
1.7422786 -4.0787954 0.077418879 10
1.8555619 -4.3503046 0.2478631 9
1.5880022 -3.7284272 0.35454956 36
1.559401 -3.6683767 0.48942733 28
nan nan nan nan
nan nan nan nan
1.5974438 -3.7761621 0.94659412 36
1.9274355 -4.5628781 1.3272241 10
1.0115303 -2.4122262 -0.70088202 21
1.1124288 -2.6567411 -0.66495538 11
1.2414793 -2.9707639 -0.62585354 18
1.3921164 -3.3361351 -0.57255018 15
1.6232039 -3.8956637 -0.51818854 16
1.7649102 -4.2440991 -0.40213659 17
1.6459794 -3.9639575 -0.22493997 22
1.6887995 -4.0730996 -0.076965116 17
1.6434491 -3.9230192 0.07424254 10
1.6625172 -3.9743752 0.22577733 15
1.5627019 -3.741261 0.35472387 33
1.5146579 -3.6333673 0.48333386 29
nan nan nan nan
4.879045 -11.738471 2.4709766 17
1.6681126 -4.021224 1.0050814 34
1.5000145 -3.6213555 1.0502877 19
0.9961344 -2.4228027 -0.70191729 25
1.0990347 -2.6770616 -0.66810465 11
1.2214534 -2.9811752 -0.62623513 21
1.3882393 -3.3933086 -0.58068478 12
