# .PCD v0.7 - Point Cloud Data file format
VERSION 0.7
FIELDS x y z intensity
SIZE 4 4 4 4
TYPE F F F F
COUNT 1 1 1 1
WIDTH 1466
HEIGHT 1
VIEWPOINT 0 0 0 1 0 0 0
POINTS 1466
DATA ascii
3.7372928 1.7490858 -0.21625218 7
4.4040027 2.0583019 -0.084853604 16
5.4977975 2.5941024 0.10611063 14
7.0841827 3.3380947 0.41041863 16
7.045217 3.3152275 0.68120927 11
6.9803925 3.2787733 0.94692487 2
6.9246869 3.2481835 1.2114286 12
7.0830021 3.3179214 1.5203662 79
21.130579 9.8803072 5.3853283 10
nan nan nan nan
1.8699799 0.86722219 -0.55231988 10
2.0530064 0.95079678 -0.52233636 10
2.2507346 1.040462 -0.48198354 10
2.4965405 1.1525062 -0.43551362 9
2.8068788 1.2939888 -0.37950116 9
3.1906977 1.4689066 -0.30731115 7
3.7603018 1.7279559 -0.21688022 7
4.4000902 2.0191658 -0.084504552 10
5.4885569 2.5430498 0.10558706 11
7.114563 3.2919147 0.41083729 33
7.0265899 3.2467437 0.67720014 12
6.9742713 3.2166591 0.94302505 3
6.9148989 3.184886 1.205797 12
7.0774546 3.2552657 1.5142603 83
21.300055 9.7834234 5.4114232 10
nan nan nan nan
1.8847791 0.85814959 -0.55490804 10
2.0507236 0.93240899 -0.52008688 10
2.2613397 1.0267421 -0.48274681 11
2.4971306 1.1322243 -0.4342621 9
2.8194611 1.2759985 -0.37998864 9
3.2008748 1.4465955 -0.30731115 9
3.7483101 1.6916394 -0.21551949 5
4.3976703 1.9810063 -0.084190413 10
5.4074564 2.4609001 0.1037022 9
7.0622578 3.2095277 0.40654576 19
7.030942 3.1893759 0.675457 12
6.9562235 3.1510916 0.93766278 2
6.9112201 3.1263456 1.2014169 12
7.0570626 3.1863899 1.5051014 83
nan nan nan nan
nan nan nan nan
1.8923408 0.84608805 -0.5554257 10
2.0463469 0.91366071 -0.51738745 10
2.2666593 1.0101306 -0.48236516 10
2.506779 1.1155667 -0.43457499 10
2.8119724 1.2490327 -0.37779501 8
3.2108953 1.4242156 -0.30731115 7
3.7527235 1.6621965 -0.2151008 5
4.3967614 1.9437879 -0.083911166 1
5.3368645 2.3839438 0.10202677 29
7.0863147 3.1609626 0.40665042 38
7.0233669 3.1284759 0.67266804 16
6.9562864 3.0927739 0.93473798 1
6.9292674 3.076417 1.2007911 1
nan nan nan nan
nan nan nan nan
6.9284921 3.0616088 2.029659 43
1.8983468 0.83252507 -0.5554257 12
2.0635428 0.90368438 -0.52008688 10
2.2646627 0.99034768 -0.48045707 11
2.5183184 1.0991803 -0.43520072 10
2.8242631 1.2309573 -0.37828246 6
3.2171061 1.4001743 -0.30696252 7
3.7773452 1.6408705 -0.2158335 5
4.3184967 1.8732586 -0.082165927 7
5.3478832 2.3442187 0.10192205 13
7.033731 3.0773501 0.40235886 15
nan nan nan nan
4.3139877 1.8820472 0.57790446 1
4.2851257 1.8658935 0.74024802 6
7.0630569 3.0711036 1.4970875 72
nan nan nan nan
6.9129992 2.99582 2.0187886 43
1.9005632 0.81772578 -0.55439043 12
2.06622 0.88771856 -0.51918709 11
2.2644734 0.97102302 -0.47893062 10
2.5241153 1.0807937 -0.43488789 10
2.8366501 1.212276 -0.37876993 8
3.2270432 1.3771174 -0.30696252 9
3.7905462 1.6152427 -0.21593818 5
4.4238 1.8814397 -0.083911166 1
5.3957529 2.319315 0.10251543 4
4.4672151 1.9174211 0.25477144 1
4.354773 1.866459 0.41451269 2
4.3200445 1.8480058 0.57692951 2
6.8903179 2.9432368 1.186712 10
nan nan nan nan
4.2458868 1.8075212 1.0653682 1
nan nan nan nan
1.8974662 0.80035073 -0.55180228 12
2.0814993 0.87669235 -0.52143657 10
2.2766263 0.95747358 -0.48007545 10
2.52632 1.0604115 -0.43394926 11
2.8432138 1.1916757 -0.37852621 9
3.2255511 1.3499397 -0.30591667 7
3.7927926 1.5842278 -0.21541482 7
4.3888416 1.830496 -0.08300364 1
4.4444308 1.8737462 0.084190413 1
6.9771218 2.9357791 0.39670658 7
6.9928694 2.9380968 0.66360378 1
nan nan nan nan
nan nan nan nan
nan nan nan nan
19.367813 8.0858564 4.8454461 8
nan nan nan nan
1.904655 0.78815514 -0.55231988 12
2.0658059 0.85357368 -0.51603776 10
2.2796254 0.94005954 -0.47931221 11
2.5170403 1.0364217 -0.43113342 10
2.8512595 1.1722949 -0.37852621 9
3.230979 1.3264394 -0.30556804 7
3.7887032 1.5523167 -0.21457745 5
4.4493213 1.8202642 -0.083911166 1
5.4276085 2.2437541 0.10251543 3
nan nan nan nan
4.2367287 1.746254 0.40091643 1
nan nan nan nan
6.8832321 2.8272316 1.1785774 12
7.0350022 2.8852663 1.4780066 76
19.404371 7.9464507 4.8409467 8
nan nan nan nan
1.9172714 0.77774465 -0.55439043 12
2.0771329 0.84132659 -0.51738745 10
2.2841511 0.92378587 -0.47893062 10
2.5276995 1.0207453 -0.43175918 9
2.8556917 1.1508768 -0.37803873 11
3.2438571 1.3053383 -0.30591667 9
3.7750893 1.5168116 -0.21321672 5
4.3357096 1.7385516 -0.081537649 7
nan nan nan nan
nan nan nan nan
4.2192593 1.7046916 0.39812744 1
4.1439438 1.6717389 0.54865587 1
6.8803287 2.7714562 1.1748229 12
7.0276513 2.8250952 1.4722823 83
19.387039 7.781744 4.8229508 8
nan nan nan nan
1.9099556 0.75967729 -0.55076694 12
2.0773785 0.82500958 -0.51603776 11
2.2887197 0.90709239 -0.478549 10
2.5347645 1.0030725 -0.43175918 9
2.8597667 1.129953 -0.37755126 9
3.2528906 1.2826616 -0.30591667 9
3.7948778 1.4940795 -0.21374007 7
4.3455815 1.7082695 -0.081502736 7
4.3188491 1.7160619 0.081118785 1
nan nan nan nan
4.2566972 1.6862073 0.40056777 1
4.1075163 1.6237934 0.54231864 1
6.8609242 2.7081246 1.1682527 7
7.0266252 2.7692785 1.4680845 85
19.560581 7.6932917 4.8526444 8
nan nan nan nan
1.9152124 0.74632573 -0.55076694 10
2.0794549 0.80907446 -0.51513797 10
2.2931666 0.89038146 -0.47816736 10
2.5453889 0.98678011 -0.43238491 9
2.8546269 1.1049446 -0.37584507 9
3.2506151 1.2556118 -0.30487078 8
3.8033535 1.4668295 -0.2136354 5
4.3406067 1.6714207 -0.081188597 7
4.3009086 1.674262 0.080560312 1
4.2742043 1.66129 0.24032672 1
4.2089276 1.6333826 0.39498982 1
4.1206026 1.5957968 0.54256237 1
6.852025 2.6494775 1.1635597 10
7.0293031 2.7137957 1.4646499 83
19.719284 7.5971804 4.8787389 8
nan nan nan nan
1.9149615 0.73087031 -0.54921407 11
2.1014416 0.80078262 -0.51918709 11
2.2938211 0.87225807 -0.4770225 9
2.5540621 0.96968824 -0.43269777 7
2.8808327 1.0920261 -0.37828246 6
3.2590859 1.2334579 -0.30487078 8
3.8172374 1.4416525 -0.21384473 7
4.3502989 1.6403711 -0.081153691 8
4.2825971 1.632795 0.080001831 1
4.2632999 1.6228817 0.23907068 1
4.1848435 1.590508 0.39167792 2
4.1316428 1.5669907 0.54256237 13
6.8481865 2.5931823 1.1598053 10
7.0150223 2.6521587 1.4577808 79
17.940069 6.7718315 4.4270368 7
nan nan nan nan
1.9236364 0.71883595 -0.55024934 12
2.0887227 0.77928042 -0.51468807 10
2.3033853 0.8579939 -0.47778577 7
2.5476437 0.94745964 -0.43050769 9
2.8809421 1.0691249 -0.37730753 6
3.263881 1.2092907 -0.30452216 8
3.8063567 1.4080157 -0.21269335 5
4.3410091 1.6023433 -0.08076974 7
4.243032 1.5847178 0.0790594 1
4.2068772 1.568705 0.23530249 3
4.1902428 1.5591712 0.39115497 7
4.1329093 1.5353746 0.54134369 16
6.8508625 2.5410123 1.1573023 10
7.0039086 2.5922134 1.4516749 81
17.880886 6.607245 4.4009428 6
nan nan nan nan
1.9266704 0.70506155 -0.54973167 12
2.0866573 0.76236987 -0.51288843 10
2.3019404 0.8392036 -0.47625926 9
2.5541956 0.92965186 -0.43050769 9
2.8769588 1.0454211 -0.37584507 5
3.2797368 1.1891901 -0.30521941 9
3.8085825 1.378687 -0.21227466 7
4.3499351 1.5720783 -0.080734834 8
4.2896771 1.5681019 0.079722598 6
4.2027164 1.5338192 0.23446509 3
4.2026305 1.5312949 0.39132929 1
nan nan nan nan
6.8498669 2.4863825 1.1541736 12
7.0066237 2.5391314 1.448622 83
17.7873 6.4318891 4.3667502 6
10.211936 3.6865921 2.9091263 2
1.9333646 0.69224489 -0.55024934 13
2.0900939 0.74712771 -0.51243854 10
2.3077433 0.82311255 -0.47625926 9
2.5643454 0.91312283 -0.43113342 9
2.8841867 1.0253121 -0.37584507 4
3.280448 1.1636001 -0.30452216 8
3.8237624 1.3540645 -0.21258868 7
4.340065 1.5343399 -0.080350876 7
4.3475919 1.5549517 0.08059521 8
4.2772741 1.5272768 0.23802395 1
4.2282324 1.5072676 0.39272377 1
4.1763873 1.485503 0.54426849 1
6.8391356 2.4285855 1.1494806 12
7.0038247 2.4829381 1.4444242 87
17.732559 6.2724695 4.3424554 6
9.9532518 3.514863 2.8283746 2
1.9326802 0.67681605 -0.5486964 12
2.1081352 0.73702073 -0.51558787 9
2.3060188 0.80439502 -0.47473282 9
2.5669267 0.89389879 -0.43050769 9
2.8875244 1.003848 -0.3753576 6
3.2884908 1.1406715 -0.30452216 8
3.833122 1.3273385 -0.21258868 7
4.3544502 1.5053118 -0.080420688 3
4.360229 1.5252223 0.080630124 1
4.2991462 1.5013294 0.23865199 1
4.2236009 1.4724673 0.39132929 2
4.2016563 1.4615256 0.54621845 3
6.8167377 2.3671689 1.1429104 10
7.0061498 2.428834 1.4413712 87
nan nan nan nan
nan nan nan nan
1.9300475 0.6608029 -0.54662579 12
2.0984776 0.71724206 -0.51198864 8
2.3134358 0.78891104 -0.47511441 9
2.5656245 0.87341142 -0.42925623 9
2.9113774 0.98941475 -0.37755126 9
3.285053 1.113847 -0.30347627 8
3.8593221 1.3063091 -0.21353073 7
4.4027429 1.4876782 -0.081118785 1
4.3953686 1.503157 0.081083886 2
4.3737874 1.4932193 0.24221084 1
4.2620654 1.4525861 0.39394394 3
4.2418275 1.4423841 0.55011827 6
4.3284383 1.4693073 0.72397882 1
nan nan nan nan
4.257072 1.4392819 1.0374743 1
9.9208212 3.3483634 2.8055985 2
1.9364458 0.6479255 -0.54714346 12
2.1034336 0.70257449 -0.51198864 9
2.3188875 0.77273989 -0.47511441 9
2.5604136 0.85173625 -0.42737901 10
2.9069107 0.96531039 -0.37608883 9
3.2927489 1.0908859 -0.30347627 8
3.8436961 1.2711813 -0.21216999 5
4.4244146 1.4606663 -0.081328213 1
nan nan nan nan
nan nan nan nan
4.3307018 1.442314 0.3993476 3
4.2743993 1.4202466 0.55304313 1
6.8078752 2.2580824 1.1360272 12
6.9722829 2.308563 1.4276329 80
nan nan nan nan
nan nan nan nan
1.9427582 0.634992 -0.54766113 12
2.1082871 0.6878736 -0.51198864 10
2.3298264 0.75835514 -0.47625926 9
2.5700548 0.83506125 -0.42800474 9
2.9041378 0.94193071 -0.37487015 8
3.2927022 1.0654181 -0.30277905 8
3.8543777 1.2449304 -0.21227466 7
4.4801807 1.4444695 -0.082165927 1
4.5014696 1.4695697 0.082654595 1
6.9141383 2.2532151 0.38111049 7
4.3634019 1.4194412 0.40143937 2
4.2445588 1.3775029 0.54792464 3
nan nan nan nan
4.2011571 1.3585565 0.8582589 7
10.23008 3.3002837 2.4816601 2
10.124744 3.2604501 2.8501153 2
1.9489841 0.62200075 -0.54817873 13
2.1074677 0.67136383 -0.51063895 10
2.3257086 0.73909843 -0.47435117 9
2.5795879 0.81829321 -0.4286305 9
2.9011805 0.9186368 -0.37365144 9
3.2962604 1.0412046 -0.30243042 8
3.8629749 1.2179912 -0.21227466 7
4.4329329 1.3951471 -0.081118785 1
5.191793 1.6549147 0.095115617 3
nan nan nan nan
4.3314295 1.375674 0.3976045 1
4.2465024 1.3454405 0.54694968 3
4.2678547 1.3497473 0.70896107 1
nan nan nan nan
10.070713 3.1714194 2.4375699 2
9.1133671 2.8646932 2.5597205 2
1.9459013 0.60608125 -0.54610825 13
2.1195467 0.6589486 -0.51243854 10
2.3214357 0.71993732 -0.4724431 9
2.5776892 0.79792899 -0.42737901 9
2.9094191 0.89894772 -0.37389517 8
3.3110647 1.0205142 -0.30312768 8
3.8656569 1.189231 -0.21196064 5
4.4349184 1.3618175 -0.080979168 1
4.3802524 1.3626183 0.080071643 1
4.4519243 1.3823581 0.24430427 1
6.923409 2.1458001 0.6341452 27
6.8502326 2.1178801 0.88038421 5
6.789495 2.0952079 1.1253897 10
6.9740705 2.1481688 1.4184742 98
6.8830161 2.1148658 1.6623884 2
nan nan nan nan
1.9482369 0.59191895 -0.54559058 12
2.1296904 0.64583093 -0.51378828 10
2.3282845 0.70428151 -0.47282472 9
2.5794148 0.77877194 -0.42675328 9
2.9156241 0.87861425 -0.37389517 8
3.3064864 0.99451131 -0.30208179 8
3.896821 1.1691039 -0.21321672 5
4.4424009 1.3302511 -0.080944255 3
5.1914301 1.5752988 0.094696753 4
6.8355613 2.0702899 0.3743068 7
6.9096117 2.0887687 0.63153052 45
6.8496466 2.0654202 0.8784343 10
6.7850413 2.0420644 1.1222609 10
6.7275429 2.0209186 1.3654292 83
nan nan nan nan
6.5575786 1.9611315 1.8339919 100
1.9523215 0.57830423 -0.54559058 12
2.1229341 0.62763315 -0.51108885 10
2.3330245 0.68841708 -0.47282472 9
2.5808663 0.76008028 -0.42612755 9
2.929306 0.86047447 -0.37487015 8
3.313349 0.97140181 -0.30208179 8
3.8951044 1.1397455 -0.21269335 7
4.4554186 1.3003253 -0.081014074 8
5.1847749 1.5348194 0.094382621 6
6.870564 2.0299418 0.37545818 10
6.8934474 2.0314684 0.6287415 32
nan nan nan nan
nan nan nan nan
6.6849623 1.9573551 1.3539807 90
6.6272044 1.9366769 1.5940033 100
6.5652108 1.9148302 1.8324389 100
1.9562124 0.56500268 -0.54559058 12
2.1159222 0.60992962 -0.50838941 11
2.3396604 0.67265511 -0.47320631 9
2.5899072 0.74313354 -0.42675328 9
2.9236445 0.83723772 -0.37340769 9
3.335376 0.95262557 -0.30347627 8
3.8856788 1.107599 -0.2117513 5
4.4814773 1.2748927 -0.081328213 10
5.1876783 1.496366 0.09424299 6
6.2262454 1.7924061 0.33955571 2
6.8937116 1.9806477 0.62752134 42
6.7706079 1.940163 0.8647849 52
6.753675 1.9314849 1.1125621 80
6.6811409 1.9069537 1.3505462 97
6.6218204 1.8850276 1.5895042 100
6.5654106 1.865254 1.8288155 100
1.9712675 0.55447054 -0.5486964 12
2.1182525 0.59461617 -0.50793952 10
2.3386278 0.65471703 -0.47206149 9
2.5931296 0.72450292 -0.42644039 10
2.9198575 0.81414068 -0.37218902 9
3.3381062 0.92824942 -0.30312768 8
3.9010153 1.0825813 -0.21216999 7
4.459434 1.2350354 -0.08076974 10
5.1922231 1.4584903 0.09413828 4
6.2078371 1.7402692 0.33788097 2
6.865159 1.9206628 0.62368649 7
6.7782516 1.8912475 0.86405367 83
6.7460618 1.8784596 1.1091205 94
6.6905069 1.859216 1.3497829 95
6.6122837 1.8325073 1.5841054 100
6.5596533 1.8142239 1.8236392 100
1.9676373 0.53865361 -0.54662579 12
2.1279919 0.58135426 -0.50928926 9
2.3450353 0.63889152 -0.4724431 9
2.6038425 0.70793784 -0.42737901 9
2.9350491 0.79633528 -0.37340769 8
3.3405008 0.90446472 -0.30277905 8
3.918119 1.0579238 -0.21269335 7
4.4274001 1.1929471 -0.080036737 14
5.2099948 1.4243158 0.094277903 4
6.2179079 1.696362 0.3377763 6
6.8841677 1.874258 0.6242094 46
6.7797956 1.8407596 0.86259133 82
6.7208786 1.8209854 1.1028631 84
6.6786861 1.8058007 1.3448219 86
6.6133151 1.7844105 1.581406 100
nan nan nan nan
1.9620157 0.52241844 -0.54403764 12
2.1319985 0.56648386 -0.50928926 9
2.3398418 0.62039763 -0.47053501 9
2.5971434 0.68716478 -0.42550179 9
2.9405372 0.77582544 -0.37340769 6
3.33132 0.87706351 -0.30138457 8
3.9078436 1.026662 -0.2117513 5
4.4530301 1.1665698 -0.080350876 7
5.1828523 1.3790498 0.093614712 6
6.2293105 1.6539987 0.3377763 2
6.872046 1.8195258 0.62194335 41
6.7768135 1.7905147 0.86064136 82
6.7159262 1.7706665 1.1000473 15
nan nan nan nan
nan nan nan nan
4.9114013 1.2857344 1.3603529 4
1.9711366 0.51050532 -0.54559058 13
2.1376915 0.55244726 -0.5097391 9
2.3593249 0.60796767 -0.47358796 10
2.5961378 0.66754198 -0.4245632 7
2.9476724 0.75628656 -0.37365144 9
3.3489432 0.85674798 -0.30243042 6
3.9013698 0.99589717 -0.21101859 5
4.4569921 1.1352448 -0.080281071 7
5.1691217 1.3368248 0.093195848 7
6.2349048 1.6089725 0.33746228 2
nan nan nan nan
nan nan nan nan
5.0862789 1.3030959 0.83160573 4
5.0119953 1.2812686 1.0055635 8
nan nan nan nan
4.9520855 1.2595127 1.3691529 6
1.9671589 0.49484569 -0.54352003 12
2.1263754 0.53371358 -0.50613987 9
2.3616073 0.59100503 -0.47320631 9
2.6103175 0.65179408 -0.42612755 6
2.9413233 0.73281014 -0.37218902 9
3.3432407 0.83046675 -0.30138457 6
3.9179199 0.97104049 -0.21154197 3
4.455102 1.1017033 -0.080106542 5
5.1899643 1.3036304 0.093405277 6
5.2230692 1.3090389 0.28219551 3
5.1433663 1.2862016 0.46384284 4
5.0907531 1.2692666 0.6442014 3
5.1048369 1.2699397 0.83317006 3
5.0551157 1.2547601 1.0124326 5
4.9996948 1.2372993 1.1890913 4
4.9607587 1.2249075 1.3691529 6
1.9799491 0.48339218 -0.54610825 12
2.1395164 0.52116269 -0.50838941 9
2.3542295 0.57172257 -0.47091663 9
2.6052053 0.63122761 -0.4245632 9
2.9386499 0.71039081 -0.37121406 9
3.3567047 0.80897343 -0.30208179 8
3.9265454 0.94413143 -0.21164663 1
4.4315724 1.0631104 -0.079548068 4
5.1756253 1.2616824 0.09298642 6
5.2010298 1.2649908 0.28052074 1
5.1948175 1.2605995 0.46767771 4
5.1226425 1.2392993 0.64712632 5
5.0924554 1.2291743 0.82972854 4
5.0561175 1.2176021 1.0109061 5
nan nan nan nan
nan nan nan nan
1.9719961 0.46688724 -0.54300237 13
2.1468959 0.50710934 -0.50928926 9
2.3658068 0.55707401 -0.4724431 9
2.6057022 0.61212218 -0.42393744 9
2.9474027 0.69076514 -0.37170154 9
3.3583906 0.7846114 -0.30173317 5
3.9116449 0.91170716 -0.21049525 3
4.450573 1.0348614 -0.079757497 4
5.186254 1.2259792 0.093021333 10
5.2039022 1.2272745 0.28020674 5
5.182158 1.2192827 0.46576029 6
5.135035 1.2044128 0.6476137 1
nan nan nan nan
nan nan nan nan
6.6829495 1.5551734 1.5841054 100
6.6239576 1.5377868 1.8220862 100
1.9770905 0.45354071 -0.54352003 12
2.1560826 0.49341303 -0.51063895 10
2.3658104 0.53967077 -0.47167987 7
2.6176169 0.59566939 -0.42518893 9
2.9560251 0.67105049 -0.37218902 9
3.3481076 0.75821447 -0.30033869 5
3.9393451 0.88921398 -0.21164663 7
4.4420834 1.0002512 -0.079478264 4
5.1771431 1.1857245 0.092707187 6
6.1878328 1.413794 0.33264738 2
6.9252572 1.5784659 0.62142044 56
nan nan nan nan
6.810235 1.5434995 1.1059917 14
nan nan nan nan
nan nan nan nan
nan nan nan nan
1.9783225 0.43930909 -0.54300237 12
2.1518641 0.47666392 -0.50883931 10
2.3675115 0.52313221 -0.47129822 9
2.6138945 0.57613719 -0.42393744 9
2.9528825 0.64869344 -0.37121406 9
3.3572116 0.73567474 -0.30068728 4
3.9218917 0.85726291 -0.21039055 7
4.46068 0.97177118 -0.079687685 3
5.16362 1.1456926 0.092323236 4
6.2207131 1.3768212 0.33390343 2
6.9166517 1.5257881 0.61967731 60
nan nan nan nan
7.274003 1.5966327 1.1795161 1
7.3033509 1.5977277 1.4532013 1
nan nan nan nan
nan nan nan nan
1.9793786 0.42542604 -0.54248476 10
2.1455319 0.45996207 -0.50658983 10
2.3749461 0.50741041 -0.47206149 9
2.6139891 0.5570513 -0.42331171 9
2.9533458 0.62775326 -0.37072656 9
3.3739605 0.71469802 -0.30173317 2
3.9258275 0.82944733 -0.21028589 7
4.473062 0.94262064 -0.079792403 3
5.1734471 1.1100377 0.092358135 6
6.1754885 1.3216584 0.33097261 2
6.9015465 1.4732685 0.61741126 61
7.4500771 1.5849224 0.93522543 1
7.5323133 1.5982955 1.2195632 1
7.4715543 1.5813153 1.4844941 1
7.4860559 1.5789253 1.7663158 2
7.331255 1.5422667 2.0074008 2
1.9955407 0.41434711 -0.54610825 12
2.1544151 0.4461588 -0.50793952 10
2.3649714 0.48804027 -0.46939012 9
2.6294231 0.54117793 -0.42518893 9
2.965435 0.60871643 -0.37170154 9
3.3866763 0.69272131 -0.30243042 4
3.9217379 0.80002552 -0.20976254 5
4.4618979 0.90778393 -0.079478264 3
5.1791129 1.0734874 0.092323236 4
6.200212 1.2817448 0.33181 2
6.9019079 1.423036 0.61653972 58
7.6204071 1.5656348 0.955212 1
7.6400452 1.5655012 1.2352067 1
7.3746948 1.5071061 1.4631234 2
7.3269463 1.4920167 1.7262745 2
7.2263579 1.4675934 1.9758247 5
1.9908077 0.39888737 -0.54403764 13
2.1670322 0.43301654 -0.51018906 11
2.3721719 0.47228566 -0.47015342 9
2.637012 0.52357852 -0.42581466 9
2.9579282 0.58568686 -0.37023908 9
3.3639474 0.66425097 -0.29999006 6
3.9311461 0.77339816 -0.20997187 7
4.4445791 0.87199199 -0.0790594 3
5.1904025 1.0380859 0.092393041 3
6.1972575 1.236084 0.33118194 4
6.8843169 1.3693751 0.61409938 58
7.4909515 1.4846104 0.93766278 1
7.4085531 1.4642456 1.1960981 1
7.3985209 1.4582382 1.4657948 1
7.3503175 1.4447401 1.7294238 2
7.3653445 1.442354 2.011024 2
1.9859571 0.38351309 -0.54196709 13
2.1604347 0.41603372 -0.50793952 10
2.3791878 0.45686713 -0.47091663 9
2.6327546 0.50412959 -0.4245632 9
2.9677947 0.56613827 -0.37097031 9
3.3880758 0.64447314 -0.30173317 6
3.9323952 0.74587929 -0.20976254 7
4.4800324 0.84651095 -0.079582974 1
5.1737862 0.99818867 0.091974184 4
6.2074885 1.1942523 0.33128664 2
6.8721838 1.3171579 0.6121819 60
7.5515785 1.4432755 0.94400001 1
7.536716 1.4363415 1.2151831 1
7.549324 1.4332836 1.4936529 1
7.5459533 1.4285508 1.7730644 2
7.5325522 1.4219292 2.053988 3
1.9866222 0.36963376 -0.54144943 12
2.1613002 0.40096396 -0.50748962 11
2.3745966 0.43882015 -0.46939012 9
2.6245537 0.48359075 -0.42268598 9
2.9774373 0.54699868 -0.37170154 9
3.3767061 0.61852276 -0.30033869 8
3.9178584 0.71482098 -0.20871581 6
4.4601145 0.81134403 -0.079129212 3
5.1727638 0.96058404 0.09183456 4
6.2019277 1.1483412 0.33055395 2
6.8770723 1.2696264 0.61183333 61
7.7196112 1.4196019 0.96374285 1
7.7175417 1.4150443 1.2427155 1
7.7365789 1.4143485 1.5287617 1
7.7261286 1.4082581 1.8131056 2
7.7095652 1.3996751 2.0995402 3
1.996761 0.35711598 -0.54352003 12
2.156373 0.3844972 -0.50569004 10
2.3833277 0.42367747 -0.47053501 9
2.6316748 0.4664042 -0.42331171 9
2.9694538 0.52413005 -0.37023908 9
3.3966393 0.59769779 -0.30173317 8
3.9186985 0.68744808 -0.20850646 4
4.46173 0.77949846 -0.0790594 3
5.1791825 0.92535174 0.09183456 3
6.2037015 1.1050485 0.33023992 2
6.8661509 1.2181009 0.6100902 68
7.9030685 1.3977895 0.98543561 1
7.9448767 1.4008944 1.2777568 1
7.9260945 1.3918822 1.5642521 2
7.9027734 1.3835179 1.8522471 2
7.9016099 1.3790509 2.1492336 3
1.9972416 0.34318897 -0.54300237 13
2.1608608 0.37013927 -0.50613987 10
2.3804216 0.40603691 -0.46939012 9
2.6387615 0.44868124 -0.42393744 9
2.9807818 0.50523096 -0.37121406 9
3.3928709 0.57264382 -0.30103594 8
3.9214325 0.65974224 -0.2084018 4
4.4728484 0.75010461 -0.079164118 1
5.1815753 0.88849592 0.091764756 1
6.1797657 1.0563273 0.32856518 2
6.866426 1.1700007 0.60939294 67
8.1044321 1.3751289 1.009322 1
8.0908022 1.3684585 1.2996577 1
8.1289797 1.3705384 1.6024141 1
8.0794401 1.3563821 1.8913885 2
8.1015806 1.3557383 2.2009974 2
2.003401 0.32986492 -0.54403764 13
2.1710844 0.356307 -0.50793952 10
2.375448 0.3881433 -0.46786368 9
2.6379302 0.42961451 -0.42331171 9
2.9705195 0.48218375 -0.36950788 8
3.3889189 0.54767013 -0.30033869 8
3.9298871 0.63298279 -0.20861115 3
4.4700789 0.71759003 -0.079024501 1
5.1738386 0.8500331 0.091520421 1
6.1830468 1.0125161 0.32835582 2
6.8547626 1.1188293 0.6076498 68
8.2901802 1.3471724 1.0312586 1
8.3146553 1.3466816 1.3340733 1
8.2972784 1.3394095 1.6337067 1
8.8044586 1.4149766 2.0587523 2
8.7746706 1.4054769 2.3811355 2
1.9961135 0.31436881 -0.54144943 12
2.1773691 0.34174666 -0.50883931 11
2.3819792 0.37215623 -0.46862692 9
2.6408653 0.4111878 -0.42331171 9
2.9777369 0.46204266 -0.36999539 5
3.3887215 0.52339101 -0.29999006 8
3.9460537 0.60735643 -0.20923917 4
4.4809093 0.68727714 -0.079129212 4
5.1855741 0.81482095 0.091625139 1
6.2057514 0.97179472 0.3291932 2
6.8466587 1.0684859 0.60625535 68
8.9937773 1.3971332 1.1175419 1
9.0344276 1.3986042 1.4479576 1
9.006876 1.3895108 1.7714708 1
9.0067387 1.3830531 2.1037424 2
8.9408569 1.3681452 2.4235816 2
1.9963491 0.30013838 -0.54093182 12
2.164284 0.32422766 -0.50524008 10
2.386461 0.3558073 -0.46900854 9
2.6358559 0.39157999 -0.42206025 9
2.9867811 0.44211489 -0.37072656 9
3.392293 0.49972057 -0.29999006 6
3.9343891 0.57747263 -0.2084018 4
4.4776835 0.65482032 -0.078989588 4
5.1990461 0.77978539 0.091764756 3
6.1985574 0.92638028 0.32846051 2
6.8342447 1.0177264 0.60451221 68
9.0818577 1.3459514 1.1272914 1
9.2784739 1.3701261 1.4855019 1
9.2300138 1.3580329 1.8134488 1
9.208993 1.3483727 2.1487324 2
9.213995 1.3441778 2.4950156 2
2.0117824 0.28811011 -0.54455531 13
2.1684244 0.3093845 -0.50569004 10
2.3986056 0.34051889 -0.47091663 9
2.644393 0.37399983 -0.42299888 7
2.9681721 0.41820732 -0.36804545 8
3.3917527 0.47547251 -0.29964143 6
3.9284344 0.54861015 -0.20787844 6
4.4900684 0.62464643 -0.079129212 4
5.1924863 0.74177349 0.091555327 3
6.2028961 0.88280213 0.32835582 2
6.8411832 0.96998966 0.60451221 70
9.4055328 1.3268834 1.1662897 1
9.483428 1.3328087 1.5167887 1
9.4531431 1.3235058 1.8554269 1
9.4111929 1.3109345 2.193723 2
9.414505 1.3063716 2.5467794 2
2.006088 0.27301615 -0.54248476 12
2.1686003 0.29397666 -0.50524008 10
2.3892508 0.32218981 -0.46862692 9
2.6547709 0.35657999 -0.42425033 7
2.9828248 0.39905331 -0.36950788 9
3.3989394 0.45230931 -0.29999006 6
3.9420681 0.52248508 -0.2084018 4
4.4665647 0.58962286 -0.078640543 4
5.1975379 0.70550752 0.091555327 4
6.1851573 0.83626795 0.32709977 2
6.8359404 0.92061323 0.60346633 74
nan nan nan nan
9.6883039 1.2926952 1.5480757 1
9.7540741 1.2962732 1.9126694 1
9.651948 1.2758448 2.2477112 2
9.477026 1.2476745 2.5612736 2
2.002197 0.25826386 -0.54093182 12
2.1686668 0.2785826 -0.50479025 9
2.3817046 0.30425793 -0.46671882 8
2.6650338 0.33903465 -0.42550179 6
2.9776607 0.37722161 -0.36853293 8
3.3980608 0.42806953 -0.29964143 6
3.9337296 0.49345812 -0.20777377 4
4.4666038 0.55792814 -0.078570738 4
5.1944027 0.6681841 0.091415711 3
6.186882 0.79255944 0.32689041 2
6.8224373 0.87034571 0.60172325 74
nan nan nan nan
10.018499 1.2656343 1.5993862 1
10.055071 1.2649063 1.9699122 1
10.00868 1.2519687 2.3286934 2
9.4663343 1.1790942 2.556097 2
2.0039513 0.24427961 -0.54093182 12
2.1782968 0.26437482 -0.50658983 8
2.3876686 0.28809458 -0.46748206 8
2.6516454 0.31853738 -0.42299888 7
2.9881058 0.3573688 -0.36950788 8
3.4088802 0.40527701 -0.30033869 4
3.9450123 0.46692249 -0.20819245 3
4.4763479 0.52743375 -0.078675449 6
5.2029114 0.63238406 0.091485515 3
6.2180409 0.75246388 0.32825115 2
6.8105445 0.82054669 0.6001544 77
nan nan nan nan
10.293852 1.2274706 1.6419363 1
10.27031 1.21921 2.0103636 1
10.048141 1.1857233 2.335892 2
9.4321251 1.1080239 2.544709 2
2.017123 0.23160562 -0.54403764 12
2.1781533 0.24893969 -0.50613987 9
2.4032769 0.27296945 -0.47015342 8
2.6518416 0.29979572 -0.42268598 9
2.9984186 0.33738703 -0.37048283 8
3.4115598 0.38206568 -0.30033869 5
3.9362657 0.43804619 -0.20756441 3
4.4699826 0.49507156 -0.078500926 4
5.2111731 0.5965029 0.091555327 1
6.221158 0.7088123 0.32814649 2
6.8101673 0.7723099 0.59963149 74
nan nan nan nan
10.498477 1.1775904 1.6732231 1
10.543925 1.1770986 2.0622637 1
10.075348 1.1194471 2.3403909 2
9.4741936 1.045964 2.5540264 2
2.011008 0.21668996 -0.54196709 12
2.1798382 0.23372726 -0.50613987 10
2.4089837 0.25702107 -0.47091663 8
2.6616781 0.28257239 -0.42393744 9
2.9888558 0.31519678 -0.3690204 8
3.4181068 0.35865504 -0.30068728 5
3.9669669 0.4141461 -0.20902982 4
4.4812865 0.46467817 -0.078640543 4
5.1872778 0.55802327 0.091066658 1
6.1960497 0.66326088 0.32657638 2
6.8074684 0.72390443 0.59893423 71
nan nan nan nan
nan nan nan nan
5.3013272 0.55438685 1.0360929 10
5.2662988 0.5479365 1.2223842 50
nan nan nan nan
2.022047 0.20396584 -0.54455531 12
2.1794398 0.21868958 -0.50569004 10
2.393137 0.23844507 -0.46748206 8
2.6655519 0.26417831 -0.42425033 7
2.9948831 0.29523441 -0.36950788 8
3.4125957 0.33400711 -0.29999006 6
3.9797008 0.38740888 -0.20955318 5
4.4724035 0.43300799 -0.078431122 4
5.214922 0.52419811 0.091485515 3
nan nan nan nan
5.4343266 0.54050237 0.47778779 22
nan nan nan nan
nan nan nan nan
nan nan nan nan
5.2389617 0.5081473 1.2151858 78
5.2149739 0.50306475 1.4038346 94
2.0138047 0.18894298 -0.54196709 12
2.1867342 0.204013 -0.50703973 10
2.3869238 0.22100799 -0.46595559 8
2.6692982 0.2457439 -0.4245632 9
2.9889638 0.27359521 -0.36853293 8
3.418813 0.31053501 -0.30033869 6
3.9862871 0.35997522 -0.20976254 5
4.4753175 0.40177417 -0.078431122 3
5.2144728 0.48740363 0.091415711 3
5.4649148 0.50792664 0.28763846 50
5.4498715 0.50365055 0.47883365 53
5.3867698 0.49402928 0.66418797 58
5.3449249 0.48736981 0.85006499 66
5.3123779 0.4815951 1.0368562 70
5.2676134 0.47382972 1.2210344 78
5.1894956 0.46406403 1.3960699 73
2.0054514 0.17404424 -0.53937894 12
2.1861637 0.18857425 -0.50658983 10
2.4001453 0.20534404 -0.46824533 8
2.6571705 0.22593245 -0.42237309 9
2.998713 0.25339162 -0.36950788 8
3.405014 0.28532863 -0.29894418 6
3.9926834 0.3324683 -0.20997187 5
4.4740276 0.37019095 -0.078361303 6
5.1978264 0.44926587 0.091066658 3
5.4683275 0.46976194 0.28763846 42
5.4214921 0.46287912 0.47604465 37
5.3841538 0.45590547 0.66345674 55
5.3462286 0.44987509 0.84975213 61
5.3116975 0.44416875 1.0360929 69
5.2630239 0.43640164 1.2192347 82
5.1887589 0.42750844 1.3950348 81
2.0181723 0.16095987 -0.54248476 12
2.1835415 0.1729985 -0.50569004 9
2.4054346 0.18889022 -0.46900854 8
2.6508057 0.20676197 -0.42112163 7
2.9964509 0.23214385 -0.3690204 8
3.4347348 0.26368695 -0.30138457 5
3.9968987 0.3047398 -0.21007656 5
4.4804912 0.33925146 -0.078431122 4
5.1888747 0.41202 0.09085723 3
5.4674911 0.43126285 0.28742909 42
5.4245911 0.42502129 0.47604465 26
5.3733516 0.41723016 0.66175061 58
5.34727 0.41238853 0.84943926 64
5.2911782 0.40527603 1.0315135 70
5.256227 0.39890829 1.2169853 85
5.1993227 0.39185193 1.3971052 91
2.0192466 0.14686741 -0.54248476 12
2.1769214 0.15718994 -0.5038904 10
2.4047368 0.17195135 -0.46862692 8
2.6600661 0.18880896 -0.42237309 9
3.0019588 0.21149659 -0.36950788 6
3.4126413 0.23803796 -0.29929283 5
3.9889662 0.27613911 -0.20955318 5
4.4827499 0.30796346 -0.078431122 4
5.2035923 0.37665102 0.091066658 3
5.4604087 0.39236635 0.28690574 47
5.421464 0.38671488 0.47552174 35
5.360292 0.37859061 0.65980065 61
5.3441067 0.37463567 0.84850067 63
5.2977958 0.36860183 1.0322767 78
5.2472191 0.36139977 1.2142859 85
5.178803 0.35396346 1.3908936 79
2.0202229 0.13276684 -0.54248476 12
2.1837995 0.14236866 -0.50524008 9
2.3941231 0.15440196 -0.46633717 9
2.6652625 0.17048711 -0.42299888 7
2.9954379 0.19003253 -0.36853293 8
3.4261508 0.21495432 -0.30033869 5
4.0027575 0.24902634 -0.21018122 7
4.4728155 0.27591959 -0.078221686 4
5.1981125 0.3397921 0.090927035 3
5.4430838 0.3529436 0.28585902 47
5.4260201 0.34898439 0.47569603 46
5.3588424 0.34090748 0.6593132 60
5.3327918 0.33644694 0.84631056 60
5.2963204 0.33136207 1.0315135 76
5.2379436 0.32403651 1.2115865 89
5.1965737 0.31874618 1.3950348 91
2.0114577 0.11809366 -0.53989661 11
2.1866858 0.12723258 -0.50569004 11
2.3892629 0.13734607 -0.46519238 9
2.6663878 0.1518759 -0.42299888 7
3.012547 0.1700106 -0.37048283 8
3.4196107 0.19058657 -0.29964143 6
4.0063925 0.22118585 -0.21028589 5
4.4666452 0.24424993 -0.078082062 4
5.2283068 0.30512524 0.091415711 3
5.4513969 0.31528106 0.28617305 64
5.4124107 0.31018314 0.47430155 49
5.3591099 0.30337521 0.65906948 62
5.3231769 0.29854518 0.84443337 58
5.2887044 0.29383418 1.0296054 15
nan nan nan nan
nan nan nan nan
2.0083745 0.10384959 -0.53886127 12
2.1972516 0.11246265 -0.50793952 10
2.4038887 0.12135541 -0.46786368 8
2.6634369 0.13306016 -0.42237309 7
3.0096953 0.1487789 -0.36999539 9
3.4248378 0.16690412 -0.29999006 6
4.013824 0.19350101 -0.21059991 7
4.4682417 0.21306305 -0.078082062 4
5.2303095 0.26861733 0.091415711 4
5.4414973 0.27660707 0.28554502 64
nan nan nan nan
nan nan nan nan
nan nan nan nan
nan nan nan nan
nan nan nan nan
nan nan nan nan
2.0187001 0.090256445 -0.54144943 12
2.1824086 0.096430972 -0.50434029 10
2.4066389 0.10465659 -0.46824533 9
2.6623275 0.11437912 -0.42206025 5
3.0225601 0.12827006 -0.37145779 8
3.4219384 0.14282401 -0.29964143 6
3.9891346 0.16440533 -0.20923917 6
4.4816084 0.18235143 -0.078291491 4
5.2360525 0.23227359 0.091485515 3
5.4353147 0.23826165 0.28512633 56
nan nan nan nan
8.1017504 0.34523109 0.99567258 1
8.0050421 0.33691147 1.2689966 1
7.9129372 0.32888481 1.5394472 1
7.8702397 0.321603 1.8185045 2
7.7906179 0.3142637 2.0891874 3
2.027003 0.076452307 -0.54352003 12
2.1771863 0.080975257 -0.5029906 10
2.4131963 0.088066176 -0.46939012 9
2.661087 0.095717505 -0.42174736 7
3.0114791 0.10674214 -0.36999539 8
3.4467461 0.11976278 -0.30173317 5
3.9802046 0.13621037 -0.20871581 6
4.4867697 0.15119417 -0.078361303 4
5.2335501 0.19556655 0.091415711 3
5.4188819 0.19965097 0.28418428 50
nan nan nan nan
8.0444489 0.28654191 0.98836046 1
8.0032501 0.28087896 1.2683709 1
7.91504 0.27363408 1.5394472 1
7.7982836 0.26414734 1.8014082 14
7.7308369 0.25781059 2.072623 3
2.0216947 0.062122263 -0.54196709 12
2.1874378 0.066068858 -0.50524008 10
2.3980532 0.070753537 -0.46633717 6
2.6616905 0.077137277 -0.42174736 6
3.008182 0.085602522 -0.36950788 8
3.4315486 0.095852003 -0.30033869 4
3.9950345 0.1088006 -0.20944853 5
4.4757223 0.11954657 -0.078151874 4
5.2347879 0.15902472 0.091415711 4
5.4141545 0.16163635 0.28387025 54
nan nan nan nan
8.006566 0.22924164 0.9834857 1
7.9023376 0.22211665 1.2521017 1
7.8480692 0.21647537 1.5260904 10
nan nan nan nan
7.7092738 0.20322199 2.0664113 3
2.0162849 0.047869097 -0.54041415 12
2.1897941 0.050841287 -0.50569004 9
2.4004421 0.054474525 -0.46671882 8
2.6740031 0.059281871 -0.4236246 7
3.012676 0.064684592 -0.36999539 8
3.4361179 0.071976386 -0.30068728 4
3.9936852 0.08156389 -0.20934384 7
4.4704494 0.088178925 -0.078047164 6
5.2477436 0.12367158 0.091625139 3
5.4131327 0.12473354 0.28376558 57
nan nan nan nan
7.9523716 0.17352089 0.97666097 3
7.8977413 0.16819192 1.251163 3
7.8964977 0.16265433 1.5352492 2
7.8265128 0.15710963 1.8072569 29
7.7529716 0.15157257 2.0777996 9
2.0146327 0.034110848 -0.53989661 12
2.1900895 0.035934623 -0.50569004 9
2.4046898 0.037775483 -0.46748206 9
2.6625011 0.040431127 -0.42174736 7
3.0170162 0.044234619 -0.37048283 8
3.4405215 0.048043285 -0.30103594 4
4.0041432 0.053816844 -0.20986721 7
4.4729457 0.057775389 -0.078082062 4
5.2324839 0.086767152 0.091345899 3
5.4138713 0.086939722 0.28376558 57
8.0801573 0.12552522 0.70700741 1
8.0089664 0.11882319 0.9834857 3
7.9441524 0.11370142 1.2583591 3
7.8974218 0.10889694 1.5352492 3
7.8313155 0.10251746 1.8081566 4
7.7287288 0.097127348 2.0710702 9
2.0167534 0.020064443 -0.54041415 12
2.1785948 0.020533839 -0.5029906 9
2.4088216 0.021020927 -0.46824533 9
2.6627185 0.021842381 -0.42174736 7
3.0291615 0.023262259 -0.37194526 8
3.4328034 0.02396547 -0.30033869 4
3.9844487 0.025730457 -0.20882049 4
4.4812393 0.02659227 -0.078221686 3
5.2409606 0.050312202 0.091485515 3
5.4143462 0.049141649 0.28376558 59
nan nan nan nan
7.9897504 0.062755086 0.98104829 1
7.9289498 0.05812595 1.2558562 3
7.8862104 0.053683467 1.5329596 3
7.8240461 0.047794454 1.8063571 6
7.7253542 0.043146696 2.0700347 9
2.0149126 0.0059786313 -0.53989661 12
2.1825826 0.0053334036 -0.5038904 10
2.4089096 0.0042048185 -0.46824533 9
2.6667564 0.0032586681 -0.42237309 7
3.0173397 0.002107285 -0.37048283 6
3.4408567 -0 -0.30103594 4
3.9745452 -0.0020810671 -0.20829713 6
4.4773159 -0.0046886355 -0.078151874 3
5.2611809 0.013772019 0.09183456 3
5.3985791 0.011305148 0.2829282 59
nan nan nan nan
7.9860239 0.0069711134 0.98056084 3
7.9331131 0.0027714076 1.2564818 3
7.8863931 -0.0013764352 1.5329596 3
7.8124967 -0.0068176906 1.8036578 6
7.7254677 -0.010786794 2.0700347 9
2.0245645 -0.008127165 -0.54248476 12
2.1825666 -0.0099042412 -0.5038904 10
2.4029906 -0.012582143 -0.46710047 9
2.6706653 -0.015382097 -0.42299888 6
3.0014005 -0.018858602 -0.36853293 6
3.4487422 -0.024077153 -0.30173317 4
3.9904115 -0.029948262 -0.2091345 4
4.4771738 -0.035945825 -0.078151874 4
5.25315 -0.022921335 0.091694944 3
5.3865433 -0.026323825 0.28230017 50
nan nan nan nan
nan nan nan nan
nan nan nan nan
9.7021551 -0.069428355 1.8859563 1
nan nan nan nan
nan nan nan nan
2.0147996 -0.022154771 -0.53989661 13
2.190239 -0.025230853 -0.50569004 9
2.4087336 -0.029429697 -0.46824533 9
2.6625917 -0.03392566 -0.42174736 7
3.0131052 -0.039969683 -0.36999539 8
3.4405215 -0.048041858 -0.30103594 4
3.9741287 -0.057574179 -0.20829713 6
4.4768138 -0.067201264 -0.078151874 3
5.252862 -0.059594385 0.091694944 4
5.3862281 -0.063928045 0.28230017 63
nan nan nan nan
9.8432302 -0.12885495 1.2087002 1
9.7732592 -0.13305715 1.5480757 1
9.6896553 -0.13699341 1.8836665 1
nan nan nan nan
9.7353849 -0.14953654 2.6088963 2
2.0088012 -0.036115892 -0.53834367 12
2.1919575 -0.040556911 -0.50613987 9
2.3947291 -0.04598115 -0.46557397 9
2.66624 -0.052590989 -0.42237309 7
3.0206914 -0.061164726 -0.37097031 8
3.4281502 -0.071809508 -0.29999006 4
3.9836137 -0.08553157 -0.20882049 3
4.4722366 -0.098365478 -0.078082062 4
5.2603149 -0.096411094 0.09183456 4
5.3796606 -0.10141622 0.28198618 56
nan nan nan nan
9.7746105 -0.19621538 1.2004131 1
9.7720919 -0.20128356 1.5480757 1
9.6217279 -0.20322649 1.8706915 1
nan nan nan nan
7.7950082 -0.17417112 2.0891874 3
2.0142939 -0.050283607 -0.53989661 12
2.1877248 -0.055759251 -0.50524008 9
2.4022 -0.062903829 -0.46710047 9
2.6579092 -0.070992447 -0.42112163 7
3.0162222 -0.082143389 -0.37048283 8
3.4275656 -0.095740572 -0.29999006 5
3.9809232 -0.11328331 -0.20871581 1
4.4794374 -0.12981667 -0.078221686 4
5.2515178 -0.13292998 0.091694944 4
5.3848104 -0.1391253 0.28230017 59
nan nan nan nan
9.7333155 -0.26337579 1.1955384 1
9.7704487 -0.2695002 1.5480757 1
9.5886736 -0.26951078 1.8645855 1
nan nan nan nan
7.7627053 -0.22767965 2.0809052 3
2.0196862 -0.064529762 -0.54144943 13
2.18923 -0.071094222 -0.50569004 10
2.4154375 -0.08012832 -0.46977177 9
2.6691947 -0.08994545 -0.42299888 7
3.0076392 -0.10292683 -0.36950788 8
3.4307959 -0.11980603 -0.30033869 4
3.9640672 -0.14050642 -0.20787844 1
4.4864149 -0.16137314 -0.078361303 4
5.2584562 -0.16984716 0.09183456 3
5.3797159 -0.17658365 0.28209084 59
nan nan nan nan
9.7431431 -0.33172545 1.1970007 1
9.717 -0.33592916 1.5399411 1
9.6375723 -0.33823562 1.8745077 1
nan nan nan nan
7.7686496 -0.28214803 2.0829759 3
2.0230474 -0.07877849 -0.54248476 12
2.1828387 -0.086145535 -0.50434029 10
2.3991258 -0.096358843 -0.46671882 9
2.6606064 -0.10825635 -0.42174736 6
3.0108144 -0.12408493 -0.36999539 8
3.4378386 -0.1440881 -0.30103594 4
3.9749625 -0.16868527 -0.20850646 1
4.4771881 -0.19234672 -0.078221686 3
5.2611389 -0.20671073 0.091904372 3
5.3623862 -0.21350086 0.28125346 57
nan nan nan nan
nan nan nan nan
nan nan nan nan
nan nan nan nan
nan nan nan nan
7.75877 -0.33604178 2.0809052 3
2.0147288 -0.09254539 -0.54041415 12
2.1899705 -0.10174415 -0.50613987 10
2.3964334 -0.11301293 -0.46633717 9
2.6676786 -0.12720446 -0.42299888 7
3.0178058 -0.14548354 -0.37097031 8
3.4367487 -0.16808505 -0.30103594 4
3.971693 -0.1963328 -0.2084018 3
4.4757361 -0.22359845 -0.078221686 4
5.2595673 -0.24343504 0.091904372 4
5.360765 -0.25093186 0.28125346 57
nan nan nan nan
nan nan nan nan
nan nan nan nan
nan nan nan nan
14.546869 -0.724186 3.3625686 3
7.7446589 -0.3896172 2.0777996 3
2.0043876 -0.10609791 -0.537826 12
2.1950448 -0.11734251 -0.50748962 11
2.4053884 -0.13027117 -0.46824533 9
2.6588356 -0.14539367 -0.42174736 7
3.0167167 -0.16654807 -0.37097031 8
3.4315464 -0.19125243 -0.30068728 2
3.9941547 -0.22540584 -0.20965785 3
4.4740663 -0.25483927 -0.078221686 4
5.245759 -0.27950916 0.091694944 3
5.3668604 -0.28877991 0.28167215 57
nan nan nan nan
nan nan nan nan
nan nan nan nan
nan nan nan nan
14.541602 -0.82318586 3.3625686 3
7.7224627 -0.44256985 2.072623 3
2.0190256 -0.12101313 -0.54196709 12
2.1902819 -0.13242862 -0.50658983 11
2.408365 -0.14688 -0.46900854 9
2.6636994 -0.16385213 -0.42268598 9
3.0174618 -0.18772778 -0.37121406 9
3.4201853 -0.21458051 -0.29981574 2
3.9566491 -0.25031787 -0.20777377 3
4.4801602 -0.28657827 -0.078361303 3
5.227766 -0.31424922 0.091415711 4
5.3647704 -0.32530403 0.28167215 66
nan nan nan nan
nan nan nan nan
nan nan nan nan
14.616817 -0.9221735 2.8468704 3
5.2081985 -0.33132261 1.2048379 1
7.7269835 -0.49561894 2.0746937 3
2.0239377 -0.13513941 -0.54352003 12
2.1796079 -0.14667998 -0.50434029 10
2.4092395 -0.16382301 -0.46939012 9
2.6684027 -0.18284924 -0.4236246 9
3.0101728 -0.20785223 -0.37048283 8
3.4364922 -0.23970023 -0.30138457 4
3.9587898 -0.27821422 -0.20798311 4
4.4781055 -0.31706685 -0.078361303 3
5.2254448 -0.35073796 0.091415711 4
5.3484197 -0.36180529 0.28093943 63
nan nan nan nan
nan nan nan nan
nan nan nan nan
14.610203 -1.0216448 2.8468704 3
5.2057586 -0.36767438 1.2048379 1
7.7271891 -0.54982513 2.0757289 3
2.0248713 -0.14940789 -0.54403764 13
2.184361 -0.16232605 -0.50569004 10
2.4119527 -0.1809323 -0.47015342 9
2.6690309 -0.20162238 -0.42393744 9
3.0145867 -0.22931367 -0.37121406 9
3.4267886 -0.26307538 -0.30068728 2
3.9627252 -0.30630657 -0.20829713 6
4.4757833 -0.34832197 -0.078361303 3
5.2268572 -0.38750526 0.091485515 3
5.3457637 -0.3991352 0.28093943 59
nan nan nan nan
nan nan nan nan
nan nan nan nan
14.602714 -1.1236176 2.8468704 3
5.1680927 -0.40129259 1.1967397 1
7.7231622 -0.60375732 2.0757289 3
2.0180025 -0.16307361 -0.54248476 12
2.1851168 -0.17772967 -0.50613987 10
2.3930206 -0.19632164 -0.46671882 9
2.6695271 -0.22041322 -0.42425033 7
3.018847 -0.25084683 -0.37194526 8
3.4248683 -0.28699228 -0.30068728 4
3.9684508 -0.33463517 -0.20871581 6
4.4652724 -0.37888387 -0.078221686 3
5.2319975 -0.42463297 0.091625139 4
5.3448377 -0.43660831 0.28104413 64
nan nan nan nan
nan nan nan nan
nan nan nan nan
5.2508945 -0.44092989 1.0242627 1
5.1554565 -0.43654051 1.1944902 1
7.6995096 -0.65601993 2.0705523 3
1.9994947 -0.17563643 -0.537826 12
2.1877053 -0.19332328 -0.50703973 10
2.4013693 -0.21389404 -0.46862692 9
2.6639881 -0.23869196 -0.4236246 9
3.0091138 -0.27120334 -0.37097031 8
3.4069078 -0.30945337 -0.29929283 4
3.966018 -0.36233181 -0.20871581 6
4.4585357 -0.40968189 -0.078151874 3
5.2169538 -0.46009451 0.091415711 3
5.335691 -0.47338185 0.2807301 63
nan nan nan nan
nan nan nan nan
14.845551 -1.3432139 2.3609092 2
5.1968541 -0.4729507 1.0143408 1
5.1484017 -0.47216552 1.1935904 4
7.687048 -0.70904648 2.0684819 3
2.0078359 -0.19050352 -0.54041415 11
2.1843622 -0.20840643 -0.50658983 10
2.4115431 -0.23178039 -0.47091663 7
2.6583247 -0.25690413 -0.42299888 9
3.019002 -0.29335603 -0.37243277 8
3.440357 -0.33672372 -0.30243042 4
3.9713426 -0.39079317 -0.2091345 6
4.471487 -0.4423731 -0.078431122 3
5.2096329 -0.49612504 0.091345899 4
5.3362327 -0.51100087 0.28093943 66
nan nan nan nan
nan nan nan nan
nan nan nan nan
5.201241 -0.5099861 1.0158671 1
5.1488585 -0.50847936 1.1944902 4
7.7280478 -0.76727527 2.0809052 3
2.0160666 -0.20549558 -0.54300237 12
2.178977 -0.2232537 -0.50569004 9
2.4137721 -0.24901329 -0.47167987 8
2.6682551 -0.27667871 -0.42487606 9
3.0247781 -0.31524843 -0.37340769 4
3.426033 -0.35948604 -0.30138457 4
3.9605722 -0.41767076 -0.20871581 9
4.4682899 -0.4735789 -0.078431122 3
5.2179785 -0.53370357 0.091555327 4
5.3305478 -0.54803783 0.28083476 68
nan nan nan nan
nan nan nan nan
nan nan nan nan
5.2366042 -0.55038923 1.0234995 1
5.131618 -0.54297721 1.1913409 14
5.102231 -0.54256928 1.3748468 1
2.0242236 -0.22025852 -0.54559058 12
2.1793439 -0.23829205 -0.50613987 10
2.4022636 -0.26436365 -0.46977177 9
2.6584566 -0.29396597 -0.4236246 9
3.0027742 -0.33416197 -0.37097031 8
3.4353871 -0.38412616 -0.30243042 4
3.9695461 -0.44595748 -0.20934384 7
4.4609003 -0.50431234 -0.078361303 3
5.2261519 -0.57051069 0.091764756 4
5.3187528 -0.58343756 0.28041607 64
nan nan nan nan
nan nan nan nan
14.814454 -1.6512355 2.3609092 2
5.179956 -0.58102512 1.0131959 1
5.1258664 -0.57767588 1.1908909 17
5.0715456 -0.57424337 1.3676 1
2.0130007 -0.23362423 -0.54300237 12
2.1853256 -0.25478357 -0.50793952 10
2.3945098 -0.28044289 -0.46862692 9
2.6621704 -0.31367528 -0.4245632 7
3.0082536 -0.35605028 -0.37194526 8
3.4365785 -0.40857059 -0.30277905 4
3.9702196 -0.47482565 -0.20955318 7
4.4612422 -0.53591979 -0.078431122 3
5.2498503 -0.61021417 0.092253424 4
5.3164253 -0.62171453 0.28052074 63
nan nan nan nan
nan nan nan nan
nan nan nan nan
5.181622 -0.61787099 1.0143408 1
nan nan nan nan
nan nan nan nan
1.9998167 -0.24625523 -0.53989661 12
2.1912296 -0.27099037 -0.5097391 10
2.4021828 -0.29878193 -0.47053501 9
2.6579554 -0.33200809 -0.42425033 9
3.0175126 -0.37852547 -0.37340769 9
3.4217067 -0.43165538 -0.30173317 4
3.9707716 -0.50303334 -0.20976254 7
4.453424 -0.5665471 -0.078361303 3
5.225503 -0.64531446 0.091904372 4
5.3159199 -0.65930635 0.2807301 66
5.2788882 -0.65752023 0.46541166 53
nan nan nan nan
nan nan nan nan
nan nan nan nan
5.1210546 -0.65057212 1.1917908 114
5.0590882 -0.64539194 1.3665646 81
2.0172055 -0.2627053 -0.54507297 12
2.1718938 -0.28400725 -0.50569004 11
2.4000385 -0.31554493 -0.47053501 9
2.6575313 -0.3508144 -0.4245632 7
3.0187321 -0.4001039 -0.37389517 8
3.4265096 -0.45658532 -0.30243042 4
3.9592438 -0.52968258 -0.20934384 5
4.477107 -0.60135055 -0.078849971 3
5.2248368 -0.68229729 0.091974184 4
5.3131676 -0.69666171 0.28083476 64
5.2761455 -0.69461775 0.46558598 61
5.218946 -0.69079435 0.64639509 65
5.2106652 -0.69247448 0.83254427 81
5.1685977 -0.6896382 1.0135775 100
5.1105933 -0.68553048 1.190441 100
5.0602031 -0.68146843 1.3681176 82
2.0134084 -0.27651867 -0.54455531 12
2.169858 -0.29916289 -0.50569004 10
2.4055557 -0.33337051 -0.47206149 9
2.6589305 -0.36990312 -0.42518893 7
3.0119333 -0.42061961 -0.37340769 8
3.4391069 -0.48211086 -0.3038249 4
3.9495163 -0.55647421 -0.20902982 4
4.4807196 -0.63371199 -0.078989588 3
5.2476797 -0.72257531 0.092462853 4
5.3002605 -0.73264354 0.28041607 64
5.2751141 -0.73198253 0.46593457 67
5.2080975 -0.72638959 0.64566386 71
5.2096171 -0.72938246 0.83317006 87
5.1461601 -0.72324568 1.0101428 100
5.0961604 -0.71893984 1.1881915 100
5.06106 -0.71759212 1.3696705 93
2.0114288 -0.29056808 -0.54455531 12
2.1792879 -0.31598172 -0.50838941 10
2.389631 -0.34775764 -0.46939012 9
2.6563511 -0.38799319 -0.42518893 7
3.0128515 -0.44221297 -0.37389517 8
3.445513 -0.50756019 -0.30469647 2
3.9535406 -0.58451313 -0.20944853 3
4.4643188 -0.6632145 -0.078780167 3
5.250556 -0.75942314 0.092602469 4
5.2852683 -0.76726937 0.27989271 14
5.2797332 -0.7702297 0.46680617 26
5.2049971 -0.76211041 0.64590758 20
5.1849875 -0.76195395 0.83004135 34
5.1468124 -0.76001513 1.0112877 34
5.0794511 -0.75278586 1.1854922 53
5.0484152 -0.75088793 1.3676 42
2.003674 -0.30338493 -0.54300237 13
2.1809402 -0.33139375 -0.50928926 9
2.3929675 -0.36532062 -0.47053501 9
2.6691985 -0.40892154 -0.42769188 9
3.0019238 -0.46150389 -0.37292022 6
3.4182572 -0.52795243 -0.30260473 2
3.965153 -0.61454672 -0.21028589 3
4.4636526 -0.69420117 -0.078849971 3
5.2648969 -0.79906082 0.092951514 4
5.2896552 -0.80565214 0.28041607 71
5.2586112 -0.80374128 0.46541166 57
5.2093601 -0.79993582 0.64712632 60
5.1814942 -0.79843402 0.83035421 84
5.1492801 -0.79623049 1.0128142 92
5.0894771 -0.79062164 1.1890913 100
5.0392323 -0.78551877 1.3665646 76
2.0034153 -0.31766829 -0.54352003 12
2.1843472 -0.34752995 -0.51063895 9
2.3942361 -0.38263735 -0.47129822 9
2.6545756 -0.42566934 -0.42581466 7
3.0182276 -0.48560312 -0.3753576 8
3.4243226 -0.55339265 -0.30347627 2
3.9706235 -0.64381188 -0.21080926 3
4.47054 -0.72727269 -0.0790594 3
5.25524 -0.8351692 0.092881702 4
5.2957363 -0.84444797 0.28104413 71
5.2430358 -0.83885968 0.46454012 68
5.2114887 -0.8375442 0.64810121 71
5.1777444 -0.83490241 0.83066714 76
5.1397204 -0.83153254 1.012051 100
5.0838337 -0.82613325 1.1890913 100
5.0336256 -0.82067984 1.3665646 79
2.0087721 -0.33291027 -0.54559058 12
2.1664889 -0.36021399 -0.50703973 9
2.3934431 -0.39966619 -0.47167987 9
2.6437464 -0.44288582 -0.4245632 7
3.0147638 -0.50666237 -0.3753576 8
3.4321632 -0.57927471 -0.30452216 4
3.97194 -0.67251641 -0.21112327 3
4.4771824 -0.76047409 -0.079268835 3
5.2611175 -0.87380278 0.093091138 4
5.2798615 -0.87975693 0.28052074 63
5.2488427 -0.87741327 0.46558598 68
5.1957254 -0.87226319 0.64688253 66
5.1698413 -0.87070107 0.83035421 78
5.1260471 -0.86608577 1.0105245 94
5.0856271 -0.86290866 1.1908909 100
5.0353913 -0.85709757 1.3686352 100
2.0025921 -0.34626764 -0.54455531 12
2.1639214 -0.37533009 -0.50703973 9
2.4041336 -0.41872373 -0.47435117 9
2.6483736 -0.46269152 -0.42581466 7
3.0033319 -0.52632618 -0.37438264 8
3.4319599 -0.60391194 -0.30487078 4
3.9750156 -0.7016179 -0.21154197 3
4.4835787 -0.79380381 -0.079478264 3
5.2765632 -0.91426623 0.093475096 6
5.2755589 -0.91693765 0.28062543 68
nan nan nan nan
nan nan nan nan
nan nan nan nan
nan nan nan nan
nan nan nan nan
4.9436884 -0.87704462 1.3453414 69
2.0077307 -0.36160952 -0.54662579 13
2.1708367 -0.39215997 -0.50928926 9
2.3895612 -0.43339527 -0.47206149 9
2.6547964 -0.48293695 -0.42737901 9
2.9956787 -0.5465678 -0.37389517 8
3.4394193 -0.6300106 -0.30591667 3
3.9543052 -0.72646427 -0.21070457 3
4.4818606 -0.82581007 -0.079548068 4
5.289731 -0.9546324 0.093824141 6
5.2611675 -0.95232236 0.28020674 64
nan nan nan nan
nan nan nan nan
11.70373 -2.1395912 1.8844098 9
11.632723 -2.1329052 2.2988667 14
nan nan nan nan
nan nan nan nan
1.9994611 -0.37455016 -0.54507297 12
2.1795373 -0.40946442 -0.51198864 10
2.3845482 -0.44970301 -0.47167987 9
2.6610651 -0.50329453 -0.42894334 7
3.0034919 -0.56968766 -0.3753576 6
3.4310226 -0.65326142 -0.30556804 3
3.9569848 -0.75555098 -0.21112327 3
4.475986 -0.85707897 -0.079548068 3
5.3025913 -0.99522698 0.094173186 6
5.2602792 -0.9901371 0.28052074 66
nan nan nan nan
nan nan nan nan
14.549018 -2.7648482 2.3455787 2
14.429366 -2.749939 2.8552659 3
nan nan nan nan
14.210426 -2.7262096 3.8771093 2
1.9949012 -0.38813087 -0.54455531 12
2.1766257 -0.42467037 -0.51198864 10
2.3909838 -0.46822572 -0.47358796 9
2.6497333 -0.52033728 -0.42769188 7
3.0033369 -0.59140897 -0.37584507 6
3.41856 -0.67565304 -0.30487078 4
3.9633682 -0.78548688 -0.2117513 3
4.4855847 -0.89142442 -0.079827309 3
5.3033652 -1.0337518 0.094312809 6
5.2630396 -1.0287521 0.28104413 56
nan nan nan nan
nan nan nan nan
14.438275 -2.848382 2.3308737 2
14.359742 -2.8407009 2.8453438 3
11.57561 -2.2983317 2.7246072 12
14.134209 -2.814033 3.8615804 2
