# .PCD v0.7 - Point Cloud Data file format
VERSION 0.7
FIELDS x y z intensity
SIZE 4 4 4 4
TYPE F F F F
COUNT 1 1 1 1
WIDTH 1442
HEIGHT 1
VIEWPOINT 0 0 0 1 0 0 0
POINTS 1442
DATA ascii
1.2735295 -4.0963855 0.52671933 7
1.3084852 -4.21661 0.69926214 18
2.1556361 -6.9594355 1.4161844 13
1.2577041 -4.0680122 0.98303622 10
1.2252011 -3.9727073 1.1139573 37
0.79932666 -2.6161132 -0.73297554 7
0.87485272 -2.8686757 -0.69239938 23
0.9673264 -3.1778626 -0.64569765 34
1.1243746 -3.700752 -0.61259741 19
1.3178791 -4.3485637 -0.55791789 14
1.4011992 -4.6322284 -0.42340261 30
1.2763473 -4.2274656 -0.23142964 37
1.3210802 -4.3866935 -0.079966925 8
1.2695876 -4.1578231 0.075883061 7
1.2326767 -4.0445223 0.22159046 20
1.2482964 -4.10605 0.37546691 36
1.2629095 -4.1619463 0.53403151 22
1.3896923 -4.588408 0.75933295 10
1.2275215 -4.0631824 0.82505816 23
1.2275857 -4.0710964 0.98168647 16
1.1658396 -3.8736613 1.0839342 38
0.77994037 -2.6179266 -0.73194027 7
0.85591549 -2.8784494 -0.69329923 38
0.95126069 -3.2072897 -0.65027708 23
1.0939388 -3.6954441 -0.61040735 15
1.2874888 -4.3576579 -0.55791789 14
1.3344504 -4.5253248 -0.41276959 15
1.2607163 -4.2863088 -0.23415108 30
1.3011249 -4.4322653 -0.080630124 10
1.3561409 -4.5577989 0.08300364 12
1.2088206 -4.0704713 0.22253251 19
1.2162031 -4.1032033 0.37442106 33
1.2111459 -4.0966344 0.5245257 17
1.966192 -6.6633673 1.1003602 7
1.2551434 -4.2618637 0.86360151 7
1.2365049 -4.2067027 1.0122797 1
1.1293948 -3.8522429 1.075652 24
0.76649302 -2.6400051 -0.73659903 19
0.82603687 -2.8506632 -0.68520099 17
0.9348616 -3.2325501 -0.65409327 16
1.0709506 -3.7103961 -0.61165881 16
1.2581342 -4.3703556 -0.5584054 17
1.2720156 -4.4272943 -0.40300813 20
1.2540829 -4.3735061 -0.23844264 24
1.2498059 -4.3701038 -0.07933864 11
1.3295434 -4.5822883 0.083282888 12
1.1816412 -4.0805235 0.22263718 22
1.1947153 -4.1364775 0.37668711 10
nan nan nan nan
1.2703326 -4.4156275 0.72773325 42
nan nan nan nan
1.3852217 -4.8372135 1.1616473 14
1.1434938 -4.0010099 1.1149925 12
0.75113535 -2.6544557 -0.73918724 12
0.81667662 -2.8918521 -0.69374907 22
0.91599751 -3.2522259 -0.65676457 19
1.061058 -3.7748327 -0.62104493 15
1.2401521 -4.4208674 -0.56376767 14
1.2598647 -4.5032225 -0.40910906 11
1.2133145 -4.3456049 -0.23645388 48
1.2001714 -4.3072362 -0.078047164 16
1.2126874 -4.2912626 0.077837728 15
1.1639678 -4.1271195 0.22473061 9
1.2669364 -4.5012379 0.40910906 25
1.2752601 -4.5429683 0.57936692 7
1.1931143 -4.2589021 0.7005136 51
1.1788185 -4.2163692 0.85100812 16
1.2305125 -4.4131474 1.0577199 9
1.0482081 -3.7669473 1.0476996 33
0.73463768 -2.6670845 -0.74125779 20
0.80783117 -2.938822 -0.70364696 12
0.8963846 -3.269902 -0.65905434 16
1.0388489 -3.7973912 -0.62354785 19
1.2144876 -4.4485674 -0.56620502 14
1.2147875 -4.4619255 -0.40457696 13
1.1876606 -4.371316 -0.23739593 24
1.2224008 -4.5085115 -0.081537649 21
1.2463427 -4.5309939 0.08202631 13
1.1224382 -4.0889201 0.2222185 42
1.2138987 -4.4311876 0.40196225 15
nan nan nan nan
1.1721854 -4.2995262 0.70583236 27
1.1637855 -4.2775397 0.8616935 46
1.9860177 -7.3198586 1.7510191 19
1.0733824 -3.9643736 1.1004987 23
0.7125001 -2.6590862 -0.7376343 22
0.78175771 -2.9236815 -0.69869804 7
0.8770752 -3.2893591 -0.66172564 15
1.0046937 -3.7759166 -0.61885482 19
1.1849295 -4.4626937 -0.56693625 21
1.4191228 -5.35602 -0.48476022 30
1.1836439 -4.4799128 -0.24283887 22
1.1786609 -4.4705281 -0.080699928 15
1.1304276 -4.2247109 0.076336823 11
1.099533 -4.1178823 0.22336988 31
1.2126864 -4.5512166 0.41207233 23
nan nan nan nan
1.0940452 -4.1262121 0.67610979 30
1.1143097 -4.2115402 0.84681034 12
1.0795069 -4.0886588 0.9762876 16
1.0274814 -3.902647 1.0813459 28
0.69684058 -2.6752126 -0.74074018 10
0.76279825 -2.9347262 -0.70004773 12
0.85220081 -3.2857509 -0.65981752 19
0.98886776 -3.8209155 -0.62511224 19
1.1631694 -4.5073771 -0.57156724 24
1.2107852 -4.7020659 -0.42479706 11
1.122804 -4.3698654 -0.23645388 54
1.1290598 -4.4069743 -0.079408452 19
1.1343874 -4.3580966 0.078605637 13
1.0654533 -4.1020741 0.22211383 17
1.1823825 -4.5653582 0.41259527 12
1.1468623 -4.4377804 0.56279266 20
1.0383114 -4.0264463 0.65858912 36
1.0653243 -4.1431613 0.83154565 16
1.0829003 -4.2206774 1.0059812 33
nan nan nan nan
0.68146044 -2.6911299 -0.74384594 13
0.75282979 -2.9795268 -0.70949566 7
0.83643526 -3.3201768 -0.66554183 15
0.96602106 -3.8430519 -0.62761515 21
1.1369827 -4.5365691 -0.57424843 19
1.20403 -4.8147793 -0.43420991 10
1.1382036 -4.5616932 -0.2463977 16
1.04468 -4.199348 -0.075534016 6
1.1299152 -4.4686599 0.080455594 13
1.1134981 -4.4134545 0.23854731 18
1.1420388 -4.5365906 0.40928334 15
nan nan nan nan
1.1095147 -4.4302497 0.72335303 9
1.8772696 -7.5181332 1.5062463 7
nan nan nan nan
1.0425502 -4.1939125 1.1579564 24
0.66909826 -2.7240789 -0.75161052 13
0.7314899 -2.9848375 -0.70949566 12
0.82536 -3.3755193 -0.67546391 17
0.94738561 -3.8863306 -0.63355964 16
1.1104442 -4.5656133 -0.57692951 14
1.2859701 -5.2993722 -0.47709054 11
1.0703087 -4.4241271 -0.23854731 12
1.0566268 -4.3775997 -0.078605637 11
1.0986905 -4.4764395 0.080455594 15
1.0534046 -4.3049088 0.23226699 10
1.1000955 -4.5059357 0.40579712 16
1.703528 -6.9934545 0.88379657 10
nan nan nan nan
1.0156949 -4.1919756 0.83841473 17
1.1154456 -4.6142211 1.0959616 14
1.0165865 -4.2181678 1.1626152 12
0.65319818 -2.7418387 -0.755234 13
0.71018338 -2.9879756 -0.70904577 11
0.8011843 -3.3813388 -0.67546391 17
0.91659534 -3.8774707 -0.63105673 16
1.073987 -4.5539331 -0.57449216 21
1.0495317 -4.46069 -0.40091643 51
1.0736032 -4.5773277 -0.2463977 10
1.0114601 -4.3225627 -0.077488683 32
1.0388654 -4.3674617 0.078361303 13
0.99104339 -4.1761274 0.22493997 24
1.0901855 -4.604629 0.41398975 13
1.6967592 -7.1890068 0.90695173 1
0.9865576 -4.1897612 0.68174148 12
1.0012208 -4.2620344 0.85100812 25
0.98804659 -4.2158675 0.99968255 19
1.5342898 -6.5672493 1.8070747 21
0.63490981 -2.7500966 -0.75626928 16
0.69149292 -3.0023561 -0.71129531 12
0.78474444 -3.4154148 -0.68118817 16
0.88753343 -3.8720672 -0.62917954 16
1.0421684 -4.5613198 -0.57449216 17
1.0334188 -4.5339551 -0.40684301 33
1.0260366 -4.5124702 -0.24252485 18
0.97772318 -4.3139162 -0.07720945 16
1.0261942 -4.4484754 0.079687685 4
0.96886587 -4.2100258 0.22640537 16
1.0709316 -4.6684446 0.41904479 8
1.5733905 -6.875298 0.86600363 10
0.93647307 -4.1020136 0.66641092 22
1.0006293 -4.3971801 0.8765766 6
0.92494035 -4.0744324 0.96459019 21
0.90286255 -3.9868455 1.0953223 2
0.61491078 -2.7486987 -0.75471634 15
0.68207628 -3.0564442 -0.72299278 7
0.76216012 -3.4265597 -0.68233299 12
0.8621912 -3.8858829 -0.630431 17
1.02654 -4.638083 -0.58326674 14
1.0051748 -4.5566244 -0.40823749 18
0.99021649 -4.5000176 -0.24147813 12
0.9509089 -4.332191 -0.077418879 26
1.0770584 -4.8224349 0.086249799 8
0.96507651 -4.3317051 0.23258102 19
1.0538266 -4.7417536 0.4249714 13
1.8520625 -8.3610182 1.0514888 11
0.91591072 -4.1450996 0.67235541 10
1.6015933 -7.2663212 1.4463322 9
0.94121343 -4.2844486 1.0127298 37
1.0838348 -4.9460239 1.3567295 21
0.59611487 -2.754813 -0.755234 29
0.65907705 -3.0535119 -0.72119313 15
0.74110973 -3.4452324 -0.68500435 19
0.84374428 -3.9323673 -0.63700122 19
1.0007821 -4.6761947 -0.58716655 12
1.0793175 -5.0604138 -0.45268691 5
0.96958226 -4.5576124 -0.2441996 22
0.9513576 -4.4834781 -0.080001831 3
0.93527073 -4.3294563 0.077314161 10
0.92513579 -4.2934313 0.23017356 13
1.0265591 -4.7762661 0.42741176 18
3.9261506 -18.329454 2.3016248 11
0.88530028 -4.1436658 0.67110395 10
nan nan nan nan
1.0772614 -5.0724678 1.1971896 35
0.89875263 -4.2428617 1.1620976 2
0.58042693 -2.7759256 -0.75989276 37
0.63814133 -3.0599463 -0.72164303 10
0.72542906 -3.4906883 -0.69301832 17
0.81667203 -3.9400961 -0.63731414 16
0.97775722 -4.729723 -0.59301627 41
0.96356511 -4.6775427 -0.41782463 19
0.91965288 -4.4762325 -0.23948936 24
0.91441405 -4.462585 -0.079513162 21
0.90543181 -4.3378382 0.077349067 13
0.90490955 -4.3467131 0.23268569 16
0.99278444 -4.7813659 0.42723745 16
1.5191561 -7.3421783 0.92060113 1
1.5270585 -7.3998961 1.1967238 19
1.541145 -7.4879613 1.4860206 12
0.85624444 -4.1749959 0.98393595 27
0.85323805 -4.171433 1.1408744 2
0.56370866 -2.7931659 -0.76351619 31
0.61561054 -3.0585954 -0.72029334 26
0.69988364 -3.4898927 -0.69187343 16
0.79108256 -3.9553864 -0.63887841 14
0.93655956 -4.6955523 -0.58789778 22
0.93943065 -4.7271476 -0.42165947 11
0.91439509 -4.6138072 -0.24650237 12
0.88207388 -4.4629745 -0.079408452 17
0.90395439 -4.4871559 0.079897113 8
0.86352634 -4.2980971 0.22975488 24
0.98325735 -4.9073467 0.43787044 12
1.6520723 -8.2753305 1.0361333 2
1.4634031 -7.3503184 1.1870248 40
1.4819494 -7.4638762 1.4791514 24
0.84485155 -4.2707219 1.0050814 21
0.84765154 -4.2966938 1.1734856 12
0.54567081 -2.8046186 -0.76558679 28
0.59906769 -3.0876884 -0.72614205 13
0.67885584 -3.512042 -0.69530803 9
0.77391791 -4.0151238 -0.6476388 19
0.90075856 -4.6863809 -0.58594781 19
0.91127771 -4.7590294 -0.42392552 2
0.90726125 -4.7515206 -0.25351539 10
0.84603268 -4.4434867 -0.078954689 14
0.84172815 -4.334353 0.077069834 11
0.84451103 -4.3608847 0.23279037 25
0.9618181 -4.9806042 0.44379702 16
1.3947425 -7.2496109 0.90646422 6
1.3971653 -7.2827554 1.1745101 29
1.4984186 -7.8327017 1.5501324 28
0.91753107 -4.8144302 1.1315038 14
0.82629079 -4.3480558 1.1859089 11
0.52536613 -2.8045621 -0.76455152 33
0.58429527 -3.1281924 -0.73469019 10
0.65755314 -3.5340667 -0.69874257 8
0.75019199 -4.0437355 -0.65139318 17
0.87163025 -4.7120743 -0.58838522 21
0.86070168 -4.6712232 -0.41555858 22
0.86540592 -4.7105932 -0.25100327 8
0.8229183 -4.492558 -0.079722598 22
0.8239432 -4.4069548 0.078256592 30
0.82356286 -4.4177227 0.23551181 18
1.353032 -7.279036 0.64774144 7
1.3614461 -7.3528633 0.91816372 22
1.3570477 -7.3506083 1.1838962 28
1.3832797 -7.5147328 1.4852573 10
0.78970903 -4.3070197 1.0109302 37
0.78723025 -4.3062091 1.1729679 20
0.50748599 -2.8176677 -0.76713973 13
0.56278652 -3.1341131 -0.73514009 18
0.63735801 -3.5636947 -0.70370364 13
0.72055668 -4.0410957 -0.65014172 15
0.8501786 -4.7825418 -0.59642857 18
0.84939969 -4.7927208 -0.42584294 7
0.81375188 -4.6103096 -0.24535099 16
0.78980148 -4.4883461 -0.079548068 22
0.81084591 -4.5110073 0.080001831 9
0.78318942 -4.3702846 0.23268569 18
1.2618843 -7.0627508 0.62769562 8
1.3083415 -7.352417 0.91694498 28
1.3367537 -7.5349531 1.2120544 43
1.3396734 -7.5744715 1.4951794 4
0.80402726 -4.5598636 1.0689675 14
nan nan nan nan
0.4910948 -2.8401778 -0.7723161 21
0.54519624 -3.1629312 -0.74098879 23
0.61574566 -3.5834298 -0.70675659 12
0.69936973 -4.0829 -0.65608621 15
0.82044107 -4.809886 -0.59910977 22
0.8145836 -4.7906775 -0.42514572 4
1.1805372 -6.9649653 -0.3702246 2
0.76377249 -4.5252995 -0.080106542 35
0.76174176 -4.4100142 0.078116976 23
0.76257443 -4.428658 0.23551181 27
1.3176045 -7.684072 0.68208081 1
1.2656239 -7.4042001 0.92230725 46
1.2914057 -7.5789299 1.2176861 31
0.72285932 -4.2602324 0.83994126 8
0.7201755 -4.2579336 0.99698311 7
0.7229653 -4.2880797 1.1652035 24
0.47491243 -2.8625131 -0.77749246 25
0.52460802 -3.1723368 -0.74233854 28
0.5894382 -3.5798924 -0.70523006 16
0.67948663 -4.1403136 -0.66453367 15
0.79740548 -4.880147 -0.60715312 22
1.0059423 -6.1767173 -0.54751235 19
0.77154988 -4.7531786 -0.25236401 4
0.73535156 -4.5502625 -0.080455594 12
0.76294315 -4.6085634 0.081537649 11
0.74822181 -4.5343752 0.24085009 18
1.1540376 -7.0165677 0.6221177 1
1.2257715 -7.4853377 0.93132555 41
1.2422835 -7.6111555 1.2214404 26
0.69593382 -4.2826157 0.8433758 7
3.1443338 -19.413698 4.5404119 7
0.69608992 -4.3120947 1.1703798 12
0.45683724 -2.8811021 -0.78163356 25
0.50311095 -3.1837089 -0.74413812 12
0.56962425 -3.6168892 -0.71171761 7
0.64708871 -4.1275058 -0.66171783 15
0.76699394 -4.9091306 -0.61007798 20
0.97076583 -6.2347751 -0.55204445 16
0.73568237 -4.746736 -0.25173599 8
0.74355316 -4.8141756 -0.085028127 1
0.73137635 -4.6177278 0.081607454 23
0.72384316 -4.5909085 0.24357156 16
1.2745178 -8.1111135 0.71833766 3
1.1922182 -7.6133456 0.9461937 28
1.2732816 -8.1683083 1.3093567 31
0.66963547 -4.3106494 0.84795523 11
0.73041821 -4.7182112 1.1022602 14
0.66933489 -4.3436952 1.1776267 22
0.43439853 -2.8689406 -0.77749246 25
0.48494247 -3.2141209 -0.75043678 22
0.54431081 -3.6247556 -0.71248084 12
0.62556565 -4.1807642 -0.66953957 26
0.74060738 -4.9673772 -0.61665893 16
0.93892777 -6.320231 -0.55901694 9
1.2151802 -8.2192545 -0.43543521 3
0.70992637 -4.8192492 -0.085028127 3
0.69383425 -4.593184 0.081083886 16
0.70277542 -4.6689248 0.24744442 36
1.1844671 -7.8971643 0.69864047 27
1.1324334 -7.5863419 0.94180632 17
1.1554863 -7.7686357 1.2439669 17
0.64269108 -4.3365812 0.852153 8
0.70087725 -4.7463293 1.1076591 17
0.67101377 -4.566153 1.2366375 7
0.4182215 -2.8986719 -0.78473938 27
0.46221495 -3.2154992 -0.74998683 23
0.52324384 -3.6536412 -0.71744186 4
0.5993256 -4.2005696 -0.67204249 12
0.70981675 -4.9999418 -0.62007129 16
0.9098478 -6.4331608 -0.56842977 18
1.0246156 -7.2720942 -0.38487867 2
0.97775161 -6.9747276 -0.12293475 2
0.68080699 -4.724472 0.083317786 20
0.68119609 -4.744772 0.25121263 15
1.1805874 -8.2642107 0.7303651 8
1.0824467 -7.6056662 0.94326878 13
1.1292027 -7.9640799 1.2740024 40
2.995085 -21.230478 4.1676502 52
0.70460939 -5.013556 1.1688458 8
0.67313248 -4.8078504 1.3008245 19
0.39953256 -2.9091072 -0.78680992 26
0.44322252 -3.2398093 -0.7549358 21
0.49931231 -3.6688769 -0.71973157 10
0.57078207 -4.2105236 -0.67298114 14
0.68107986 -5.0440025 -0.62494606 16
0.87294316 -6.4905443 -0.57296187 15
nan nan nan nan
0.63020635 -4.7294707 -0.083282888 10
0.67901778 -4.9569473 0.087331839 12
0.95696253 -7.0132985 0.37095729 7
1.0937184 -8.0469923 0.71049362 37
1.0960834 -8.1068029 1.0044472 3
nan nan nan nan
2.9097562 -21.692074 4.2542777 47
0.6165306 -4.6145368 1.0748162 11
0.6479494 -4.875628 1.3179066 18
0.38046119 -2.9214041 -0.78939813 20
0.41758618 -3.2196338 -0.74953699 25
0.47784847 -3.6994498 -0.72507423 9
0.54387283 -4.2280259 -0.6751712 16
0.64710891 -5.0584788 -0.62616473 13
0.84019852 -6.5953012 -0.58167744 15
0.94536728 -7.4519653 -0.3936711 2
0.88800085 -7.0391293 -0.12384228 23
0.90367508 -6.9484162 0.12230647 19
0.93075216 -7.1860299 0.37974975 15
1.0667855 -8.2816792 0.73053938 7
1.0598211 -8.2617483 1.0227276 12
1.0423173 -8.1591616 1.3027864 7
2.8223307 -22.216288 4.3531165 49
0.56742412 -4.4853287 1.0437729 9
0.61329889 -4.8684258 1.3148009 24
0.3608034 -2.925843 -0.78991574 12
0.39684856 -3.2320726 -0.75178647 30
0.45201021 -3.7026954 -0.72507423 10
0.51815635 -4.2630949 -0.68017709 16
0.62887937 -5.196775 -0.64273894 6
0.79032648 -6.569356 -0.57888842 15
0.88880682 -7.4207048 -0.39168233 8
0.86350751 -7.2415876 -0.12729785 13
0.8551448 -6.9545555 0.12230647 21
0.8914836 -7.2815633 0.38445997 17
1.0236489 -8.3975258 0.74012655 7
nan nan nan nan
0.97184432 -8.0544538 1.2849529 17
2.7328613 -22.749584 4.4538636 49
0.54557139 -4.5685148 1.0622189 14
0.5831731 -4.9052 1.3236006 16
0.34282258 -2.949399 -0.79560977 15
0.37494668 -3.240572 -0.75313616 28
0.42614996 -3.705761 -0.72507423 16
0.49107754 -4.2901597 -0.68393159 16
0.59393203 -5.2128735 -0.6442014 16
0.75206608 -6.6420255 -0.58481503 18
0.84860975 -7.5299335 -0.39712527 20
0.82028651 -7.3130178 -0.12844971 16
0.81347758 -7.019948 0.12335361 19
0.85962385 -7.4522905 0.39314777 10
5.2584038 -45.79702 4.0330448 25
0.88877416 -7.7885833 0.96252412 3
3.6362762 -32.014523 5.1032057 30
2.6350663 -23.308489 4.5595722 44
0.51127076 -4.5509105 1.0572701 24
0.53581971 -4.7920389 1.2920247 7
0.32327172 -2.9613225 -0.79819798 25
0.35484043 -3.2663586 -0.75853503 23
0.40342849 -3.7379243 -0.73079848 15
0.4632245 -4.3131237 -0.68706024 20
0.56406409 -5.2780824 -0.6517573 6
0.72074348 -6.777751 -0.59631962 15
0.78636903 -7.4443088 -0.39231035 11
0.77004814 -7.3265224 -0.12858933 16
0.77245277 -7.0990105 0.12464508 22
0.81961668 -7.5693069 0.39900938 18
4.836524 -44.885731 3.9497237 23
3.4484384 -32.214649 3.9780595 64
3.4206347 -32.113773 5.1150947 45
2.5149033 -23.728493 4.638185 7
2.4570012 -23.298557 5.4087234 30
0.50094366 -4.7822132 1.2884012 13
0.30376732 -2.9750383 -0.8013038 17
0.33537614 -3.3017151 -0.76618332 15
0.38271335 -3.7874634 -0.73995733 13
0.43622655 -4.3397632 -0.69081473 20
0.53449792 -5.3549767 -0.66077566 2
0.67557359 -6.8044267 -0.59823698 21
0.75432688 -7.63831 -0.40225419 2
0.72083288 -7.3516207 -0.12893838 19
0.72634482 -7.1259875 0.12502904 24
0.76182961 -7.5131106 0.39576453 7
4.430624 -44.000572 3.8690176 21
3.2338321 -32.284779 3.9839094 77
3.2101932 -32.218872 5.1282353 30
3.1795385 -32.138641 6.2776165 27
0.47652927 -4.8426151 1.1234057 13
0.47346136 -4.8374243 1.3023775 10
0.28460902 -2.9885759 -0.80440962 13
0.31362963 -3.3116817 -0.76798296 13
0.35424143 -3.7685418 -0.7357595 16
0.4062863 -4.3466358 -0.6914404 20
0.50097531 -5.3901162 -0.66467547 4
0.64739358 -7.0052762 -0.61549383 12
0.70627373 -7.7010689 -0.40528968 8
0.68657309 -7.5296116 -0.1319751 13
0.68998903 -7.2722282 0.12750728 19
0.76920778 -8.1525545 0.4291549 8
4.0461545 -43.125153 3.7895317 19
3.0164611 -32.393532 3.9946334 77
2.9953835 -32.350647 5.1457558 31
2.9607074 -32.159538 6.2776165 13
0.43911523 -4.7972307 1.1121581 17
0.51359934 -5.6544347 1.5213385 13
0.26577449 -3.0135829 -0.81062132 16
0.29152316 -3.3254383 -0.77068233 16
0.32977498 -3.7845566 -0.73843086 18
0.377543 -4.3591409 -0.69300479 16
0.46910974 -5.4607277 -0.67296261 4
0.60830313 -7.1247654 -0.62560391 9
0.69115651 -8.1455116 -0.42842221 6
0.6366744 -7.5661035 -0.13253358 13
0.63609016 -7.2269568 0.12663467 19
0.74973118 -8.5694609 0.45082197 11
3.6717739 -42.30875 3.7154491 18
2.8027229 -32.492428 4.0043831 78
2.7788255 -32.413582 5.1526389 31
nan nan nan nan
0.40922335 -4.8428998 1.122056 21
0.39993015 -4.7626395 1.2806368 10
0.24447279 -3.0056949 -0.80803311 25
0.27374715 -3.3875604 -0.78462934 21
0.30381605 -3.7926378 -0.73957568 19
0.35070544 -4.4069605 -0.70020074 18
0.4347215 -5.5113635 -0.67881227 2
0.56726319 -7.2400713 -0.63536537 17
0.78366107 -10.069692 -0.5293259 10
0.58814293 -7.6261897 -0.13351092 20
0.59821236 -7.3866882 0.12935723 22
0.87441188 -10.867917 0.57140404 11
3.3186204 -41.518482 3.6439815 16
2.5820861 -32.590359 4.0141325 78
2.5563436 -32.481426 5.1604609 31
2.5321648 -32.463932 6.3295164 85
0.37088847 -4.7873511 1.1085589 6
0.37037611 -4.8134689 1.2935777 9
0.2246726 -3.0304859 -0.81424475 8
0.25135869 -3.4146979 -0.79047805 22
0.28004998 -3.8318689 -0.74682647 15
0.319161 -4.4093575 -0.70020074 22
0.39936504 -5.5578246 -0.68417454 2
0.52265882 -7.3273234 -0.64268643 11
0.74465144 -10.543231 -0.55392385 10
0.54467648 -7.7697458 -0.13595425 20
0.54426897 -7.3587761 0.12879875 21
0.79370326 -10.834059 0.56931055 20
2.9656515 -40.774132 3.5766973 15
2.3619413 -32.710545 4.0268068 78
nan nan nan nan
2.3090801 -32.531738 6.3394384 86
2.2824938 -32.397396 7.4980688 83
0.34129971 -4.8930821 1.3142831 18
0.20493348 -3.0531831 -0.81993878 8
0.22621942 -3.396925 -0.78597903 23
0.25339758 -3.8455288 -0.74911612 6
0.29030341 -4.4410458 -0.70489377 18
0.36402249 -5.6139627 -0.69075549 6
0.47890869 -7.4461141 -0.65279651 8
0.6782552 -10.661787 -0.55989015 21
0.49507883 -7.8472009 -0.13724573 17
0.50252122 -7.5260935 0.13166095 21
0.7357384 -11.106383 0.58333665 8
2.6346703 -40.090057 3.514991 14
2.132185 -32.793964 4.0350943 78
nan nan nan nan
2.0836637 -32.574493 6.3447814 14
2.0620649 -32.503956 7.5192146 84
0.30289811 -4.8278642 1.2961658 7
0.18326551 -3.0487542 -0.81838584 12
0.20458531 -3.4334366 -0.79407728 31
0.22698493 -3.8432448 -0.74835294 21
0.26145256 -4.4665828 -0.7086482 18
0.32871839 -5.6837468 -0.69904256 6
0.43056121 -7.5129275 -0.65837449 11
0.61031061 -10.747912 -0.56418169 14
0.46155912 -8.2298126 -0.14387764 27
0.45319611 -7.5612769 0.13221943 21
2.5841129 -43.495514 2.2835228 42
2.3132703 -39.40139 3.4531105 13
1.9134145 -32.885002 4.0446 91
nan nan nan nan
0.28848922 -5.0648398 0.98610091 12
1.8394859 -32.595379 7.5372105 63
0.27790099 -4.9706197 1.3339534 40
0.16353725 -3.0692222 -0.82356226 15
0.18121028 -3.4347498 -0.79407728 15
0.2020877 -3.8819873 -0.75560367 16
0.23097575 -4.4821086 -0.71083826 24
0.29376423 -5.7592063 -0.70806098 2
0.38010454 -7.5555482 -0.6618607 11
0.54370224 -10.921469 -0.57307881 28
0.52683449 -10.695401 -0.18691526 14
0.41730964 -7.8837605 0.1378042 21
2.2803941 -43.512493 2.2835228 42
2.0087898 -38.717834 3.3919272 13
1.6888609 -32.996689 4.056787 79
1.6697996 -32.962326 5.2274146 16
1.635716 -32.627579 6.3501239 100
0.24679093 -4.9924226 1.153999 4
0.24243836 -4.9570017 1.3298123 21
0.14264198 -3.0818677 -0.82666808 12
0.15749402 -3.4417713 -0.79542702 15
0.17639539 -3.9146836 -0.76170951 16
0.2024036 -4.5447884 -0.72053725 18
0.25494742 -5.7928476 -0.71196079 2
0.32881323 -7.5918565 -0.66482401 2
0.47231188 -11.038737 -0.57904506 21
0.44902956 -10.624897 -0.18562379 35
0.35978395 -7.8325472 0.13686177 19
1.7087456 -37.629532 1.9741124 30
1.7082428 -38.058159 3.3330097 12
1.4629323 -33.10881 4.0692177 79
1.4398969 -32.979103 5.228353 32
1.4122074 -32.738232 6.369586 72
1.3918059 -32.797012 7.5786018 43
nan nan nan nan
0.12180561 -3.1001618 -0.83132678 15
0.13519831 -3.4875743 -0.80577475 31
0.14936063 -3.923667 -0.76323599 14
0.17155987 -4.569778 -0.72429162 19
0.21677594 -5.8559818 -0.71951669 6
0.28207031 -7.7293105 -0.67667717 5
0.403023 -11.259328 -0.59045434 21
0.39359468 -11.159361 -0.19490847 21
0.31567684 -8.1066198 0.14160882 17
1.4433979 -37.572685 1.9705535 91
1.4213064 -37.509701 3.2840283 12
1.235299 -33.213436 4.0809169 79
nan nan nan nan
1.1931236 -33.010204 6.420723 59
1.1728358 -32.926472 7.6064959 43
0.17185523 -4.9212899 1.3194594 7
0.10065835 -3.1163833 -0.83546793 25
0.10967121 -3.4514258 -0.79722661 17
0.12387607 -3.9638386 -0.77086836 17
0.14214911 -4.6261244 -0.73305202 21
0.17779556 -5.9208469 -0.72731632 4
0.23104155 -7.8306675 -0.68539274 5
0.33343369 -11.505374 -0.60322434 10
0.30408886 -10.752063 -0.18775299 38
0.34447271 -10.722835 0.18726432 5
1.1902688 -37.665482 1.9749497 30
1.1622444 -37.610317 3.2920468 50
1.012211 -33.320286 4.0931044 80
1.2338685 -41.330173 6.5489731 28
1.0212849 -35.029205 6.8118815 17
0.9449448 -33.003983 7.6226921 66
0.13292584 -4.7292371 1.2676958 7
0.079591468 -3.1227901 -0.83702081 32
0.086808145 -3.4774179 -0.80307531 26
0.09710557 -4.0018978 -0.77811909 16
0.11074001 -4.664526 -0.73899657 21
0.1375355 -5.9239044 -0.72756004 4
0.17721979 -7.869936 -0.68870467 5
0.2559576 -11.637212 -0.61002797 14
0.23334275 -10.86784 -0.18974257 14
0.2679967 -10.661009 0.18614736 36
1.1949339 -48.546654 2.5449932 50
0.90741122 -37.667149 3.2964046 12
0.78142369 -33.405922 4.1028533 80
nan nan nan nan
0.77729881 -34.78804 6.7637978 17
0.71658099 -33.10524 7.6447372 100
nan nan nan nan
0.058146097 -3.1425848 -0.84219724 43
0.062914416 -3.499372 -0.80802429 19
0.06926693 -4.0083671 -0.77926397 39
0.078702867 -4.6967864 -0.7440024 19
0.097110584 -5.9822803 -0.7346285 16
0.12515107 -8.0562515 -0.70491564 2
0.17803583 -11.860386 -0.62164652 21
0.15813148 -10.915193 -0.19054537 29
0.19512425 -10.748592 0.18764828 42
nan nan nan nan
0.65318519 -38.18454 3.3412025 12
0.54994595 -33.517742 4.1160154 81
nan nan nan nan
0.52917534 -34.451054 6.6973963 16
0.48664519 -33.191273 7.6636329 100
0.065926604 -4.6630235 1.2495784 33
0.036049906 -3.1293921 -0.83857375 38
0.038869187 -3.5348012 -0.81612247 16
0.041847624 -4.0637212 -0.7899493 17
0.046587501 -4.7663569 -0.75495279 22
0.056115244 -6.0661831 -0.74486554 2
0.069859929 -8.168499 -0.7146771 2
0.095246404 -11.863337 -0.62175119 14
0.08254052 -10.998016 -0.19197647 32
0.12113 -10.843672 0.18928881 21
nan nan nan nan
0.37914869 -37.453014 3.2768817 12
0.31694484 -33.627956 4.1291771 81
nan nan nan nan
0.28647771 -34.194763 6.6470227 16
0.25581643 -33.31078 7.6906266 100
0.033841535 -4.7290521 1.2671782 37
0.014210517 -3.1314993 -0.83909136 32
0.014323663 -3.5681148 -0.82377082 20
0.01350903 -4.0737305 -0.79185736 19
0.013581223 -4.8633585 -0.7702834 23
0.013859247 -6.1081133 -0.74998403 16
0.012945002 -8.2405128 -0.72095227 2
0.012764086 -12.187268 -0.63870806 15
0.0058144135 -11.106308 -0.19386134 21
0.045986455 -10.978232 0.19162743 15
0.12530833 -34.18885 1.7917739 23
0.11586547 -36.880939 3.22668 12
0.082464799 -33.748459 4.1438017 81
0.06462197 -33.660358 5.3312874 17
0.04687456 -33.571621 6.5256677 93
0.023330579 -33.416988 7.714922 100
0.00087832205 -5.0305419 1.3479296 19
-0.0076612569 -3.135386 -0.84012663 30
-0.01058104 -3.5661788 -0.82332087 11
-0.01506753 -4.1110272 -0.79910809 21
-0.020536659 -4.9028425 -0.77654076 23
-0.029270194 -6.2112856 -0.76265842 2
-0.045361079 -8.383852 -0.73350269 3
-0.073267534 -12.346838 -0.64708179 15
-0.075128801 -11.633986 -0.2030762 22
-0.030728457 -11.004281 0.19208118 19
-0.11293669 -34.057076 1.7848655 70
-0.13115689 -34.157276 2.9883962 22
-0.15355618 -33.839523 4.1550136 81
nan nan nan nan
-0.18805586 -33.671249 6.5451307 100
-0.2106992 -33.53326 7.7419157 100
-0.032426856 -4.7638354 1.2764956 13
-0.029695848 -3.1507101 -0.84426773 33
-0.035496794 -3.5679669 -0.82377082 22
-0.044039261 -4.1363425 -0.80406916 16
-0.055095423 -4.9322081 -0.78123385 23
-0.073397696 -6.276433 -0.77070183 2
-0.10492722 -8.4670048 -0.74082375 3
-0.16181025 -12.527762 -0.65660697 23
-0.16271642 -12.107063 -0.21134864 11
-0.10892018 -11.143771 0.19452453 19
-0.35163918 -34.147331 1.7896806 23
-0.36857343 -34.059895 2.9800291 55
-0.3909401 -33.936871 4.1672006 82
nan nan nan nan
-0.42410773 -33.747639 6.5603948 95
-0.44603705 -33.6245 7.7635112 100
nan nan nan nan
-0.052324321 -3.1890578 -0.85462052 30
-0.060767494 -3.5890653 -0.82871974 27
-0.072845593 -4.1320081 -0.80330586 24
-0.090674706 -4.994905 -0.79124558 19
-0.11825162 -6.3313408 -0.77752644 2
-0.16561688 -8.6254578 -0.75476873 3
-0.25272366 -12.700053 -0.66571343 15
-0.2496856 -12.225589 -0.21344294 19
-0.19150673 -11.428655 0.19951591 15
-0.29760006 -17.221792 0.90269065 14
-0.60858184 -34.181995 2.9910107 67
-0.62998462 -34.048431 4.1813374 82
-0.64595574 -33.950581 5.3782177 17
-0.66176856 -33.849857 6.5810027 100
-0.6772486 -33.737587 7.7905049 93
-0.70017928 -33.707405 9.0338211 24
-0.074541695 -3.1866837 -0.85410291 27
-0.086381085 -3.6119316 -0.83411855 17
-0.10173712 -4.1628194 -0.80941176 19
-0.12644599 -5.0652637 -0.80250889 5
-0.16397756 -6.3898945 -0.78483868 4
-0.22791608 -8.7037592 -0.76174122 3
-0.34620219 -12.961583 -0.67953008 24
-0.46246567 -16.873093 -0.29463151 13
-0.27419314 -11.634997 0.20314601 42
-0.41303664 -17.145491 0.89881784 13
-0.84947342 -34.268536 2.9990289 56
-0.86484104 -34.166389 4.1964493 55
-0.88095999 -34.09745 5.4023085 52
-0.90108949 -33.958241 6.6031365 80
-0.91550183 -33.833332 7.8139 100
-0.9315201 -33.771378 9.0524549 24
-0.096463986 -3.1938262 -0.8561734 26
-0.11222122 -3.6521642 -0.84356654 15
-0.13122778 -4.1757436 -0.81208313 19
-0.16653565 -5.2123351 -0.82597405 5
-0.18768741 -5.7795272 -0.71001083 4
-0.29030856 -8.7975883 -0.7701081 3
-0.43883514 -13.022727 -0.68287963 28
-0.57799059 -16.889538 -0.29498056 19
-0.36445209 -11.928617 0.20831193 17
-0.53154594 -17.104259 0.89682907 18
-1.0866102 -34.385422 3.0098362 67
-1.1063584 -34.252769 4.2079048 41
-1.1192428 -34.098366 5.4035597 17
-1.1358103 -34.059238 6.624126 100
-1.1494017 -33.933441 7.8386445 71
nan nan nan nan
-0.11997937 -3.225894 -0.86497331 23
-0.1375685 -3.647397 -0.84266675 20
-0.16122316 -4.2159519 -0.82009715 24
-0.2027763 -5.2308197 -0.82910275 5
-0.22803086 -5.7780762 -0.71001083 49
nan nan nan nan
-0.53336853 -13.165117 -0.69052064 16
-0.69629949 -16.895084 -0.29515511 39
-0.46378303 -12.411447 0.21679381 18
-0.65597516 -17.311804 0.90792429 14
-1.330942 -34.488491 3.0195978 68
-1.3439029 -34.35751 4.2217984 28
nan nan nan nan
-1.3783088 -34.168175 6.6470227 98
-1.3922411 -34.070621 7.8723879 100
-1.4071258 -33.998528 9.1176777 25
-0.14300908 -3.2365572 -0.86807907 13
-0.16363809 -3.6599753 -0.84581602 15
-0.19459382 -4.285295 -0.83383536 17
-0.24301125 -5.2904067 -0.83880174 5
-0.26744258 -5.7565136 -0.70757347 38
-0.2705819 -5.7376823 -0.50253999 65
-0.63631254 -13.344503 -0.70015049 12
-0.81769484 -16.961716 -0.29641169 39
-0.74635744 -16.758833 0.29281646 34
-0.78559065 -17.434361 0.91462332 15
-1.5782169 -34.621662 3.0321481 56
-1.5961499 -34.485825 4.2388597 14
nan nan nan nan
-1.6227506 -34.28323 6.6714458 99
-1.6401232 -34.145435 7.8921838 97
-1.6543128 -34.06863 9.1394186 51
-0.16688475 -3.2605615 -0.87480837 30
-0.19039309 -3.6820972 -0.85121483 13
-0.22543079 -4.301477 -0.8372699 19
-0.28160998 -5.3201427 -0.84380758 8
-0.30688167 -5.7406306 -0.70586729 47
-0.31149384 -5.7515688 -0.5039345 65
nan nan nan nan
-0.93972772 -17.021484 -0.29756355 26
-0.87280601 -16.936943 0.29602769 30
-0.89991212 -17.286839 0.90719157 9
-1.825943 -34.725201 3.0422583 46
nan nan nan nan
-1.8569782 -34.511269 5.4739552 18
-1.8685504 -34.390648 6.694725 100
-1.885852 -34.26741 7.9232264 73
-1.8953315 -34.114117 9.1549473 25
-0.19009179 -3.2670312 -0.87687898 22
-0.21723606 -3.7001324 -0.85571384 13
-0.25580457 -4.3056774 -0.83841473 21
-0.32347214 -5.3969216 -0.85632241 2
-0.34731075 -5.7442927 -0.70659852 49
-0.35002932 -5.7393727 -0.50306296 56
-0.38994926 -6.3212929 -0.33191466 2
-1.0839916 -17.423655 -0.30471903 28
-0.98752129 -16.870548 0.29498056 35
-2.0626988 -34.925125 1.8335381 50
-2.0761476 -34.842869 3.0537629 57
-2.0956488 -34.761364 4.275908 14
-2.0924714 -34.408737 5.4598761 36
-2.1168866 -34.511978 6.7210565 100
-2.129163 -34.417164 7.9610186 74
nan nan nan nan
-0.2135237 -3.2752633 -0.87946719 28
-0.24523458 -3.7315831 -0.86336225 17
-0.28653353 -4.325386 -0.84261262 21
-0.36362147 -5.4458404 -0.86445701 8
-0.38780594 -5.7476702 -0.70732975 45
-0.38941333 -5.72685 -0.50219136 62
nan nan nan nan
nan nan nan nan
-1.1168096 -17.08493 0.29885501 30
-2.3090427 -35.041813 1.8404464 76
-2.3270252 -34.942833 3.0638731 57
nan nan nan nan
-2.3338315 -34.500122 5.4767714 36
-2.3664753 -34.623669 6.7458611 100
nan nan nan nan
-2.3857019 -34.375759 9.2331114 26
-0.23609003 -3.2775879 -0.88050246 30
-0.2709111 -3.7337146 -0.86426204 26
-0.3187311 -4.3506918 -0.84795523 21
-0.40148637 -5.4411988 -0.86414409 19
-0.42750797 -5.7528157 -0.7083047 42
-0.42883119 -5.7300272 -0.50271428 56
nan nan nan nan
nan nan nan nan
-1.2425541 -17.16647 0.30042574 36
-2.5636451 -35.162285 1.8476688 77
-2.5750299 -35.065277 3.0760748 69
nan nan nan nan
-2.5855148 -34.628761 5.4999237 36
-2.6100419 -34.712475 6.766469 86
nan nan nan nan
-2.6191509 -34.27351 9.2103348 26
-0.26140204 -3.3066733 -0.88878465 15
-0.29526979 -3.7103636 -0.85931307 24
-0.35507846 -4.4325719 -0.8643648 14
-0.44661066 -5.5387583 -0.88010043 2
-0.46605045 -5.7299051 -0.70586729 45
-0.46947414 -5.7348371 -0.50341159 46
nan nan nan nan
-1.7580829 -21.157852 -0.3705844 23
-1.3866953 -17.50248 0.30646425 32
-2.813091 -35.271439 1.8543679 78
-2.8309538 -35.185463 3.0882766 46
-2.8399014 -35.066986 4.3197813 28
-2.8397784 -34.838749 5.5362167 18
-2.8638995 -34.834293 6.7939458 86
-2.8775418 -34.777248 8.0563974 25
-2.8626385 -34.378094 9.2434635 26
-0.28489551 -3.3163657 -0.89189047 31
-0.32488126 -3.7587469 -0.87101054 16
-0.39300245 -4.5101743 -0.88001108 11
-0.49164978 -5.608315 -0.89167655 3
-0.50434375 -5.7186909 -0.70489234 45
-0.50885057 -5.7354774 -0.50376016 59
-0.6690526 -7.4818368 -0.3936711 2
-3.0591996 -34.009487 -0.59603459 39
-1.6147121 -18.719629 0.32796565 20
-3.0687568 -35.360378 1.8601246 52
-3.0826888 -35.306301 3.1006525 35
-3.0905631 -35.113537 4.3280678 43
-3.1055784 -35.073868 5.5768895 37
-3.114177 -34.962608 6.8229489 88
-3.1241055 -34.867489 8.0820417 25
-3.1150827 -34.495804 9.2807341 26
-0.31000778 -3.3354554 -0.8975845 30
-0.35655516 -3.8145957 -0.8845076 20
-0.42461133 -4.517168 -0.88191921 15
-0.53724968 -5.6835027 -0.90419132 18
-0.54406649 -5.7130537 -0.70464855 49
-0.54717004 -5.7139354 -0.50219136 62
-0.75097501 -7.7991757 -0.41062793 2
-3.3096836 -34.122646 -0.5984081 39
-1.866504 -20.044218 0.35138676 11
-3.3246472 -35.501736 1.8687078 53
-3.3412633 -35.412849 3.1119828 47
nan nan nan nan
-3.3560629 -35.175804 5.5966001 38
-3.3720851 -35.084629 6.8511882 100
nan nan nan nan
-3.3808274 -34.792984 9.366662 27
-0.33750114 -3.3813252 -0.91052544 16
-0.38504142 -3.8372874 -0.8903563 15
-0.4592948 -4.5453467 -0.8880251 22
-0.57950866 -5.7051625 -0.90825862 27
-0.5835458 -5.7151432 -0.70537978 45
-0.58684307 -5.7079945 -0.50201708 50
-0.83250523 -8.0559845 -0.42444465 3
-3.5476534 -34.155022 -0.59938544 39
-3.5812898 -35.753616 0.6272046 38
-3.5860178 -35.612789 1.8758256 54
-3.5958741 -35.524082 3.1238363 47
nan nan nan nan
nan nan nan nan
-3.6240911 -35.189754 6.8763752 90
-3.639775 -35.101532 8.1472778 53
-3.6364622 -34.891506 9.3997898 27
-0.36479378 -3.4134634 -0.9198429 18
-0.41286138 -3.8441937 -0.89260584 16
-0.49038309 -4.5361738 -0.88688028 24
-0.61719066 -5.6813393 -0.90512991 39
-0.62429249 -5.7188239 -0.7063548 45
-0.62711328 -5.7077193 -0.50236571 50
-0.92554563 -8.3834896 -0.44202951 3
-3.803648 -34.288425 -0.60217786 40
-3.843384 -35.845055 0.629264 65
-3.8491042 -35.721916 1.8829432 54
-3.8594489 -35.642715 3.1365609 35
nan nan nan nan
-3.8827846 -35.453445 5.648849 38
-3.8847065 -35.300201 6.9030881 90
-3.8924594 -35.144993 8.1634741 79
-3.8949149 -34.999672 9.4360247 28
-0.38555369 -3.3839614 -0.91259599 15
-0.44256985 -3.8663871 -0.89845455 26
-0.52877849 -4.5911508 -0.89832878 15
-0.66637474 -5.7593079 -0.91827041 9
-0.66282701 -5.7024946 -0.70489234 42
-0.6667133 -5.7012229 -0.50219136 43
nan nan nan nan
-4.0752697 -34.535091 -0.60699469 40
-4.1130633 -35.988209 0.63226575 65
-4.1191244 -35.874741 1.8924682 55
-4.1262197 -35.771259 3.1503313 48
nan nan nan nan
-4.1457572 -35.558895 5.6701245 39
-4.147953 -35.416515 6.9313278 91
-4.7796464 -40.56498 9.4299488 39
-4.1582375 -35.132778 9.4795074 28
-0.41079339 -3.3946121 -0.91621947 17
-0.47096229 -3.87481 -0.90115392 19
-0.57654119 -4.7159648 -0.92351556 13
-0.72317624 -5.8898005 -0.93985838 6
-0.70407951 -5.7095494 -0.7063548 20
-0.70674431 -5.6984072 -0.50236571 43
nan nan nan nan
-4.3510184 -34.783585 -0.61188138 41
-4.3805871 -36.093605 0.63463932 65
-4.3854275 -35.97596 1.8993766 55
-4.3927989 -35.88002 3.1625333 48
-4.4060311 -35.781006 4.4265389 44
-4.4069872 -35.634949 5.6870189 39
-4.4139724 -35.538662 6.9610944 92
nan nan nan nan
-4.4216828 -35.248566 9.5188465 28
-0.44012725 -3.4357343 -0.92812514 16
-0.50222832 -3.9042854 -0.90880227 27
-0.6137315 -4.7449241 -0.93000305 16
-0.7736907 -5.9570885 -0.95143455 6
-1.0265505 -7.8717303 -0.97471106 21
-0.74525642 -5.6914887 -0.50219136 40
-3.1145191 -23.657118 -1.2505155 11
-4.7069545 -35.608788 -0.62696028 44
-4.6533532 -36.224781 0.63750148 52
-4.6564054 -36.098972 1.9075412 56
-4.661859 -35.992718 3.1752582 36
nan nan nan nan
-4.674613 -35.74826 5.7101717 39
-4.6821623 -35.660759 6.9912424 75
nan nan nan nan
-4.6866894 -35.360474 9.5576696 29
-0.46591434 -3.4459786 -0.93174857 22
-0.53314233 -3.9277189 -0.91510099 18
-0.65767819 -4.8262291 -0.94679433 16
-0.82439595 -6.0260558 -0.96332359 3
-1.1039261 -8.0275993 -0.99494141 5
-1.5702174 -11.374269 -1.0045571 16
-3.3037124 -23.83914 -1.2612966 11
-5.0906196 -36.545536 -0.64406365 93
-5.344624 -39.477791 0.69537371 14
-4.9213834 -36.208939 1.9150776 57
-4.9362164 -36.129059 3.1902485 36
nan nan nan nan
-4.9393878 -35.872166 5.7352014 40
-4.9520006 -35.778885 7.021008 76
nan nan nan nan
-4.9464822 -35.465515 9.5949402 29
-0.49289387 -3.4675915 -0.93847787 20
-0.56096613 -3.9317157 -0.91690058 18
-0.70417398 -4.9109154 -0.96434873 20
-0.87713754 -6.0944524 -0.97521257 3
-1.176423 -8.1436739 -1.0102969 2
-1.6753464 -11.540484 -1.0202451 16
-3.5648036 -24.465729 -1.2957337 12
-5.3681903 -36.707905 -0.64755404 94
-5.6398435 -39.578094 0.69781703 14
-5.1994972 -36.351639 1.9244981 57
-5.2035441 -36.244507 3.2034962 36
-5.2077103 -36.094383 4.4777236 45
-5.2129173 -35.997116 5.7608562 40
-5.2166014 -35.890068 7.0496297 76
-5.2305093 -35.810081 8.3551331 56
-5.221138 -35.615524 9.6451511 29
-0.52279407 -3.5022798 -0.94883066 16
-0.59504098 -3.9720299 -0.9272483 15
-0.73639601 -4.8922901 -0.96167743 14
-0.93500596 -6.1897478 -0.99148178 3
-1.2537763 -8.2706871 -1.0271149 2
-1.8176725 -11.93426 -1.0561533 17
-3.8284593 -25.048338 -1.3279727 12
-5.6555552 -36.873119 -0.65114927 95
-5.951519 -39.775082 0.70200562 14
-5.4762864 -36.46851 1.9326624 58
-5.4784184 -36.353092 3.2163956 24
-5.4880996 -36.245567 4.501123 45
-5.4890251 -36.123898 5.7871375 41
-5.4847903 -35.969223 7.0725265 38
nan nan nan nan
-5.4910789 -35.717594 9.6829386 30
-0.55081433 -3.5214481 -0.9550423 20
-0.63544732 -4.0486364 -0.94614422 15
-0.77970564 -4.9452085 -0.97312593 8
-0.99023426 -6.2591624 -1.0036837 3
-1.3373175 -8.4244585 -1.0473453 2
-1.9073247 -11.974735 -1.0608597 11
nan nan nan nan
-5.9315319 -36.94923 -0.65320867 96
-5.765408 -36.775143 0.64975315 27
-5.7568183 -36.595123 1.9414548 59
-5.7662487 -36.530441 3.2355697 24
nan nan nan nan
-5.7640514 -36.229057 5.8102899 41
-5.7664084 -36.121983 7.1103063 58
-5.7783017 -36.075146 8.4347658 28
-5.7601299 -35.841518 9.7269373 30
-0.57664013 -3.5290568 -0.95814812 21
-0.67024136 -4.088448 -0.95649195 17
-0.82004619 -4.9804673 -0.9811399 4
-1.0482689 -6.3458276 -1.0187013 3
-1.4160498 -8.5444136 -1.063432 5
-2.0930316 -12.588441 -1.116465 18
nan nan nan nan
-6.2129664 -37.087471 -0.656385 97
-6.0046034 -36.66795 0.64856637 40
-6.0342708 -36.728523 1.9506661 59
-6.0193024 -36.517864 3.2380099 12
-6.0363855 -36.502399 4.5428019 15
-6.0402927 -36.368259 5.8390732 41
-6.0450592 -36.27943 7.1492319 59
-6.0285397 -36.063808 8.441514 58
-6.023448 -35.917702 9.7585135 30
-0.60486686 -3.5498075 -0.96487743 15
-0.70199513 -4.1068416 -0.96189076 19
-0.86920595 -5.0637784 -0.9986943 4
-1.1014949 -6.3969474 -1.0280875 3
-1.4995173 -8.6812868 -1.0817124 2
-2.2326195 -12.871909 -1.1429603 12
nan nan nan nan
-6.4972425 -37.227524 -0.65963113 49
-6.3163195 -36.990898 0.65502369 54
-6.3134756 -36.857868 1.9597725 60
nan nan nan nan
-6.2826352 -36.410465 4.5367084 46
-6.3153267 -36.485912 5.8647289 42
-6.7996702 -39.162121 7.7262378 24
-6.3143067 -36.216663 8.4874039 58
nan nan nan nan
-0.63064736 -3.5512044 -0.96643037 15
-0.7405597 -4.1574779 -0.97493792 14
-0.91559708 -5.1194296 -1.0109061 4
-1.1586837 -6.4590979 -1.0393507 3
-1.5871552 -8.821043 -1.1004803 2
-2.4573748 -13.603019 -1.209373 6
nan nan nan nan
-6.7887993 -37.356365 -0.66273773 99
-6.6038389 -37.111271 0.65795571 54
-6.5994062 -36.974121 1.9683554 61
-6.5973639 -36.851105 3.2753127 25
-6.5640626 -36.518112 4.5557199 46
-6.59723 -36.592567 5.8891325 42
nan nan nan nan
-6.5635114 -36.152527 8.4829054 58
nan nan nan nan
-0.66665792 -3.6075051 -0.98299474 21
-0.77489287 -4.1809487 -0.98168647 17
-0.95634282 -5.1399341 -1.0162487 4
-1.218605 -6.5304675 -1.0521784 3
-1.673895 -8.9443808 -1.1172982 5
nan nan nan nan
nan nan nan nan
-7.0835876 -37.488831 -0.66594893 100
-6.8948021 -37.237297 0.66102737 55
-6.8909216 -37.107807 1.9779854 31
-6.8927708 -37.009808 3.2936153 37
-6.8502216 -36.639206 4.5766816 31
-6.888207 -36.735897 5.9197941 43
nan nan nan nan
-6.8851395 -36.473488 8.5692863 60
nan nan nan nan
-0.69401228 -3.6141462 -0.98610061 31
-0.80037755 -4.1563015 -0.97718745 17
-0.99667281 -5.1562638 -1.0208282 4
-1.2867209 -6.6381578 -1.0709505 3
-1.7677362 -9.0942125 -1.1375285 7
-2.7767835 -14.232259 -1.268639 6
nan nan nan nan
-7.3716955 -37.57386 -0.66835737 50
-7.1938901 -37.392483 0.66465747 55
-7.1846242 -37.239216 1.9876151 31
-7.1869345 -37.146622 3.3101752 38
-7.1868258 -37.007511 4.6288419 47
-7.1796169 -36.867233 5.9488907 43
nan nan nan nan
-7.1710911 -36.585167 8.6070776 60
nan nan nan nan
-0.71847177 -3.6054239 -0.98506534 23
-0.83662909 -4.1869206 -0.98573565 14
-1.043455 -5.2030773 -1.0315135 4
-1.3509449 -6.7180972 -1.0853424 3
-1.8515857 -9.1828384 -1.150203 2
nan nan nan nan
-7.693079 -37.914291 -2.0274951 26
-8.3665953 -41.123135 -0.73251235 57
-7.4907751 -37.521755 0.66786867 55
-7.4812789 -37.372234 1.9974543 31
-7.4825568 -37.277206 3.326386 38
-7.4795098 -37.127682 4.6502905 48
-7.4720235 -36.990475 5.9770484 43
-7.471529 -36.8885 7.315999 63
-7.465147 -36.725182 8.6520681 61
nan nan nan nan
-0.75104892 -3.6362667 -0.99490041 30
-0.88046014 -4.2515836 -1.002382 26
-1.0853466 -5.2225776 -1.0368562 9
-1.406678 -6.7510467 -1.0922256 3
-1.9464983 -9.3173666 -1.168727 2
-3.1387451 -14.972102 -1.3383635 7
-8.0015364 -38.068798 -2.0386951 26
-7.9912591 -37.921234 -0.67645526 100
-8.4623995 -40.899345 0.72902197 16
-7.7805419 -37.504887 2.0073981 64
-7.7775078 -37.391819 3.3413768 38
-7.7774658 -37.261112 4.6736898 48
-7.7693334 -37.124958 6.0073967 22
-7.7704015 -37.033344 7.3553052 63
-7.7607031 -36.859047 8.6961584 62
nan nan nan nan
-0.77884036 -3.6422696 -0.99800628 35
-0.91788161 -4.2815366 -1.0109302 28
-1.1395342 -5.2974048 -1.0532657 4
-1.4741802 -6.83568 -1.1075561 2
-2.0492532 -9.4781742 -1.1906636 2
nan nan nan nan
-8.3070059 -38.195465 -2.0485342 26
nan nan nan nan
nan nan nan nan
-8.0866318 -37.656643 2.0184934 65
-8.0798769 -37.529438 3.3586338 38
-8.0759659 -37.384415 4.6961136 48
-8.070137 -37.262875 6.0386839 44
-8.0662441 -37.150864 7.3896508 64
-8.057003 -37.014828 8.7456474 63
nan nan nan nan
-0.81092352 -3.6669242 -1.0062885 27
-0.94901532 -4.2807312 -1.0122797 38
-1.1879174 -5.3451037 -1.0643326 4
-1.543012 -6.9257493 -1.1238253 2
-2.1478512 -9.6089325 -1.208944 2
nan nan nan nan
-8.610137 -38.330952 -2.0588965 81
-8.6263275 -38.278049 -0.68490225 53
-8.4019356 -37.961403 0.67865425 28
-8.3829947 -37.782063 2.0282278 32
-8.3737164 -37.616028 3.3715327 13
-8.3700199 -37.506824 4.7185378 48
-8.3632622 -37.38443 6.0674682 22
-8.3718348 -37.300533 7.4308658 65
-8.3545723 -37.132587 8.7870378 64
nan nan nan nan
-0.84102392 -3.6839201 -1.0125002 22
-0.98378229 -4.2988677 -1.0181285 19
-1.2309152 -5.3615551 -1.0692936 2
-1.6130332 -7.0091357 -1.139156 2
-2.242656 -9.7217541 -1.2250307 2
nan nan nan nan
-8.9204035 -38.454742 -2.0688405 27
-8.9165697 -38.346996 -0.68720597 53
-8.7162294 -38.118202 0.68252873 57
-8.6876125 -37.901722 2.0378578 66
nan nan nan nan
-8.6771412 -37.644783 4.7433987 49
-8.6702948 -37.525303 6.1000066 22
-8.6720543 -37.443508 7.4709358 66
-8.6485538 -37.253296 8.8293295 64
nan nan nan nan
-0.8529852 -3.6196682 -0.99645334 16
-1.034377 -4.3791361 -1.038824 14
-1.2899967 -5.448575 -1.0883746 2
-1.6825981 -7.0902495 -1.1541736 2
-2.3449502 -9.8506956 -1.2433112 2
nan nan nan nan
-7.4946799 -31.338045 -1.6886722 18
-9.2586966 -38.594936 -0.69279075 54
-9.0181742 -38.238995 0.68577486 57
-8.9940996 -38.047741 2.0489528 67
-8.9936132 -37.92738 3.4102299 13
-8.9799976 -37.781837 4.7682605 49
-8.9726686 -37.663338 6.1322317 46
-8.9779625 -37.569183 7.5083346 66
-8.958353 -37.400475 8.8788185 65
nan nan nan nan
-0.90586907 -3.7301702 -1.0285469 15
-1.0747606 -4.415544 -1.0491717 7
-1.3461634 -5.5138183 -1.1032577 7
-1.7484895 -7.1454868 -1.1651241 2
-2.4578118 -10.021519 -1.2669538 2
nan nan nan nan
-7.6855478 -31.172485 -1.6826012 18
-9.5514116 -38.653324 -0.69498974 100
-9.3260279 -38.344151 0.6888116 57
-9.3120098 -38.199409 2.0605714 34
nan nan nan nan
-9.2988281 -37.943806 4.7967777 49
-9.28298 -37.793533 6.1638312 46
nan nan nan nan
-9.2659359 -37.554321 8.9301071 99
nan nan nan nan
-0.94455129 -3.7743547 -1.0425231 9
-1.0951304 -4.3663487 -1.039274 14
-1.4047219 -5.5883045 -1.1200489 2
-1.8139758 -7.2004633 -1.1760744 2
-2.5641866 -10.14846 -1.2852342 2
nan nan nan nan
-7.929976 -31.247217 -1.6895095 18
nan nan nan nan
-9.6353874 -38.473763 0.69230211 58
-9.621891 -38.334671 2.0713527 34
nan nan nan nan
-9.6073885 -38.079811 4.8221264 50
-9.5879536 -37.919071 6.1948056 23
-9.6056156 -37.877621 7.5957251 45
-9.5744457 -37.671921 8.9737482 33
nan nan nan nan
-1.0024967 -3.8931835 -1.0772049 6
-1.1871544 -4.6003199 -1.0968615 9
-1.4559981 -5.6258779 -1.1295893 2
-1.888997 -7.2832298 -1.1917179 2
-2.6776488 -10.301764 -1.306927 2
nan nan nan nan
-8.1903324 -31.353416 -1.6983019 18
nan nan nan nan
-9.95718 -38.612751 0.69603693 43
-9.9477472 -38.492805 2.0835993 35
nan nan nan nan
-9.9273968 -38.221237 4.8486943 50
-9.9270849 -38.137959 6.2417359 24
-9.8537979 -37.775265 7.5884738 45
nan nan nan nan
nan nan nan nan
-1.038063 -3.9178355 -1.0860047 5
-1.2287425 -4.6277056 -1.1054095 6
-1.5043312 -5.649725 -1.1364584 2
-1.9550745 -7.3271227 -1.2011039 2
-2.800781 -10.474591 -1.3313009 2
-5.0888309 -18.978537 -1.7190598 11
nan nan nan nan
nan nan nan nan
nan nan nan nan
-10.271151 -38.628952 2.094799 35
-10.278081 -38.573685 3.4925048 13
-10.248308 -38.354286 4.8745303 51
nan nan nan nan
-10.176299 -37.92551 7.6327419 46
nan nan nan nan
nan nan nan nan
-1.0699598 -3.9272683 -1.0906636 4
-1.2625598 -4.6246543 -1.1067592 2
-1.5603247 -5.6996799 -1.1486702 2
-2.0364895 -7.4237852 -1.2192503 2
-2.9317143 -10.665333 -1.358112 2
-5.1634946 -18.733183 -1.7000599 22
nan nan nan nan
nan nan nan nan
nan nan nan nan
nan nan nan nan
-10.590817 -38.66048 3.5069728 14
-10.58207 -38.522995 4.9052415 52
nan nan nan nan
-10.550443 -38.250984 7.7128816 48
nan nan nan nan
nan nan nan nan
-1.103601 -3.9420271 -1.0968752 2
-1.3106056 -4.6720166 -1.1202563 6
-1.6170887 -5.749125 -1.160882 2
-2.1064861 -7.4740314 -1.229888 2
-3.0729978 -10.881493 -1.3883356 2
-5.3880596 -19.028324 -1.7302158 11
nan nan nan nan
nan nan nan nan
nan nan nan nan
nan nan nan nan
nan nan nan nan
-10.910056 -38.658329 4.9320526 35
-10.90153 -38.550873 6.3452954 25
-10.88252 -38.406841 7.7594385 74
nan nan nan nan
nan nan nan nan
-1.1342968 -3.9453659 -1.099981 9
-1.3485842 -4.6814795 -1.1247553 4
-1.6691705 -5.7791905 -1.1692775 2
-2.1882663 -7.5616088 -1.2467828 2
-3.2141235 -11.084747 -1.4170969 2
-5.6498079 -19.434103 -1.7706561 12
nan nan nan nan
nan nan nan nan
nan nan nan nan
nan nan nan nan
nan nan nan nan
nan nan nan nan
-11.226026 -38.665432 6.3768954 26
-11.215096 -38.552376 7.8044696 50
nan nan nan nan
nan nan nan nan
-1.1612657 -3.935498 -1.0994633 9
-1.3845493 -4.6831632 -1.1274548 4
-1.7284448 -5.8313951 -1.1822525 2
-2.2623725 -7.6181059 -1.2586719 2
-3.3435144 -11.237082 -1.4395207 2
-5.8263502 -19.531652 -1.7832065 12
nan nan nan nan
nan nan nan nan
nan nan nan nan
nan nan nan nan
nan nan nan nan
nan nan nan nan
nan nan nan nan
-11.551909 -38.700768 7.8506455 25
nan nan nan nan
nan nan nan nan
-1.1993461 -3.9624267 -1.1092985 4
-1.4296511 -4.7144103 -1.1373526 2
-1.7793919 -5.8529973 -1.1891217 2
-2.3557897 -7.7344036 -1.2805728 2
-3.5029976 -11.47928 -1.4736443 2
-6.0208478 -19.681026 -1.8006377 12
nan nan nan nan
nan nan nan nan
nan nan nan nan
nan nan nan nan
nan nan nan nan
nan nan nan nan
nan nan nan nan
nan nan nan nan
nan nan nan nan
nan nan nan nan
-1.2309875 -3.9668722 -1.112922 4
-1.4729427 -4.7378106 -1.1454508 2
-1.838903 -5.9004111 -1.2013335 2
-2.4368107 -7.8045068 -1.2949647 2
-3.6766858 -11.753886 -1.5121549 2
-6.2642126 -19.97691 -1.831665 12
nan nan nan nan
nan nan nan nan
nan nan nan nan
nan nan nan nan
nan nan nan nan
nan nan nan nan
nan nan nan nan
nan nan nan nan
nan nan nan nan
nan nan nan nan
-1.2656761 -3.980274 -1.1191336 4
-1.5201786 -4.7719755 -1.1562486 2
-1.8908007 -5.9210935 -1.2082026 2
-2.5189242 -7.8738508 -1.3093567 2
-3.8701291 -12.075763 -1.5570029 2
-7.2015719 -22.430279 -2.061059 15
nan nan nan nan
nan nan nan nan
nan nan nan nan
nan nan nan nan
nan nan nan nan
nan nan nan nan
nan nan nan nan
nan nan nan nan
nan nan nan nan
nan nan nan nan
-1.3036033 -4.0025682 -1.1279335 3
-1.5613141 -4.7853303 -1.1620972 2
-1.9536273 -5.9771318 -1.2223225 2
-2.5995066 -7.9391236 -1.3231229 2
-4.0224319 -12.25592 -1.583814 2
-7.5222745 -22.879131 -2.1070771 31
-20.825439 -63.229355 -3.4888198 63
nan nan nan nan
nan nan nan nan
nan nan nan nan
nan nan nan nan
nan nan nan nan
nan nan nan nan
nan nan nan nan
nan nan nan nan
nan nan nan nan
-1.336314 -4.010097 -1.1325922 4
-1.6037232 -4.8041677 -1.1692957 4
-2.0102589 -6.0080309 -1.2314813 2
-2.6950464 -8.0406513 -1.3431464 2
-4.1853743 -12.465371 -1.6145252 15
-7.8483167 -23.320799 -2.1527467 16
nan nan nan nan
nan nan nan nan
nan nan nan nan
nan nan nan nan
nan nan nan nan
nan nan nan nan
nan nan nan nan
