# .PCD v0.7 - Point Cloud Data file format
VERSION 0.7
FIELDS x y z intensity
SIZE 4 4 4 4
TYPE F F F F
COUNT 1 1 1 1
WIDTH 1470
HEIGHT 1
VIEWPOINT 0 0 0 1 0 0 0
POINTS 1470
DATA ascii
5.7129011 3.5338738 0.82481176 26
3.5021434 2.1638138 0.6520189 6
6.9919581 4.314949 1.5970714 5
4.632154 2.8541822 1.2561268 8
6.8359437 4.207149 2.1507864 12
1.8192575 1.1130975 -0.57147247 12
1.9671129 1.2021441 -0.53223425 10
2.1569035 1.3160633 -0.49114239 9
2.3868253 1.4546387 -0.44270959 7
2.6689365 1.6246542 -0.38364473 8
3.0595634 1.8595135 -0.31323773 7
3.5921578 2.1806345 -0.22022973 7
4.1722169 2.5297732 -0.085167743 7
5.6267629 3.4399858 0.11511607 16
5.862052 3.579617 0.35996673 14
5.7441678 3.5035045 0.58864987 30
5.6085801 3.4154339 0.80628765 8
5.6537924 3.4389095 1.0481111 16
6.9849987 4.2436051 1.5886757 5
6.8979735 4.1841493 1.862595 10
6.8387122 4.1433063 2.1425042 12
1.8170552 1.0943884 -0.56836665 12
1.9821364 1.1924009 -0.53403383 9
2.1626723 1.2989526 -0.49037915 11
2.4053915 1.4430225 -0.44427395 9
2.6768086 1.60394 -0.38315722 9
3.0485339 1.8237883 -0.31079736 6
3.5918634 2.1462827 -0.21928766 12
4.1691713 2.488286 -0.084748887 1
5.5392733 3.3335972 0.11284725 13
5.9433889 3.5725608 0.3634209 23
5.8743935 3.5269024 0.5994572 17
nan nan nan nan
5.5912256 3.3476064 1.0321548 17
6.9807534 4.1745882 1.5810434 5
6.915307 4.1288939 1.8594456 6
6.9155903 4.1241536 2.1575158 9
1.8163422 1.0767506 -0.56577843 12
1.9954432 1.1815125 -0.53538352 10
2.1784487 1.2878178 -0.4919056 12
2.3949959 1.4141409 -0.44051951 9
2.6947799 1.5892482 -0.38413221 8
3.0680594 1.8065046 -0.31149462 6
3.5947087 2.1140671 -0.21855497 7
4.2192025 2.4783607 -0.085412078 3
5.5090742 3.2632544 0.11176521 6
7.1422243 4.2255869 0.43491185 8
5.8011022 3.4280298 0.58952147 28
5.8984976 3.4800305 0.84089851 10
5.8442121 3.4438794 1.0743921 16
7.0232625 4.133718 1.5840963 4
7.0010853 4.1140871 1.8747423 6
6.9475436 4.0777321 2.158551 63
1.8321577 1.0689124 -0.56836665 12
1.9935406 1.161666 -0.53268409 11
2.1907802 1.2745526 -0.49266884 12
2.3945622 1.3914316 -0.43864229 9
2.7092428 1.5723892 -0.38461968 6
3.0702534 1.7790482 -0.31044877 7
3.6301239 2.1009254 -0.21981104 7
4.2277451 2.4438429 -0.085237555 20
5.5265393 3.221693 0.1116605 9
7.0541821 4.1072845 0.42779416 8
5.8369489 3.3944581 0.59074163 24
nan nan nan nan
5.7348237 3.3256989 1.0499883 21
7.0893254 4.1062336 1.592492 49
nan nan nan nan
7.0159912 4.0523186 2.1709743 51
1.8379 1.0551336 -0.56784898 12
1.9931488 1.1428744 -0.53043461 11
2.2013285 1.2602024 -0.49305046 12
2.4076476 1.3766414 -0.43926802 9
2.7098112 1.5475302 -0.38315722 8
3.0964451 1.765465 -0.31184325 7
3.6290822 2.0666356 -0.21886899 10
4.2533937 2.4192114 -0.085412078 5
5.5350213 3.1750693 0.11138126 13
7.1208119 4.0797772 0.43009692 8
5.8155427 3.3278973 0.58620954 23
5.7569118 3.289017 0.81408727 15
5.7784886 3.2973325 1.0537428 17
nan nan nan nan
7.0781693 4.0274997 1.8801411 100
7.0088406 3.9831948 2.1601038 33
1.8452214 1.0422769 -0.56784898 12
2.0027769 1.1298883 -0.5308845 11
2.2066512 1.2428777 -0.49228725 12
2.4137557 1.3578635 -0.43864229 9
2.7136259 1.5246862 -0.3821823 8
3.1017442 1.7399058 -0.31114599 7
3.645164 2.0422258 -0.21897365 7
4.2335329 2.3689518 -0.084679075 7
5.5396376 3.1265213 0.11103221 13
7.0917048 3.9975998 0.42664275 8
5.833426 3.2842836 0.58568656 27
5.9095187 3.3216939 0.83236772 25
5.8168716 3.2656107 1.0565585 19
7.1545286 4.011651 1.5943999 72
nan nan nan nan
nan nan nan nan
1.8406329 1.0228002 -0.56422555 12
2.014024 1.1177701 -0.5317843 11
2.2066879 1.2226846 -0.49037915 10
2.4404602 1.3505439 -0.44177097 9
2.7242048 1.5057031 -0.3821823 8
3.1138146 1.7182107 -0.31114599 6
3.6558332 2.0148017 -0.21876432 7
4.2552228 2.3422332 -0.084783792 3
5.4809074 3.0431223 0.1094266 9
7.0687852 3.9199073 0.42360729 8
nan nan nan nan
5.8717628 3.246737 0.8238368 6
5.8170481 3.212507 1.0524912 17
7.1514177 3.9445379 1.587531 65
nan nan nan nan
10.147929 5.5811782 3.1032405 1
1.8324716 1.0015872 -0.5595668 12
2.0183568 1.1018158 -0.5308845 10
2.2065513 1.2025506 -0.48847106 7
2.4290099 1.3221396 -0.43801656 9
2.7416263 1.4904402 -0.38315722 9
3.1082232 1.6869265 -0.30940288 6
3.6768336 1.9930372 -0.21918301 7
4.2820234 2.3181796 -0.084993221 5
5.5441389 3.027787 0.11026431 9
7.129293 3.8886335 0.42559603 17
7.0527048 3.8420689 0.70264959 1
5.9326501 3.2265332 0.82919908 11
5.9105015 3.2104788 1.0653188 14
7.1356378 3.8711143 1.5779905 73
10.25051 5.551681 2.6913147 2
10.201938 5.5184684 3.1078992 1
1.8513306 0.99517256 -0.56319028 12
2.020849 1.0849328 -0.52953482 10
2.2166226 1.1880451 -0.48885265 9
2.4312143 1.3014219 -0.43676507 9
2.7467122 1.4684575 -0.38242605 9
3.1304715 1.6708133 -0.31044877 4
3.6765592 1.9598019 -0.21834564 7
4.2486792 2.2619166 -0.084015884 22
5.51053 2.9596763 0.10918226 11
7.1668277 3.8444316 0.42622405 25
7.0617952 3.7833257 0.70090652 1
6.0478048 3.2346568 0.84211725 1
6.9851623 3.7312987 1.2542918 10
7.119185 3.7981007 1.56845 65
10.203016 5.434185 2.6688194 2
10.219747 5.4362288 3.1016874 1
1.8582331 0.98222363 -0.56319028 12
2.0128639 1.0626104 -0.52548569 12
2.2265995 1.1734565 -0.4892343 9
2.4472327 1.2880973 -0.43801656 9
2.7498684 1.4455512 -0.38145107 11
3.1385303 1.6470675 -0.31010011 6
3.6972268 1.9377972 -0.21876432 7
4.2749958 2.2377663 -0.084225312 22
5.5045342 2.9071252 0.10865869 13
7.1581602 3.7756677 0.42413062 28
7.056304 3.7172213 0.69776887 1
7.0154748 3.6894584 0.97324866 3
6.9795628 3.6659083 1.2486601 10
7.1211896 3.7355359 1.5631074 68
10.247611 5.3664384 2.670619 2
10.384127 5.4310026 3.139993 1
1.8667588 0.97011852 -0.56370795 12
2.0219629 1.0494297 -0.52593559 11
2.2242787 1.1524643 -0.48694456 10
2.452657 1.2691654 -0.43739083 10
2.7563665 1.4244956 -0.38096359 9
3.1428699 1.6214623 -0.30940288 7
3.6964612 1.9046201 -0.21792693 7
4.2780671 2.2014618 -0.083980985 10
5.519371 2.8658609 0.10855397 11
7.0584598 3.6603215 0.41669893 5
7.060853 3.656873 0.6956771 2
7.0128479 3.6258042 0.96934885 3
6.9628611 3.5953412 1.2411512 10
7.1156845 3.6695354 1.5562382 70
10.279628 5.2920895 2.6692693 2
10.727606 5.5156112 3.2321324 2
1.8580029 0.94915181 -0.55904913 12
2.0275042 1.0344026 -0.52548569 9
2.2270212 1.1342359 -0.4857997 11
2.4684999 1.2555951 -0.43864229 9
2.7733233 1.4088138 -0.38193855 9
3.1609414 1.6036376 -0.31010011 7
3.7043223 1.8760601 -0.21761292 7
4.3147459 2.1823723 -0.084399842 15
5.5232143 2.8190768 0.10823982 9
7.1301055 3.6345379 0.41942036 25
7.038271 3.5830843 0.69097072 3
7.0132141 3.5641658 0.96593654 2
6.9455156 3.5251863 1.2336423 10
7.1148624 3.6064548 1.550514 73
10.24065 5.1841488 2.6499236 2
nan nan nan nan
1.8628576 0.93529052 -0.55853152 12
2.0399022 1.022843 -0.52683538 10
2.2364461 1.1199287 -0.48618135 13
2.4593222 1.2299266 -0.43551362 10
2.7830911 1.389418 -0.38193855 9
3.1506634 1.570863 -0.3080084 7
3.7205827 1.8525828 -0.21782227 7
4.3119702 2.1432939 -0.084050797 21
5.5798078 2.8002522 0.10897283 11
7.0993285 3.5581784 0.41617554 8
7.0435123 3.5240576 0.6890533 3
7.0088983 3.5021522 0.96203667 2
6.944603 3.4654832 1.2292621 10
7.1047215 3.5391881 1.5428816 66
10.651715 5.29915 2.7466526 2
nan nan nan nan
1.8691802 0.92258966 -0.55853152 11
2.0398252 1.0054888 -0.5250358 11
2.2406867 1.1025556 -0.48541811 11
2.4660752 1.2118573 -0.43520072 10
2.7889194 1.3686942 -0.38145107 9
3.1615531 1.548829 -0.3080084 6
3.7226608 1.8212966 -0.21719423 5
4.3713756 2.1358418 -0.084923409 16
5.5490041 2.736465 0.10799549 11
7.1150379 3.5041173 0.41565222 19
7.0405211 3.4628389 0.68643862 6
6.9761577 3.4251361 0.95423704 6
6.938477 3.4021287 1.2239434 12
7.0845666 3.4691606 1.5333412 68
20.519018 10.029983 5.2728529 9
nan nan nan nan
1.875576 0.90951699 -0.55853152 10
2.0275025 0.98187941 -0.52008688 10
2.2536321 1.0894493 -0.48656297 11
2.4709177 1.1928936 -0.43457499 10
2.787678 1.344018 -0.37998864 11
3.1794693 1.5301769 -0.30870563 6
3.7226839 1.7892088 -0.21646154 7
4.3771663 2.1009455 -0.084748887 15
5.4851899 2.6575541 0.10638987 9
7.1123576 3.4413142 0.41408211 24
7.0465832 3.4049373 0.68469548 7
7.0034761 3.3780749 0.95472455 1
6.9496021 3.3476052 1.2217534 10
7.0838451 3.4077015 1.5279986 64
20.725567 9.9522762 5.3079453 9
nan nan nan nan
1.8836237 0.89723253 -0.55904913 10
2.039587 0.97021317 -0.52143657 10
2.2505426 1.0686356 -0.48427325 11
2.4916801 1.1815379 -0.43676507 9
2.7972243 1.3240354 -0.37998864 11
3.1864719 1.5062399 -0.308357 4
3.7386961 1.7648811 -0.21667089 7
4.3776169 2.0627501 -0.084469646 15
5.5343051 2.6338036 0.10698325 13
7.0730739 3.3615706 0.41041863 13
7.0431833 3.3428457 0.68208081 10
6.9838319 3.3087044 0.94887477 1
6.9245906 3.2761996 1.2133058 12
7.0867457 3.3468626 1.523419 70
21.009575 9.9087572 5.3628335 10
nan nan nan nan
1.877746 0.87800276 -0.5554257 10
2.050009 0.95724237 -0.52233636 10
2.2490511 1.0487503 -0.48236516 10
2.5072341 1.1670129 -0.43801656 9
2.8027999 1.3028001 -0.37950116 9
3.1969104 1.4839559 -0.308357 4
3.7512298 1.7380824 -0.21667089 7
4.4155025 2.043057 -0.084923409 9
5.516326 2.5781691 0.10628515 14
7.1186666 3.3210032 0.41167465 41
7.036222 3.2780566 0.6791175 11
6.9887624 3.2514939 0.94643742 2
6.9191923 3.2132487 1.2083 12
7.0832229 3.2849166 1.5176948 76
21.202021 9.8191671 5.3943267 10
nan nan nan nan
1.8785629 0.86245418 -0.55387276 9
2.0601847 0.94453168 -0.52323622 10
2.2582834 1.0334467 -0.48274681 10
2.5027442 1.1437321 -0.43582645 10
2.8226628 1.2881459 -0.38096359 9
3.1926885 1.4549912 -0.30696252 9
3.7705443 1.7151594 -0.21708956 7
4.4023499 1.9997737 -0.084399842 10
5.4546585 2.5019462 0.10474934 9
7.0980983 3.2512631 0.40916255 30
7.0245104 3.2131081 0.67580563 13
6.9793472 3.1865599 0.9420501 3
6.9180889 3.1542153 1.2042327 10
7.0648861 3.2166786 1.5089177 83
21.411966 9.735446 5.4303188 10
6.9152837 3.1383662 2.0348353 3
1.8898219 0.85169953 -0.5554257 11
2.0489578 0.92212814 -0.51873714 9
2.2634747 1.0172462 -0.48236516 10
2.5086689 1.1258625 -0.43551362 9
2.8279629 1.2667871 -0.38047612 9
3.1918557 1.4277868 -0.30591667 9
3.7493069 1.6747918 -0.21520546 7
4.3979397 1.9608477 -0.084050797 1
5.373107 2.4204085 0.10286448 13
7.0818143 3.1856661 0.40696445 19
7.0376844 3.1599057 0.67493409 15
6.9646502 3.1227326 0.93717533 2
6.896131 3.0876756 1.1967238 5
nan nan nan nan
nan nan nan nan
nan nan nan nan
1.8991085 0.84037966 -0.55646098 12
2.0444925 0.90343404 -0.51603776 10
2.2723172 1.0022128 -0.48274681 11
2.5074282 1.1043413 -0.43394926 10
2.8274341 1.2435137 -0.37925744 5
3.2126915 1.4102736 -0.30696252 7
3.7535913 1.6453686 -0.21478678 5
4.3415718 1.9003979 -0.082724407 1
5.3569531 2.3682842 0.1022362 17
7.0874381 3.1288884 0.4060224 24
7.031682 3.0998759 0.67231935 22
nan nan nan nan
4.2861481 1.8832728 0.74149948 1
4.2518353 1.865541 0.90252656 8
6.9867706 3.0597064 1.7609171 99
6.9242678 3.0280149 2.0250003 45
1.8996131 0.82479268 -0.55490804 12
2.0686288 0.8968907 -0.52053678 10
2.272052 0.98320472 -0.4812203 11
2.5150771 1.0868081 -0.43394926 10
2.8251109 1.2190239 -0.37779501 8
3.2261188 1.3893867 -0.30731115 9
3.7741606 1.6230688 -0.21531016 5
4.3767824 1.8795103 -0.083143272 1
5.4063768 2.3451543 0.10286448 13
7.0999432 3.0753665 0.40549901 2
nan nan nan nan
4.3084249 1.8599601 0.57619828 3
6.8914042 2.9707603 1.1885892 7
nan nan nan nan
nan nan nan nan
6.9044037 2.9620857 2.0130947 100
1.8946606 0.8069697 -0.55180228 12
2.0730462 0.88166535 -0.52008688 11
2.2625961 0.96041489 -0.47778577 9
2.5298781 1.0723065 -0.43520072 10
2.8335524 1.1992713 -0.37779501 8
3.232069 1.3652796 -0.30696252 9
3.7780387 1.5935757 -0.21489146 3
4.4045405 1.8551183 -0.083422504 1
4.4529128 1.8947389 0.084469646 1
4.3565669 1.85105 0.24807246 1
7.0229211 2.9796102 0.66743869 25
4.3121657 1.8259664 0.57497966 3
nan nan nan nan
nan nan nan nan
nan nan nan nan
nan nan nan nan
1.9038132 0.79521197 -0.55283749 12
2.073755 0.86492079 -0.51873714 10
2.2746832 0.946859 -0.47893062 10
2.5227101 1.0485531 -0.43269777 11
2.8436897 1.1802212 -0.37803873 9
3.2175925 1.3327703 -0.30469647 8
3.7872262 1.5663978 -0.21478678 5
4.395205 1.8151637 -0.08300364 1
5.4312124 2.2663574 0.10272487 9
7.0684471 2.9452045 0.40131214 2
nan nan nan nan
nan nan nan nan
6.8738179 2.8500435 1.1785774 10
nan nan nan nan
19.34329 7.992485 4.8319492 8
nan nan nan nan
1.9093184 0.78190148 -0.55283749 12
2.0653129 0.8445217 -0.51513797 10
2.2903266 0.93466568 -0.48083872 10
2.5263097 1.0294261 -0.43207204 10
2.8481815 1.1588447 -0.37755126 9
3.2376645 1.3153391 -0.30574232 9
3.7814107 1.5331656 -0.21384473 5
4.3503098 1.7611732 -0.0819216 3
nan nan nan nan
4.3154263 1.7628495 0.24430427 1
4.2154279 1.7194252 0.39830172 2
nan nan nan nan
6.8789086 2.796032 1.1760744 10
7.0291581 2.8528156 1.4745719 82
19.451427 7.8825908 4.8454461 8
nan nan nan nan
1.9129382 0.76783234 -0.55231988 12
2.0693498 0.82935649 -0.51468807 10
2.2948132 0.91832376 -0.48045707 11
2.5424304 1.0158696 -0.43363637 9
2.8525145 1.1374619 -0.37706378 9
3.2467685 1.2927037 -0.30574232 7
3.7843354 1.5044395 -0.21342604 5
4.3439107 1.7233871 -0.081572548 7
nan nan nan nan
nan nan nan nan
4.2421293 1.6958731 0.39969626 1
4.1242318 1.6462375 0.54524344 1
6.8555751 2.732326 1.1688784 12
7.0197153 2.792064 1.4684662 83
19.466139 7.7307777 4.8355479 8
nan nan nan nan
1.9199177 0.75550187 -0.55283749 11
2.0785744 0.81667787 -0.51558787 9
2.2847178 0.89583158 -0.4770225 10
2.5457814 0.99665648 -0.43301064 10
2.8601911 1.1180191 -0.37706378 9
3.252002 1.2685559 -0.30539373 9
3.7984686 1.4794331 -0.2136354 7
4.3238583 1.6814559 -0.080979168 7
4.3213873 1.6987587 0.081048973 1
nan nan nan nan
4.2498646 1.6655023 0.3993476 8
4.117137 1.6101745 0.54280609 1
6.8616023 2.6793687 1.1666883 8
7.0239234 2.7385156 1.4654131 83
19.726669 7.6752539 4.886837 8
nan nan nan nan
1.9107244 0.7365222 -0.5486964 11
2.0914996 0.80494767 -0.51738745 10
2.2817523 0.87633997 -0.47511441 9
2.5545218 0.97956657 -0.43332353 7
2.8660727 1.0973141 -0.37682006 8
3.2570562 1.2444011 -0.3050451 8
3.8049712 1.4514567 -0.21342604 5
4.3280163 1.648384 -0.080839552 7
4.3032842 1.6570489 0.080490492 1
4.2317953 1.6269772 0.23760527 1
4.2018657 1.6129458 0.39376962 1
4.1282778 1.5813923 0.54280609 3
6.8395514 2.6158729 1.1598053 8
7.0208631 2.6810048 1.4608337 79
18.053459 6.8795137 4.46033 7
nan nan nan nan
1.9158201 0.72316396 -0.5486964 12
2.0970688 0.79032558 -0.51738745 11
2.2933276 0.86246228 -0.47625926 7
2.542805 0.95476496 -0.43019485 7
2.8773811 1.0786721 -0.37730753 6
3.2581999 1.21884 -0.30434784 8
3.8206246 1.4269542 -0.21374007 5
4.3487868 1.6216216 -0.081014074 7
4.2679706 1.6093276 0.07961788 2
4.1907129 1.5776905 0.23467445 1
4.1663995 1.5660468 0.38941187 7
4.1466522 1.5553217 0.5437811 32
6.857646 2.5680633 1.1598053 10
7.009985 2.6209276 1.4547279 79
17.918465 6.6851897 4.4153395 6
nan nan nan nan
1.9171979 0.70843226 -0.54766113 12
2.0915654 0.77161908 -0.51468807 11
2.3029773 0.84778827 -0.4770225 8
2.540138 0.93358237 -0.4286305 9
2.8848414 1.0585579 -0.37730753 4
3.2703714 1.1974337 -0.30469647 8
3.813611 1.3940748 -0.21279801 5
4.356245 1.5898509 -0.080944255 8
4.2453341 1.567028 0.078989588 2
4.2147436 1.5532298 0.23540714 4
4.18471 1.5396737 0.39010909 8
nan nan nan nan
6.8512959 2.5112875 1.155738 12
6.9986124 2.5611296 1.448622 79
17.843885 6.5158167 4.3856459 6
nan nan nan nan
1.9331193 0.69863456 -0.55076694 12
2.0897012 0.7539869 -0.51288843 9
2.3071377 0.83062196 -0.47664091 9
2.5579066 0.91939187 -0.43050769 9
2.8923421 1.0378888 -0.37730753 4
3.2786508 1.1745745 -0.30469647 5
3.8197277 1.365405 -0.21258868 5
4.3524432 1.5532608 -0.080665022 7
4.2827716 1.5461154 0.079478264 2
4.242661 1.5291247 0.23634921 1
4.2181172 1.5177839 0.39220083 1
4.1663566 1.4958749 0.54353732 1
6.8430572 2.4528649 1.1513578 12
7.0056696 2.5070143 1.4463322 81
17.786173 6.3543682 4.3604517 6
10.233932 3.6481612 2.9111967 2
1.9434136 0.68705356 -0.55231988 12
2.0985892 0.74067682 -0.51378828 9
2.3145902 0.81554979 -0.4770225 9
2.564106 0.90195817 -0.43050769 9
2.8845334 1.0124104 -0.3753576 6
3.2867715 1.1516551 -0.30469647 8
3.8327036 1.3406922 -0.21279801 5
4.3405242 1.5149317 -0.080246165 5
4.3384461 1.5329182 0.080315977 2
4.2605052 1.5028679 0.23676789 1
4.2417655 1.4929314 0.39342102 1
4.1820598 1.4694569 0.54426849 2
6.8353615 2.3977318 1.1472905 7
6.9952054 2.4483159 1.4406079 87
17.719723 6.1914754 4.3334575 6
nan nan nan nan
1.9370906 0.67002118 -0.54921407 12
2.1017396 0.7257399 -0.51333833 9
2.3128023 0.79681408 -0.47549605 9
2.5647359 0.88210911 -0.42956907 10
2.8913574 0.99275392 -0.3753576 8
3.2834227 1.124807 -0.30365062 8
3.8268518 1.308732 -0.21196064 5
4.3753376 1.4937484 -0.080699928 3
4.390625 1.5169572 0.081083886 2
4.336977 1.4958806 0.24043141 1
4.2537136 1.4646704 0.39359534 3
4.2260098 1.4518344 0.54865587 7
6.8183017 2.3384151 1.1416589 7
nan nan nan nan
nan nan nan nan
9.8937941 3.3739097 2.8009398 2
1.9362313 0.65462428 -0.54766113 12
2.108602 0.71167153 -0.51378828 8
2.309006 0.77751565 -0.47358796 9
2.5614696 0.86103529 -0.42800474 9
2.9000995 0.97317582 -0.37560135 9
3.2760799 1.0967983 -0.30225611 8
3.8491545 1.2864169 -0.21269335 7
nan nan nan nan
4.3954239 1.4843506 0.080979168 1
4.4154477 1.4885378 0.2441996 1
4.2978249 1.4463791 0.39673293 3
4.2699165 1.4336672 0.55304313 3
6.8044934 2.2807131 1.1366529 3
nan nan nan nan
4.1738396 1.39331 1.015879 1
10.391796 3.4629345 2.935008 2
1.942588 0.6416977 -0.54817873 12
2.1061156 0.69449317 -0.51198864 9
2.3274322 0.76567143 -0.47625926 9
2.5674188 0.84313071 -0.42800474 9
2.9124823 0.95475924 -0.37633255 8
3.2836573 1.0739002 -0.30225611 8
3.8409534 1.2539347 -0.2117513 5
4.4337921 1.4449071 -0.081398018 1
4.4284668 1.4611471 0.081398018 1
nan nan nan nan
4.3513498 1.4306521 0.40074208 3
4.2571864 1.3964003 0.55011827 8
6.8164949 2.2319272 1.1360272 3
nan nan nan nan
17.597235 5.7380662 4.2731705 6
10.02995 3.2647347 2.826304 4
1.9525361 0.62989962 -0.54973167 12
2.1034932 0.67738348 -0.51018906 9
2.3271132 0.74760276 -0.47511441 9
2.5751231 0.8257907 -0.42831761 9
2.9039516 0.92956287 -0.37438264 8
3.3138502 1.0582228 -0.30434784 6
3.8381977 1.2234483 -0.21112327 5
4.3904166 1.3969395 -0.080420688 1
5.196084 1.6742849 0.095290139 1
6.9037261 2.2205329 0.38006377 15
nan nan nan nan
4.2743931 1.3690675 0.55109322 1
4.2353702 1.3541241 0.70426804 15
nan nan nan nan
10.123835 3.22314 2.4528663 2
nan nan nan nan
1.9624141 0.61799383 -0.55128461 12
2.1118891 0.66385061 -0.51108885 10
2.3247826 0.72898859 -0.47358796 9
2.5845959 0.80897295 -0.42894334 9
2.904686 0.90749091 -0.37365144 9
3.3171725 1.0344552 -0.30399922 8
3.8676236 1.2031487 -0.21227466 7
4.4153399 1.3709984 -0.080699928 1
nan nan nan nan
4.3046427 1.3514692 0.23645388 1
4.3214693 1.3542669 0.39620999 3
6.8473339 2.1405768 0.88087165 1
6.7979646 2.1212368 1.1278926 10
nan nan nan nan
10.134373 3.1506882 2.4501669 2
6.8012471 2.1092429 1.9080141 7
1.9482141 0.59860551 -0.54610825 12
2.1276505 0.65251994 -0.51378828 10
2.3203044 0.71027523 -0.47167987 9
2.5900421 0.79136258 -0.42894334 9
2.9090519 0.88661164 -0.37340769 8
3.3052521 1.0054733 -0.30225611 8
3.8738115 1.1762162 -0.21216999 5
4.4248033 1.3401424 -0.080699928 3
nan nan nan nan
6.8191109 2.0900183 0.37378344 4
6.9144478 2.1139593 0.63257635 40
6.8522525 2.0910218 0.87965298 8
6.7876806 2.0674331 1.1238253 12
6.9634838 2.1156657 1.414658 85
nan nan nan nan
nan nan nan nan
1.948543 0.58421999 -0.54507297 12
2.1264422 0.63634527 -0.51243854 10
2.3346128 0.69686568 -0.47358796 9
2.5727863 0.76649207 -0.42518893 9
2.9226305 0.86905289 -0.37438264 8
3.3043795 0.98068428 -0.30155888 8
3.8934186 1.1525465 -0.21279801 7
4.4491644 1.3145275 -0.080979168 10
5.1818433 1.5516729 0.09441752 4
6.8105717 2.0355012 0.37252739 7
6.89431 2.0565968 0.62943876 35
6.8286304 2.0318108 0.87477821 22
nan nan nan nan
6.6972575 1.9850904 1.3577969 95
6.6375647 1.9636172 1.5980525 100
6.5573106 1.9348983 1.8319213 100
1.9562823 0.57168698 -0.54610825 13
2.1177371 0.61766589 -0.50928926 9
2.3468418 0.68315428 -0.47511441 9
2.5893252 0.75226974 -0.42706612 9
2.9324398 0.84973294 -0.37487015 8
3.320715 0.9603591 -0.30243042 8
3.8896608 1.1226931 -0.21216999 5
4.4736066 1.287858 -0.081258401 12
5.1980443 1.5180444 0.094522238 7
6.8472795 1.9957992 0.37378344 7
6.8912811 2.0034096 0.62786996 42
6.787015 1.9692411 0.86770982 62
6.7510276 1.9549677 1.1131878 82
6.6826601 1.9301181 1.3520726 97
6.6342583 1.9123724 1.5940033 100
6.5647597 1.8886167 1.8303684 100
1.9675603 0.5604738 -0.54817873 13
2.1162694 0.60163695 -0.50793952 9
2.3515539 0.66675359 -0.47511441 9
2.586911 0.73202306 -0.42581466 9
2.9268372 0.82600635 -0.37340769 9
3.3311741 0.93823296 -0.30277905 8
3.9012492 1.0965917 -0.21237932 5
4.4670849 1.2522768 -0.080979168 10
5.1815877 1.4740604 0.094033569 6
6.20011 1.7603016 0.3377763 2
6.8951735 1.9537399 0.62699836 28
6.7757635 1.9147928 0.86454117 45
6.7493019 1.9034995 1.1106849 85
6.6789627 1.878633 1.3486381 88
6.6174278 1.8575829 1.5868049 100
6.5629025 1.8385708 1.8262272 100
1.9659351 0.544833 -0.54662579 12
2.1261547 0.58803725 -0.50928926 9
2.3429043 0.64666283 -0.4724431 9
2.5997012 0.71558976 -0.42706612 9
2.924876 0.80344969 -0.37243277 8
3.3299565 0.91284877 -0.30208179 6
3.8974369 1.0654868 -0.2117513 7
4.4448514 1.212639 -0.080420688 12
5.2090964 1.4426535 0.094347708 4
6.2009964 1.7126992 0.33714828 6
6.88977 1.8990548 0.62525529 38
6.7774825 1.8642836 0.86307877 83
6.7322702 1.8467927 1.1056789 85
6.6767678 1.8278091 1.3455851 86
6.6151962 1.8072308 1.5832056 100
6.555387 1.7859778 1.8205333 100
1.9640955 0.52958626 -0.54507297 12
2.1320899 0.57368588 -0.5097391 9
2.3436794 0.62886447 -0.47167987 10
2.6008174 0.69640118 -0.42644039 9
2.9380848 0.78506041 -0.37340769 5
3.3285484 0.88752419 -0.30138457 6
3.9009199 1.037227 -0.21154197 5
4.4570737 1.1826063 -0.080490492 7
5.1806679 1.3949429 0.093649611 6
6.2552371 1.6807685 0.33945104 4
6.8739939 1.843169 0.62264061 42
6.7753077 1.8116351 0.86112887 78
6.7220955 1.7936362 1.1019244 91
6.6798792 1.778626 1.343677 26
nan nan nan nan
nan nan nan nan
1.965876 0.51537138 -0.54455531 12
2.1360431 0.55878711 -0.5097391 9
2.3593032 0.61587214 -0.47396958 9
2.6016741 0.67768586 -0.42581466 9
2.9434946 0.76452816 -0.37340769 8
3.3346634 0.86426485 -0.30138457 4
3.940762 1.0191495 -0.21332137 5
4.4574761 1.1494639 -0.080350876 7
5.1765027 1.3560995 0.093405277 6
6.2278867 1.6280456 0.33735761 2
6.867415 1.7901088 0.62089753 42
nan nan nan nan
nan nan nan nan
5.0385809 1.3040055 1.0116693 4
4.9699321 1.2834628 1.1850423 6
4.9200435 1.2678319 1.3613882 4
1.9730821 0.50293338 -0.54559058 12
2.134131 0.54279453 -0.50838941 8
2.355933 0.59745568 -0.4724431 9
2.5967669 0.65708345 -0.42425033 6
2.9544041 0.74593389 -0.37413892 9
3.336751 0.83999228 -0.30103594 8
3.9109755 0.9823702 -0.2113326 3
4.4535584 1.1161792 -0.080141447 7
5.178092 1.3179547 0.09326566 6
5.2092519 1.3229818 0.28167215 3
nan nan nan nan
5.096364 1.287684 0.64542013 3
5.0567675 1.274863 0.82597405 4
5.0435338 1.2687185 1.0109061 5
5.0071239 1.2558461 1.1917908 6
4.949389 1.2386116 1.3670822 6
1.972795 0.48821735 -0.54455531 12
2.1397605 0.52834839 -0.50883931 9
2.367672 0.58287197 -0.47396958 9
2.6108825 0.64129448 -0.42581466 9
2.9479711 0.72245508 -0.37267649 9
3.350276 0.81856847 -0.30173317 6
3.9255002 0.95693457 -0.2117513 3
4.4515281 1.0826975 -0.079966925 5
5.1832843 1.2808133 0.093195848 6
5.1601853 1.272239 0.27853197 3
5.1560068 1.2683456 0.46454012 2
5.1225801 1.2563311 0.6476137 6
5.1096754 1.2503303 0.83317006 4
5.0446386 1.2316169 1.0093796 5
5.0044093 1.2180916 1.1890913 6
nan nan nan nan
1.9742765 0.47398171 -0.54403764 12
2.1415019 0.51294321 -0.50838941 9
2.3621356 0.56404728 -0.47206149 9
2.6114531 0.62213594 -0.42518893 9
2.9413557 0.6991027 -0.37121406 9
3.3518929 0.79482549 -0.30138457 5
3.9262545 0.92812777 -0.21143727 3
4.4434071 1.0479214 -0.079687685 4
5.1823764 1.2422676 0.093021333 9
5.2058482 1.2450122 0.28052074 5
5.1879916 1.237868 0.46663183 5
5.1196389 1.2177819 0.6461513 6
5.091372 1.2082421 0.82878989 4
nan nan nan nan
nan nan nan nan
6.6322565 1.5616904 1.8257096 100
1.9756558 0.45975024 -0.54352003 12
2.1450305 0.49798021 -0.50838941 10
2.3563573 0.54574078 -0.47015342 8
2.6194763 0.60523522 -0.42581466 9
2.9616399 0.68211526 -0.37316394 9
3.3573601 0.77140552 -0.30138457 5
3.9285877 0.90048862 -0.21122794 5
4.4467163 1.0159843 -0.07961788 6
5.2023993 1.2096784 0.093230762 9
5.2103114 1.2086431 0.28031141 5
6.9183226 1.5997677 0.6212461 36
nan nan nan nan
nan nan nan nan
6.7529221 1.5491071 1.34673 12
nan nan nan nan
6.6069484 1.5083402 1.8158745 100
1.973086 0.44501659 -0.54196709 12
2.1502719 0.48379567 -0.50883931 10
2.3677723 0.53099656 -0.47167987 9
2.608216 0.58348441 -0.42331171 9
2.9623392 0.6610769 -0.37267649 9
3.3587739 0.74708265 -0.30103594 4
3.936728 0.87347251 -0.2113326 5
4.4535284 0.98569286 -0.07961788 3
5.1658483 1.1632258 0.092427947 6
6.2027164 1.393292 0.33317071 2
6.9134989 1.5491505 0.61985165 56
nan nan nan nan
nan nan nan nan
nan nan nan nan
7.2033219 1.595623 1.7033296 2
nan nan nan nan
1.9780325 0.43164194 -0.54248476 12
2.1421721 0.46628529 -0.50613987 10
2.3656657 0.51320475 -0.47053501 9
2.6180179 0.56651473 -0.42425033 10
2.9591212 0.63870311 -0.37170154 9
3.3639073 0.72361737 -0.30103594 5
3.9153907 0.84010357 -0.20986721 7
4.4642119 0.95541644 -0.079687685 3
5.1679807 1.1258585 0.092323236 4
6.2318087 1.3541991 0.33421743 2
6.9046731 1.4966302 0.61810851 62
7.4023752 1.5990968 0.92986321 1
7.4345646 1.6019769 1.2045455 1
7.3936119 1.5891023 1.4699926 1
7.3895941 1.5828426 1.7447206 2
nan nan nan nan
1.986668 0.41901907 -0.54403764 11
2.1549098 0.45332563 -0.50838941 10
2.373034 0.49748129 -0.47129822 9
2.6161087 0.54700959 -0.42331171 9
2.9518483 0.61559737 -0.37023908 9
3.3766801 0.70173687 -0.30173317 5
3.9289827 0.81436998 -0.21028589 7
4.4688148 0.92382008 -0.079652779 3
5.1718011 1.0889277 0.092253424 4
6.1981091 1.3016294 0.33191466 2
6.9032531 1.4459392 0.61706263 62
7.5066314 1.566852 0.94156259 1
7.5964117 1.5814418 1.2289493 1
7.5429277 1.5661873 1.4974691 1
7.2916894 1.5087086 1.719076 2
7.2727952 1.5008287 1.9898008 5
2.0009029 0.40745223 -0.54714346 12
2.1503832 0.43671909 -0.50658983 11
2.3687522 0.47934583 -0.46977177 10
2.6353543 0.53185987 -0.42581466 9
2.9521816 0.59419268 -0.36975163 9
3.3893111 0.67971152 -0.30243042 5
3.9208634 0.78417683 -0.20955318 5
4.443779 0.88634109 -0.079094306 3
5.1753578 1.0519985 0.092183605 3
6.2070456 1.2583266 0.33191466 2
6.901463 1.3953378 0.61601681 61
7.4940348 1.5097032 0.93863773 1
7.4310293 1.4929624 1.2004782 1
7.3688779 1.4764622 1.4608337 1
7.286756 1.4547176 1.7154769 2
7.302042 1.4537941 1.9949772 2
1.9942207 0.39161211 -0.54455531 13
2.159117 0.42281947 -0.50793952 10
2.3701138 0.46242115 -0.46939012 10
2.631247 0.51193964 -0.4245632 9
2.9601552 0.57432425 -0.37023908 9
3.3861487 0.65452224 -0.30173317 8
3.9242814 0.75640887 -0.20944853 5
4.4616404 0.85756284 -0.079303734 1
5.1825757 1.0158421 0.092183605 4
6.2137189 1.2145795 0.33181 2
6.883657 1.3417892 0.61357641 60
7.4810081 1.4528071 0.93571293 1
7.4664826 1.4459301 1.2045455 1
7.4850268 1.445452 1.4818227 2
7.4689622 1.4369458 1.755968 2
7.4770741 1.4344473 2.0400119 3
1.9855167 0.37552717 -0.54144943 12
2.1639309 0.40809682 -0.50838941 10
2.3732843 0.44586337 -0.46939012 9
2.6308734 0.49283019 -0.42393744 9
2.9679954 0.55437344 -0.37072656 9
3.3749654 0.62795091 -0.30033869 6
3.9451761 0.73190826 -0.21028589 7
4.4694848 0.82675749 -0.07933864 3
5.1698914 0.97592676 0.09183456 4
6.2063446 1.1682143 0.33097261 2
6.8713164 1.2896566 0.61165899 58
7.6743889 1.4348375 0.9586243 1
7.6472845 1.4256265 1.232078 1
7.6744423 1.426532 1.5173131 1
7.6570168 1.4177636 1.797809 2
7.6236882 1.4074646 2.0772817 3
1.9975932 0.36338425 -0.54403764 12
2.1533053 0.3905454 -0.50524008 10
2.3821352 0.43033206 -0.47053501 9
2.6284177 0.47340205 -0.42299888 7
2.9717932 0.53363937 -0.37072656 11
3.3791614 0.60496366 -0.30033869 6
3.922662 0.69943959 -0.20882049 4
4.4830236 0.79693455 -0.079478264 3
5.1805139 0.94052476 0.091904372 3
6.2163138 1.125213 0.33107728 2
6.8703485 1.2398852 0.61078745 60
7.8346596 1.4082667 0.97739226 1
7.8242693 1.4021705 1.2589847 1
7.8330283 1.3995079 1.5466977 1
7.8487506 1.3980767 1.8405496 2
7.8140335 1.3862616 2.1264575 3
2.0000815 0.34942958 -0.54403764 12
2.1540596 0.37516862 -0.50479025 11
2.3850093 0.41410622 -0.47053501 9
2.6335258 0.45583561 -0.42331171 9
2.9676216 0.51153058 -0.36975163 9
3.3833027 0.5813579 -0.30033869 6
3.9253638 0.67238533 -0.20871581 4
4.4865065 0.76527929 -0.07944335 3
5.1907358 0.90592796 0.091974184 3
6.1962814 1.0780809 0.3296119 2
6.8670578 1.1898532 0.60974157 66
8.010334 1.3836288 0.99811 1
8.014678 1.3800581 1.2880815 1
8.0244989 1.3759782 1.58257 1
8.0119896 1.3695154 1.8765417 2
7.9946842 1.3622496 2.1730449 3
2.0100346 0.33708635 -0.54610825 13
2.1680956 0.36242649 -0.50748962 11
2.3839688 0.3968021 -0.46977177 9
2.6405411 0.4380869 -0.42393744 9
2.9710343 0.49132013 -0.36975163 9
3.3871813 0.55831659 -0.30033869 6
3.9319329 0.64528823 -0.20882049 3
4.4995055 0.73601627 -0.079582974 1
5.1831279 0.86735725 0.091729842 1
6.1918368 1.0328248 0.32898384 2
6.8671374 1.1417726 0.60904431 67
8.2117262 1.359442 1.0219964 1
8.1975803 1.3526909 1.3159269 1
8.2002821 1.3487267 1.6153891 1
8.1903572 1.3426906 1.9161333 2
8.5035334 1.3879404 2.308666 2
1.9970796 0.32059488 -0.54196709 12
2.168649 0.34697261 -0.50703973 10
2.3807986 0.37963715 -0.46862692 9
2.6434622 0.42010185 -0.42393744 9
2.9841955 0.47211742 -0.37097031 8
3.3870604 0.53403544 -0.29999006 6
3.9401803 0.61912942 -0.20902982 4
4.4531665 0.69655317 -0.078675449 6
5.1968098 0.83332568 0.091869473 1
6.1829453 0.9881357 0.32814649 2
6.8552637 1.090676 0.60730124 68
8.4423361 1.3386482 1.0495389 1
8.8738947 1.4023153 1.4229281 1
8.8747129 1.3960909 1.746284 1
8.890686 1.393834 2.0776479 2
8.8181772 1.3777363 2.3914881 2
1.997306 0.30670148 -0.54144943 12
2.176739 0.33308831 -0.50838941 11
2.3853314 0.36330351 -0.46900854 9
2.6365652 0.40015593 -0.42237309 7
2.98734 0.45179367 -0.37097031 8
3.3907063 0.51037461 -0.29999006 6
3.934531 0.5901255 -0.20850646 6
4.4795599 0.66947442 -0.0790594 4
5.1965709 0.79611641 0.091764756 3
6.2015395 0.94675201 0.32877451 4
6.8369231 1.0400895 0.60503519 71
9.1050625 1.3786396 1.1307039 1
9.1295805 1.3774627 1.4623495 1
9.1092157 1.3695128 1.7905518 1
9.1083469 1.3628806 2.1262376 2
9.0645113 1.3514652 2.4556754 2
2.0070443 0.29386967 -0.54352003 14
2.1674416 0.31619588 -0.50569004 10
2.3858669 0.34635988 -0.46862692 9
2.6412499 0.38202229 -0.42268598 9
2.9805975 0.42951143 -0.36975163 9
3.3941865 0.48669222 -0.29999006 8
3.9266918 0.56094819 -0.20787844 6
4.480165 0.6376214 -0.078989588 4
5.1822152 0.75692791 0.091415711 3
6.2020688 0.90257412 0.32846051 2
6.8361306 0.99119312 0.60433793 71
9.0948172 1.3122058 1.1282665 1
9.3814306 1.3485403 1.5011454 1
9.3712006 1.3420624 1.8401619 1
9.3337154 1.33005 2.1766267 2
9.3606253 1.3288844 2.5333209 2
2.0033069 0.27905115 -0.54196709 12
2.1695962 0.30105656 -0.50569004 11
2.3940611 0.33050036 -0.46977177 9
2.6360247 0.36249715 -0.42143452 9
2.9697561 0.40680659 -0.36804545 8
3.3974206 0.46357742 -0.29999006 6
3.9285328 0.53325433 -0.20777377 4
4.4805441 0.60579467 -0.078919783 4
5.1834111 0.72018027 0.091345899 4
6.2121749 0.85980105 0.32866985 2
6.8389359 0.94289953 0.6039893 70
9.6072254 1.3177365 1.1906636 1
9.6841955 1.3231237 1.5480757 1
9.621563 1.309435 1.8874826 1
9.6090431 1.3026073 2.238713 2
9.4692297 1.2769231 2.5602381 2
2.0205278 0.26708388 -0.54610825 12
2.1735771 0.28615692 -0.50613987 10
2.3845756 0.31266537 -0.46748206 8
2.6541009 0.34659213 -0.42393744 6
2.9764612 0.38657379 -0.36853293 8
3.408478 0.44086829 -0.30068728 6
3.9320719 0.50649935 -0.20777377 4
4.4767299 0.57348341 -0.078780167 4
5.1921582 0.68540716 0.091415711 3
6.1921401 0.81411463 0.3273091 2
6.8334985 0.89358181 0.60294342 71
nan nan nan nan
9.8888741 1.2825869 1.5793626 1
9.8563347 1.271371 1.9317504 1
9.8111877 1.2603256 2.2837033 2
9.4700375 1.2114624 2.5581677 2
2.0050471 0.25116429 -0.54144943 14
2.1696732 0.27063265 -0.50479025 9
2.3750107 0.29456049 -0.46519238 8
2.6623373 0.32878089 -0.42487606 6
2.9869041 0.36727512 -0.36950788 8
3.3996069 0.41561291 -0.29964143 5
3.9513729 0.48096848 -0.20861115 4
4.4765596 0.54251683 -0.078710355 4
5.1928482 0.64864409 0.091345899 3
6.1897454 0.76987642 0.32689041 4
6.8156953 0.84410822 0.60085171 74
nan nan nan nan
10.093656 1.2375628 1.6106495 1
10.157078 1.2399414 1.9889932 1
10.086714 1.2242008 2.3457897 2
9.4782639 1.1453196 2.5581677 2
1.9990776 0.23625337 -0.53937894 12
2.1850574 0.25707278 -0.50793952 7
2.3965085 0.28025407 -0.46900854 9
2.6567192 0.30927387 -0.4236246 7
2.9913676 0.3466436 -0.36975163 9
3.4024255 0.39186904 -0.29964143 6
3.9546342 0.45337096 -0.20861115 4
4.480238 0.51125133 -0.078710355 4
5.20718 0.61354536 0.091520421 1
6.2009206 0.72734314 0.32720444 2
6.8055906 0.79465652 0.5994572 71
nan nan nan nan
nan nan nan nan
10.403436 1.1963599 2.0355504 1
10.064036 1.150212 2.3385913 2
9.4246063 1.0721334 2.5416031 2
2.0083585 0.22314379 -0.54144943 12
2.1693664 0.23988323 -0.5038904 9
2.3964553 0.26330206 -0.46862692 8
2.6509588 0.28986007 -0.42237309 7
3.0055554 0.3270399 -0.37121406 9
3.3970907 0.36784238 -0.29894418 6
3.9537313 0.42532411 -0.2084018 6
4.4797211 0.47953516 -0.078640543 6
5.1994109 0.57585919 0.091310993 1
6.1998911 0.68338132 0.32689041 2
6.799089 0.74582493 0.59841132 74
nan nan nan nan
10.797301 1.1710556 1.7201536 1
nan nan nan nan
10.09876 1.084595 2.3448901 2
5.2230606 0.55726266 1.4074581 21
2.0117888 0.20931825 -0.54196709 12
2.1671114 0.22433208 -0.5029906 10
2.4040506 0.24758711 -0.46977177 8
2.6626959 0.27281553 -0.42393744 9
2.9899912 0.30423918 -0.3690204 8
3.4114695 0.34532118 -0.29999006 5
3.9565349 0.39840198 -0.2084018 3
4.4829593 0.44825128 -0.078640543 4
5.2091775 0.54107183 0.091415711 1
6.1666522 0.63726038 0.32490164 2
6.79422 0.69732308 0.59753978 68
5.3853474 0.5498746 0.66467547 7
5.3730326 0.54577494 0.85538375 39
nan nan nan nan
nan nan nan nan
5.2248106 0.52150559 1.4069405 81
2.0208578 0.19636688 -0.54403764 12
2.1705279 0.20976326 -0.5034405 10
2.3998578 0.23023519 -0.46862692 8
2.662569 0.25403216 -0.4236246 9
2.9920423 0.28335771 -0.3690204 8
3.4336333 0.32336429 -0.30173317 5
3.9353573 0.36853582 -0.20714574 3
4.4740334 0.41583094 -0.078431122 3
5.2008853 0.50353795 0.091206275 4
5.4671764 0.52643055 0.28784779 50
5.4382544 0.52076948 0.47796208 49
nan nan nan nan
5.3708124 0.50769049 0.85444516 76
5.3108387 0.49828354 1.0368562 78
5.2582512 0.49057248 1.2192347 84
5.2244768 0.48466241 1.4059051 86
2.0048947 0.18034329 -0.53937894 12
2.1797373 0.19492023 -0.50524008 10
2.3857622 0.2120847 -0.46557397 8
2.6643188 0.23497273 -0.4236246 9
3.0018575 0.26315728 -0.36999539 8
3.4119887 0.29731128 -0.29964143 5
3.9657514 0.34277344 -0.20861115 1
4.4648733 0.38355923 -0.078221686 3
5.2202077 0.46864709 0.091485515 3
5.4688144 0.48711497 0.28774312 54
5.4378729 0.48148945 0.47761348 44
5.3826127 0.4737564 0.66345674 55
5.3388848 0.46615458 0.84881347 60
5.3141875 0.46119478 1.0368562 67
5.2498994 0.4528462 1.2165354 80
5.1796913 0.4431476 1.3929642 74
2.0061049 0.16634305 -0.53937894 12
2.1888139 0.18033916 -0.50703973 10
2.4048293 0.19644572 -0.46900854 8
2.6580186 0.21572737 -0.42237309 9
2.9996641 0.24187483 -0.36950788 6
3.4060843 0.27225304 -0.29894418 6
3.9760115 0.3157132 -0.20902982 3
4.4714284 0.35269576 -0.078291491 4
5.1955271 0.42897651 0.090996847 4
5.4621286 0.44810972 0.28721976 43
5.4252148 0.44222185 0.47621897 33
5.3819075 0.43490741 0.66296923 56
5.3439784 0.42902634 0.8491264 63
5.3035784 0.4229883 1.0341848 72
5.2568908 0.41557431 1.2174351 82
5.190362 0.40758064 1.3950348 81
2.005291 0.15218659 -0.53886127 12
2.1803033 0.16432065 -0.50479025 9
2.4041843 0.17950703 -0.46862692 8
2.64961 0.19643541 -0.42080876 7
3.0171175 0.22209319 -0.37145779 8
3.4198248 0.24933675 -0.29999006 6
3.9581983 0.28650582 -0.20798311 1
4.4817605 0.32204404 -0.078431122 4
5.1864309 0.39179063 0.090787418 4
5.4651241 0.40996593 0.28721976 43
5.4003534 0.40226394 0.47377861 12
5.3749142 0.39659619 0.66175061 61
5.3409333 0.3912774 0.8481878 67
5.2966118 0.38524252 1.0322767 78
5.2538323 0.3784416 1.2160854 85
5.1892271 0.37105712 1.3939995 91
2.0140138 0.13871427 -0.54093182 12
2.1716764 0.14843084 -0.50254071 10
2.4034204 0.16258465 -0.46824533 9
2.6509168 0.17793286 -0.42080876 7
3.0067103 0.20023289 -0.36999539 8
3.4135301 0.22493179 -0.29929283 5
3.9561162 0.25860482 -0.20777377 1
4.4759169 0.29023001 -0.078291491 4
5.2010098 0.35639569 0.090996847 3
5.4539046 0.37085369 0.28648707 54
5.4348364 0.36669856 0.4765676 49
5.3696294 0.35853353 0.66077566 60
5.3395925 0.35371998 0.84756202 66
5.3030901 0.34851328 1.0330399 75
5.2368999 0.34049186 1.2115865 85
5.1878357 0.33457425 1.3929642 79
2.0226457 0.12512755 -0.54300237 10
2.1765499 0.13350467 -0.5034405 10
2.3946984 0.14520748 -0.46633717 9
2.6639254 0.1601328 -0.42268598 7
3.0040715 0.17900106 -0.36950788 6
3.4388847 0.20250082 -0.30138457 5
3.9658005 0.23144507 -0.20819245 1
4.4698491 0.2585133 -0.078151874 4
5.2073631 0.32032269 0.091066658 3
5.4384184 0.33167762 0.28554502 52
5.4173765 0.32754749 0.47482449 50
5.354167 0.31997195 0.65858197 62
5.3261571 0.31549954 0.8450591 64
5.2955947 0.31090692 1.0311319 79
5.2255316 0.30313316 1.2084371 84
5.1842589 0.29801559 1.3914113 21
2.0176833 0.11068729 -0.54144943 12
2.1871581 0.11883591 -0.50569004 9
2.3936932 0.12838066 -0.46595559 9
2.6689236 0.14174071 -0.42331171 7
3.0052481 0.15802433 -0.36950788 8
3.416307 0.17784539 -0.29929283 5
3.9693146 0.20385538 -0.20829713 1
4.4635563 0.22689548 -0.078012258 4
5.2294397 0.28504652 0.091415711 3
5.4326243 0.29326898 0.28512633 64
5.3996353 0.28865293 0.47308138 24
nan nan nan nan
nan nan nan nan
nan nan nan nan
nan nan nan nan
nan nan nan nan
2.0145473 0.096413799 -0.54041415 12
2.1879344 0.10356378 -0.50569004 9
2.4082396 0.11272803 -0.46862692 9
2.6579874 0.12302262 -0.42143452 6
3.0142105 0.13740291 -0.37048283 8
3.4174652 0.15399235 -0.29929283 5
3.9845767 0.17745624 -0.20902982 3
4.469027 0.19590361 -0.078082062 4
5.2272635 0.24925615 0.091345899 4
5.4324989 0.25619191 0.28502163 57
nan nan nan nan
nan nan nan nan
nan nan nan nan
nan nan nan nan
7.8847046 0.34839019 1.8221036 2
7.7933927 0.3402673 2.0902226 3
2.0170872 0.082778156 -0.54093182 12
2.1885886 0.08866854 -0.50569004 9
2.4070063 0.095833354 -0.46824533 9
2.6508856 0.10415316 -0.42018303 7
3.0309446 0.11749634 -0.37243277 6
3.4144747 0.12997861 -0.29894418 5
3.9637642 0.14880823 -0.20787844 1
4.4862437 0.16607112 -0.078361303 4
5.216888 0.2122691 0.091136463 4
5.4341555 0.21825966 0.28502163 57
nan nan nan nan
8.0315523 0.31275544 0.98689806 1
8.0062237 0.30757102 1.2689966 1
7.921936 0.30017933 1.5409735 1
7.8518915 0.29203239 1.8140054 2
7.7762728 0.28514296 2.0850463 3
2.0137546 0.068562753 -0.53989661 12
2.1852591 0.073256575 -0.50479025 9
2.4017301 0.078834869 -0.46710047 8
2.6633945 0.086027853 -0.42206025 7
3.0118501 0.095704474 -0.36999539 8
3.4352133 0.10675515 -0.30068728 5
3.9647064 0.12113231 -0.20787844 1
4.4633083 0.13402693 -0.077942446 4
5.2102489 0.17557381 0.090996847 3
5.4235697 0.1799169 0.28439364 59
nan nan nan nan
8.0057621 0.25578949 0.9834857 1
7.9489422 0.24980809 1.2596104 1
7.8728185 0.2432898 1.5310514 2
nan nan nan nan
7.6989026 0.22850133 2.0638232 9
2.0277021 0.054868214 -0.54352003 12
2.1876652 0.058050495 -0.50524008 10
2.3924088 0.061812177 -0.46519238 8
2.6718292 0.067631699 -0.42331171 7
3.0164139 0.074773848 -0.37048283 8
3.4358749 0.082771882 -0.30068728 4
3.9614623 0.093358271 -0.20766909 1
4.4601369 0.10277389 -0.077872641 4
5.2393336 0.13994263 0.091485515 3
5.412714 0.14173774 0.28376558 57
nan nan nan nan
7.9557571 0.19860449 0.97714853 2
7.9228458 0.19362846 1.2552303 1
7.8625488 0.18803586 1.5287617 2
nan nan nan nan
7.7061048 0.17487878 2.065376 6
2.0222414 0.040594529 -0.54196709 12
2.1899657 0.042814389 -0.50569004 10
2.3927822 0.045108508 -0.46519238 9
2.664336 0.048832372 -0.42206025 7
3.0168622 0.053713486 -0.37048283 8
3.4284008 0.05864663 -0.29999006 4
3.9899752 0.066163376 -0.2091345 1
4.4567466 0.071569547 -0.077802829 4
5.2321854 0.10320404 0.091345899 3
5.4075813 0.1038314 0.28345159 54
nan nan nan nan
7.996645 0.14377168 0.9820233 3
7.93783 0.13855694 1.2574203 3
7.9048929 0.13384207 1.5367758 3
7.8192644 0.12693217 1.8054572 6
7.7399745 0.12158793 2.0741758 9
2.0207162 -0.0017634078 -0.54144943 12
2.1786895 -0.0030420262 -0.5029906 9
2.4010549 -0.0050287643 -0.46671882 9
2.668725 -0.0069867205 -0.42268598 7
3.0292358 -0.0095166564 -0.37194526 4
3.4527855 -0.013257809 -0.30208179 4
3.9685159 -0.017316027 -0.20798311 3
4.4812646 -0.021899763 -0.078221686 4
5.2571955 -0.0064228796 0.091764756 4
5.3965855 -0.0094188275 0.28282353 54
nan nan nan nan
7.9859915 -0.023694985 0.98056084 3
7.9330654 -0.027691733 1.2564818 3
7.8804402 -0.031634282 1.5318148 1
7.8182588 -0.03684295 1.8050073 2
9.3113976 -0.048754808 2.4950156 2
2.0341773 -0.015976718 -0.54507297 12
2.1825125 -0.0182846 -0.5038904 9
2.4029245 -0.021808848 -0.46710047 9
2.6646607 -0.025579695 -0.42206025 6
3.0092456 -0.03046336 -0.36950788 8
3.4526088 -0.037362281 -0.30208179 4
3.9802811 -0.045156796 -0.20861115 3
4.4690046 -0.053041708 -0.078012258 3
5.2570229 -0.043124575 0.091764756 4
5.3844056 -0.046988994 0.28219551 52
nan nan nan nan
9.8157959 -0.097654454 1.2052879 1
9.7736292 -0.10235293 1.5480757 1
9.6900387 -0.10655183 1.8836665 1
10.354897 -0.12109263 2.39078 2
9.6971722 -0.11847921 2.5985434 2
2.012768 -0.029862205 -0.53937894 12
2.1959713 -0.03373035 -0.50703973 9
2.4027138 -0.038583759 -0.46710047 9
2.6723175 -0.044312764 -0.42331171 7
3.0168991 -0.051606752 -0.37048283 8
3.4243751 -0.060968388 -0.29964143 4
3.9678874 -0.072723471 -0.20798311 4
4.4605284 -0.084088936 -0.077872641 4
5.260592 -0.079884879 0.09183456 4
5.3839464 -0.084577784 0.28219551 54
nan nan nan nan
9.7950277 -0.16584267 1.2028506 1
9.7726765 -0.1705827 1.5480757 1
9.6615772 -0.17370383 1.8783239 1
nan nan nan nan
9.6961088 -0.18617481 2.5985434 2
2.0047848 -0.04374456 -0.53730839 12
2.2015271 -0.049190763 -0.50838941 10
2.4102368 -0.055537689 -0.46862692 9
2.660094 -0.062688597 -0.42143452 7
3.0244033 -0.07285849 -0.37145779 8
3.4198825 -0.084774613 -0.29929283 4
3.9892461 -0.1009785 -0.2091345 1
4.4838204 -0.11584676 -0.078291491 4
5.2559085 -0.11651987 0.091764756 4
5.3852215 -0.12220776 0.28230017 57
nan nan nan nan
9.7777538 -0.23384055 1.2009006 1
9.7712479 -0.23880415 1.5480757 1
9.6601286 -0.24114959 1.8783239 1
nan nan nan nan
7.7826943 -0.20379704 2.0860815 3
2.0237412 -0.058295678 -0.54248476 12
2.1913903 -0.064273342 -0.50613987 9
2.4058654 -0.072244972 -0.46786368 9
2.6556425 -0.081137225 -0.42080876 7
3.0198526 -0.093847536 -0.37097031 8
3.4391208 -0.1092804 -0.30103594 4
3.9744699 -0.12837464 -0.2084018 1
4.4789057 -0.14701548 -0.078221686 3
5.2549667 -0.15320988 0.091764756 3
5.3842368 -0.15980041 0.28230017 59
nan nan nan nan
9.732233 -0.30074698 1.1955384 1
9.7219553 -0.30552474 1.5405668 1
9.5797195 -0.30607578 1.8630592 1
nan nan nan nan
7.7579122 -0.25735646 2.07987 3
2.0194235 -0.072284311 -0.54144943 12
2.1850462 -0.079358257 -0.50479025 10
2.4131501 -0.089329675 -0.46939012 9
2.6589594 -0.099823184 -0.42143452 7
3.019124 -0.11492763 -0.37097031 8
3.4263289 -0.13282408 -0.29999006 4
3.9694855 -0.15596151 -0.20819245 3
4.4857626 -0.17859849 -0.078361303 4
5.2577653 -0.19003689 0.09183456 3
5.365027 -0.19672661 0.28135812 56
nan nan nan nan
9.6902218 -0.36717957 1.1906636 1
nan nan nan nan
nan nan nan nan
nan nan nan nan
7.7482061 -0.31120011 2.0777996 3
2.0285201 -0.086793564 -0.54403764 12
2.1883326 -0.09477935 -0.50569004 10
2.4046223 -0.10582906 -0.46786368 9
2.673985 -0.11908673 -0.42393744 7
3.0103159 -0.13564469 -0.36999539 8
3.4372873 -0.15668745 -0.30103594 2
3.9842608 -0.18440846 -0.20902982 4
4.4844065 -0.20991041 -0.078361303 3
5.2523155 -0.22656576 0.091764756 3
5.361527 -0.23408931 0.28125346 59
nan nan nan nan
nan nan nan nan
nan nan nan nan
nan nan nan nan
nan nan nan nan
7.7574224 -0.36583078 2.0809052 3
2.0182176 -0.10047282 -0.54144943 12
2.1934564 -0.1103481 -0.50703973 10
2.3999248 -0.12199488 -0.46710047 9
2.67114 -0.13718376 -0.4236246 9
3.0092955 -0.15665717 -0.36999539 6
3.4321303 -0.18047099 -0.30068728 2
3.9729414 -0.21099439 -0.20850646 4
4.466857 -0.24035254 -0.078082062 3
5.2506518 -0.26231161 0.091764756 3
5.3598094 -0.27057835 0.28125346 57
nan nan nan nan
nan nan nan nan
nan nan nan nan
nan nan nan nan
5.2112856 -0.27858445 1.2048379 1
7.7624688 -0.41904151 2.0829759 3
2.0136292 -0.11398958 -0.54041415 12
2.1887634 -0.12505348 -0.50613987 10
2.4009745 -0.13885976 -0.46748206 9
2.6582849 -0.15513781 -0.42174736 9
3.0160859 -0.17760378 -0.37097031 8
3.4307866 -0.20442718 -0.30068728 4
3.9733651 -0.23884521 -0.20861115 3
4.4850783 -0.27196208 -0.078431122 3
5.244699 -0.29873392 0.091694944 3
5.3617783 -0.30821925 0.28146279 57
nan nan nan nan
nan nan nan nan
nan nan nan nan
nan nan nan nan
5.2325559 -0.31637031 1.2102367 1
7.7053633 -0.46993035 2.0684819 3
2.0147123 -0.12816712 -0.54093182 12
2.1897817 -0.1404555 -0.50658983 10
2.4038651 -0.15587229 -0.46824533 9
2.6591084 -0.17382108 -0.42206025 7
3.0147727 -0.19865555 -0.37097031 8
3.4252999 -0.22810864 -0.30033869 4
3.9656227 -0.26617721 -0.20829713 4
4.4710994 -0.30245709 -0.078221686 4
5.2345037 -0.33483067 0.091555327 4
5.3594961 -0.34564373 0.28146279 63
nan nan nan nan
nan nan nan nan
nan nan nan nan
14.61334 -0.97574055 2.8468704 3
5.2068882 -0.35131821 1.2048379 1
7.7288785 -0.52554685 2.0757289 3
2.0176227 -0.14250146 -0.54196709 12
2.1809726 -0.15518627 -0.50479025 10
2.4144673 -0.17349476 -0.47053501 9
2.6617703 -0.19266598 -0.42268598 9
3.0132737 -0.2202235 -0.37097031 8
3.423624 -0.25201601 -0.30033869 4
3.9676514 -0.2941511 -0.20850646 6
4.4807854 -0.33533904 -0.078431122 3
5.2280488 -0.37108275 0.091485515 4
5.3430071 -0.38205415 0.2807301 64
nan nan nan nan
nan nan nan nan
nan nan nan nan
5.2158628 -0.38577488 1.0166303 1
5.2043085 -0.38766024 1.2048379 1
7.7442851 -0.58093643 2.0809052 3
2.0204034 -0.15723525 -0.54300237 11
2.1856344 -0.17124553 -0.50613987 10
2.4092829 -0.19003777 -0.46977177 9
2.6741076 -0.21280503 -0.42487606 9
3.011663 -0.24125461 -0.37097031 9
3.4416406 -0.27751243 -0.30208179 4
3.9694262 -0.32285908 -0.20871581 6
4.4584045 -0.36498079 -0.078082062 3
5.2333055 -0.40819409 0.091625139 3
5.3321719 -0.41965103 0.28031141 64
nan nan nan nan
nan nan nan nan
nan nan nan nan
5.2130427 -0.42217878 1.0166303 1
5.1820521 -0.42240024 1.200339 1
7.7245269 -0.63507175 2.0767641 3
2.0134816 -0.17084639 -0.54144943 12
2.1882691 -0.18683141 -0.50703973 10
2.3980813 -0.20643136 -0.46786368 8
2.6666527 -0.23095715 -0.42393744 7
3.0257261 -0.26365253 -0.37292022 6
3.4356499 -0.30118462 -0.30173317 4
3.9790123 -0.35161763 -0.20934384 7
4.4676986 -0.39715958 -0.078291491 3
5.2262659 -0.44529256 0.091555327 4
5.3350821 -0.45737788 0.28062543 63
nan nan nan nan
nan nan nan nan
nan nan nan nan
5.2099681 -0.45856205 1.0166303 1
5.1343307 -0.45461404 1.1899912 1
7.6968141 -0.68692231 2.0705523 3
2.0045447 -0.18419181 -0.53937894 9
2.1888518 -0.20228302 -0.50748962 10
2.4044399 -0.2234764 -0.46939012 8
2.6630521 -0.24891914 -0.4236246 9
3.0198591 -0.28439721 -0.37243277 8
3.4374304 -0.32553816 -0.30208179 4
3.9685738 -0.37793621 -0.20892516 6
4.4727798 -0.429104 -0.078431122 3
5.2310786 -0.48158926 0.091694944 4
5.3358226 -0.49405 0.28083476 63
nan nan nan nan
nan nan nan nan
14.840283 -1.4002066 2.3609092 2
5.198822 -0.49417993 1.0151039 1
5.1543102 -0.49267209 1.19539 13
7.7111902 -0.7411449 2.0757289 3
2.0205469 -0.19954063 -0.54403764 12
2.1796675 -0.21640716 -0.50569004 10
2.4028211 -0.24025699 -0.46939012 7
2.6632149 -0.26770207 -0.42393744 7
3.0218034 -0.30534515 -0.37292022 6
3.4430027 -0.35033461 -0.30277905 4
3.9578912 -0.40481973 -0.20850646 8
4.4737334 -0.45994803 -0.078500926 3
5.2116694 -0.51651931 0.091415711 4
