# .PCD v0.7 - Point Cloud Data file format
VERSION 0.7
FIELDS x y z intensity
SIZE 4 4 4 4
TYPE F F F F
COUNT 1 1 1 1
WIDTH 1427
HEIGHT 1
VIEWPOINT 0 0 0 1 0 0 0
POINTS 1427
DATA ascii
3.5952878 13.832213 0.24946471 39
3.1002307 11.901973 0.64456969 5
3.5955753 13.774063 1.2454555 15
7.870194 30.06354 3.8157294 24
7.8829274 30.047956 4.9201775 27
7.8951135 30.030342 6.0356708 24
7.9067364 29.989401 7.1601925 18
7.9129949 29.949522 8.3003263 18
0.68426281 2.5626514 -0.71071708 31
0.76010305 2.8407147 -0.67890233 15
0.84306407 3.1419713 -0.63234103 28
0.94327807 3.5081143 -0.57536602 31
1.0928215 4.0558066 -0.51575112 16
1.3065196 4.8354688 -0.43821907 5
1.6499699 6.0939164 -0.33086795 2
2.2903333 8.4414797 -0.15267365 3
3.6948667 13.818369 0.24967413 30
3.1884158 11.89933 0.64561641 5
3.7066324 13.804428 1.2505106 18
8.0943518 30.061529 3.8225541 36
8.1059046 30.041775 4.9283118 27
8.1122732 30.002914 6.0413947 24
8.1230488 29.959803 7.166491 36
8.1289816 29.919653 8.3075743 18
0.70111519 2.5540855 -0.70968187 28
0.76906401 2.7958806 -0.6694544 22
0.85610294 3.1038358 -0.62585354 31
0.95932484 3.4709802 -0.57036012 23
1.1248165 4.0614705 -0.51745731 16
1.3311831 4.7935944 -0.4352558 5
1.6764104 6.0245237 -0.32772776 2
2.3008726 8.2519255 -0.14953223 3
3.810858 13.863579 0.25096563 31
3.260273 11.836346 0.64341831 14
3.7838316 13.709074 1.2442354 18
8.3135405 30.038731 3.8269415 24
8.3170071 29.99017 4.9292507 13
8.3309822 29.979601 6.048264 49
8.3634081 30.014992 7.1934853 18
8.3465071 29.893797 8.3163738 18
0.71324229 2.5306606 -0.70450544 24
0.79972756 2.83184 -0.67935222 13
0.87560707 3.0922689 -0.62470871 28
0.97592121 3.4396646 -0.56629282 24
1.1432099 4.0212598 -0.51331371 16
1.3430266 4.7116113 -0.42863193 7
1.7195734 6.0206552 -0.32814649 2
2.3261781 8.1284113 -0.14757755 6
3.3424435 11.843514 0.21480422 16
3.362504 11.890756 0.64760518 11
3.86185 13.629326 1.2393546 18
8.5319052 30.031099 3.8332787 24
8.5344572 29.980362 4.9370723 28
8.5423794 29.948635 6.0536065 24
10.933229 38.229424 9.1798029 36
8.5551023 29.85487 8.3215504 18
0.72767013 2.5144851 -0.70139962 33
0.81025207 2.7943697 -0.67170388 28
0.89717233 3.086081 -0.62470871 33
0.9999091 3.4327681 -0.56629282 31
1.1606869 3.9769747 -0.50868267 18
1.371411 4.6868234 -0.42723745 14
1.7256019 5.8858418 -0.32144746 2
2.3490529 7.9968553 -0.14548326 3
3.4528787 11.915924 0.21654947 20
3.5016809 12.060715 0.65817702 9
3.9546809 13.59438 1.2386574 18
8.742466 29.974613 3.8337662 24
8.7518778 29.948486 4.9417653 28
8.7622995 29.925945 6.0612388 25
11.307439 38.51865 9.2679834 37
8.7589598 29.779589 8.3174095 18
0.74300814 2.5019357 -0.69932908 29
0.81473672 2.7382138 -0.65955657 23
0.9170118 3.0740986 -0.62356383 32
1.0312036 3.4503081 -0.57036012 22
1.1810204 3.9440529 -0.50551409 21
1.4061418 4.6869216 -0.42810899 21
1.7442151 5.7990589 -0.31736526 8
2.4186714 8.0262127 -0.14632098 12
4.1298666 13.888783 0.25292027 21
3.5321846 11.856048 0.6483379 8
4.0614519 13.606535 1.2423179 13
8.9606342 29.943272 3.837666 12
8.9732246 29.928284 4.9486485 14
8.9828691 29.90353 6.0692525 37
11.673828 38.787876 9.3516655 38
8.9794827 29.760254 8.3293152 55
0.76214427 2.5022318 -0.70088202 28
0.84065723 2.7548261 -0.66495538 20
0.93561935 3.0602756 -0.62203735 27
1.039625 3.3941007 -0.56222552 22
1.2061974 3.9281206 -0.50453913 19
1.430043 4.6484256 -0.42549434 23
1.7642347 5.7240667 -0.31391108 10
2.3725159 7.6786022 -0.14028244 9
3.5941029 11.792584 0.21518818 30
3.575475 11.709478 0.64163888 2
3.7177911 12.145194 1.1112357 2
9.1770363 29.923342 3.8430283 12
9.1865816 29.898615 4.9539671 28
9.2023973 29.875736 6.0765033 37
9.2332115 29.920084 7.2290277 74
9.1943998 29.739046 8.340703 55
0.76937616 2.4656355 -0.69208211 31
0.85415632 2.7323003 -0.66090626 18
0.95520002 3.048049 -0.62089252 33
1.0621101 3.3829913 -0.56159979 28
1.2376703 3.9349687 -0.50648904 16
1.4474821 4.5908237 -0.42113656 21
1.788512 5.6620932 -0.31118962 2
2.4361944 7.6984978 -0.14094563 18
3.6721685 11.753844 0.21494384 28
3.6881642 11.783345 0.64708179 8
3.6769798 11.726073 1.0751532 14
9.3904781 29.873695 3.8449781 36
9.4057713 29.86767 4.959599 28
9.4161615 29.846115 6.0833726 37
12.434008 39.316013 9.5199299 40
9.4181166 29.7257 8.355197 55
0.7842164 2.4528444 -0.69001162 39
0.85953742 2.6835861 -0.65055853 11
0.9656533 3.0076592 -0.61402339 25
1.0723952 3.3341231 -0.55471671 28
1.246847 3.8695495 -0.49917686 19
1.4850062 4.5976715 -0.42270535 19
1.7990962 5.5601583 -0.30627003 10
2.4269826 7.4872742 -0.13738534 11
3.8449719 12.011692 0.22014466 21
3.7989964 11.846699 0.65200138 14
3.7477787 11.665974 1.0720155 18
9.6109915 29.845194 3.849853 73
9.6340857 29.863314 4.9699235 14
9.6388006 29.824478 6.0925317 50
12.805475 39.528576 9.5928135 41
9.6331654 29.683115 8.3619261 56
0.79951912 2.4418013 -0.68845868 27
0.86974955 2.6515961 -0.64425987 39
0.98662573 3.0008447 -0.61402339 36
1.0931722 3.3190503 -0.55346519 30
1.2713432 3.8532102 -0.49820194 16
1.5070583 4.5569258 -0.41991636 19
1.8341007 5.536087 -0.30564201 7
2.4571488 7.4037213 -0.13616368 23
3.9349649 12.003559 0.2204937 27
3.8654077 11.770553 0.64927989 14
3.8490551 11.700089 1.0775936 16
9.8315353 29.815079 3.8547275 61
9.8522348 29.82534 4.9749293 28
9.8591013 29.793743 6.1001639 25
13.106911 39.515896 9.6117086 42
9.8554001 29.660965 8.3748674 56
0.81838846 2.4416554 -0.69001162 34
0.88017637 2.6214433 -0.6384111 30
1.0050482 2.9864402 -0.61249691 25
1.1131632 3.3019776 -0.55190086 35
1.2880505 3.8141484 -0.49430209 19
1.5350021 4.5349703 -0.41887048 19
1.851541 5.4607286 -0.30218783 2
2.481123 7.3049684 -0.13466278 17
4.0148468 11.964421 0.22028428 27
3.9169354 11.652411 0.6442557 8
3.903939 11.593627 1.0702726 18
10.048331 29.772049 3.85814 73
10.071604 29.789516 4.9805613 28
10.080715 29.765095 6.1085591 38
13.38871 39.441891 9.6162081 42
10.086473 29.662777 8.3950548 19
0.83729345 2.441365 -0.6915645 28
0.90542078 2.6355078 -0.64336008 28
1.0118111 2.9385126 -0.6041013 22
1.1452057 3.3202701 -0.55628103 28
1.304275 3.775043 -0.49040228 25
1.5451107 4.4620142 -0.41311821 15
1.8778375 5.4137039 -0.30030376 2
2.5149965 7.2383566 -0.13375525 17
4.0937309 11.922862 0.22003995 44
4.0209246 11.690884 0.64791918 20
3.9997036 11.609418 1.0742816 18
10.271483 29.746204 3.8639896 61
10.290951 29.752081 4.9861927 14
10.30498 29.742226 6.1184816 38
10.326115 29.736103 7.2672687 18
10.31743 29.660971 8.4147253 19
0.84792244 2.4172306 -0.68638813 34
0.92831886 2.641993 -0.64650935 24
1.0368659 2.9443398 -0.6067726 28
1.1578437 3.2823882 -0.55127513 26
1.3352271 3.7789471 -0.49210843 18
1.5622572 4.4116783 -0.40945768 6
1.8968914 5.3477564 -0.29737294 2
2.502537 7.043498 -0.13047419 16
4.1795239 11.901536 0.22017956 40
4.1170306 11.703977 0.650222 17
4.1064839 11.654496 1.0810798 18
10.502022 29.73929 3.8725204 37
10.518156 29.735384 4.9955788 28
10.533337 29.728781 6.1306934 25
10.533461 29.663288 7.2672687 56
10.570865 29.719271 8.4519949 58
0.85695112 2.3894308 -0.68017644 30
0.95135272 2.6482856 -0.64965874 27
1.0534046 2.9259467 -0.60448295 28
1.1767087 3.2630758 -0.54939789 16
1.3568543 3.756465 -0.49040228 13
1.5868254 4.3859544 -0.40806317 18
1.9001391 5.2405014 -0.29213932 2
2.5175178 6.9318767 -0.12872896 16
4.2571049 11.857011 0.21990032 42
4.2074261 11.699382 0.65158272 23
4.1722174 11.582431 1.0770707 16
10.768718 29.829552 3.8939695 37
10.744315 29.71324 5.0043392 14
10.756018 29.696972 6.1394706 39
10.78298 29.722799 7.2996621 76
10.795235 29.691956 8.4654531 58
0.88092613 2.4033418 -0.68587047 39
0.963103 2.6232853 -0.64515966 22
1.0597461 2.8818557 -0.59685057 28
1.1818255 3.2086492 -0.54157621 19
1.3631117 3.6928947 -0.48333386 19
1.6008271 4.3299184 -0.4038797 18
1.9191204 5.1824951 -0.28962722 2
2.5101883 6.7641525 -0.12593657 16
4.3487253 11.8578 0.22045881 19
4.2931561 11.687346 0.65252477 23
4.3025279 11.687643 1.0896211 19
10.987292 29.798403 3.8995755 12
10.964097 29.687599 5.0124736 14
10.975345 29.654299 6.1463399 26
14.590407 39.358521 9.6908922 43
8.1082983 21.837545 6.2416801 8
0.89252335 2.3846252 -0.68224704 28
0.98093569 2.6166694 -0.64515966 40
1.0908849 2.9037929 -0.60295647 28
1.2125436 3.2225065 -0.54533058 22
1.3861167 3.6779583 -0.48260266 19
1.6296084 4.314909 -0.40353107 22
1.9453613 5.142817 -0.28816178 2
2.5760131 6.7992678 -0.12691391 16
4.4489484 11.873963 0.22133142 31
4.3514929 11.59538 0.64907056 23
4.3385267 11.542454 1.0788138 22
11.199255 29.732119 3.9010382 75
11.18852 29.656538 5.0202956 29
11.197052 29.632166 6.1574063 13
4.2006536 11.093291 2.7385542 6
8.0968142 21.348705 6.1179647 24
0.90639025 2.3711181 -0.68017644 34
0.99221176 2.5915582 -0.64066064 39
1.1111307 2.8961062 -0.60295647 22
1.221549 3.1789286 -0.53938609 24
1.4017779 3.6422548 -0.47919029 23
1.6639923 4.3145819 -0.40457696 22
1.9488306 5.0452724 -0.28345159 11
2.5837317 6.6785445 -0.12499414 18
nan nan nan nan
4.4373355 11.577774 0.64980328 17
4.4368472 11.558388 1.0831715 18
11.429372 29.71249 3.9088376 75
11.413057 29.623783 5.0281172 14
11.429109 29.619211 6.171145 39
4.0924559 10.58385 2.6197803 22
8.0663595 20.828678 5.9849315 23
0.91940975 2.3557343 -0.67758828 48
0.99892867 2.5555282 -0.63346225 36
1.1241621 2.8699985 -0.59914029 27
1.237941 3.1556115 -0.53688318 17
1.4300752 3.6397703 -0.48016527 27
1.6889446 4.2920308 -0.40353107 18
1.9752139 5.0092478 -0.28219551 9
2.5627184 6.4892316 -0.12178289 18
nan nan nan nan
4.5537171 11.637652 0.65493226 8
4.6097579 11.762719 1.1053091 14
11.677145 29.735451 3.922487 12
11.640546 29.596697 5.0371904 14
4.3611002 11.071305 2.3129869 38
4.1601119 10.544872 2.6170807 40
8.0219555 20.29217 5.8467221 29
0.9258247 2.3241324 -0.67034137 25
1.0275772 2.5756421 -0.64021075 43
1.1240033 2.8130562 -0.58883661 26
1.266731 3.1654518 -0.54001182 17
1.4451073 3.6039031 -0.47675291 19
1.7047602 4.2450066 -0.40021914 14
1.9936143 4.9567738 -0.27999741 4
2.5765653 6.3932838 -0.12031689 26
3.8831508 9.7430868 0.18307576 3
4.6557741 11.663891 0.65817702 3
4.6185136 11.54711 1.0880523 19
13.95721 34.842602 4.6086116 15
4.4446959 11.078876 1.8906672 9
4.4470735 11.062448 2.3175662 12
4.132463 10.264297 2.5545444 40
4.1532693 10.300406 2.9759014 8
0.9510746 2.3410444 -0.67707068 42
1.0414118 2.5595634 -0.63796127 25
1.145097 2.8087766 -0.58959985 25
1.2813323 3.1382432 -0.53688318 17
1.4628429 3.5774465 -0.47455928 27
1.7003623 4.1500382 -0.39237517 27
2.0789695 5.066534 -0.2870104 11
2.625344 6.388545 -0.12056123 15
3.9224548 9.6453476 0.18174936 3
4.7446294 11.649598 0.65922379 3
4.74366 11.629786 1.0988595 19
8.8994703 21.77492 2.8883038 32
4.5391383 11.089625 1.8978633 13
4.2191973 10.292584 2.1622477 22
4.1869912 10.193737 2.5441966 46
4.2125845 10.240788 2.9671018 34
0.96739501 2.3343477 -0.67707068 73
1.0413285 2.509033 -0.62716359 32
1.1503538 2.7662718 -0.58234906 27
1.2933358 3.1055155 -0.53281587 17
1.4686773 3.5213439 -0.46846578 22
1.7139289 4.1012998 -0.38888893 23
2.0950131 5.0058365 -0.28439364 21
2.6536477 6.3313313 -0.11982822 13
4.1529007 10.011156 0.18918408 7
4.8940392 11.780344 0.66853952 12
4.862237 11.686521 1.1074008 17
8.9504576 21.470398 2.8561301 72
4.4589181 10.680325 1.8330992 16
4.3053389 10.297293 2.1694984 26
nan nan nan nan
4.275003 10.189754 2.9608901 6
0.97990906 2.3186393 -0.67448246 51
1.0550218 2.4927287 -0.62491405 33
1.1696379 2.7581735 -0.58234906 28
1.3149848 3.0964108 -0.53281587 17
1.5033267 3.5347519 -0.47163439 16
1.7401745 4.0837369 -0.38836598 22
2.1204998 4.9690456 -0.28313756 21
2.6632042 6.2317443 -0.11829241 17
4.2709894 10.096106 0.1913482 12
5.1421065 12.137608 0.6908347 21
4.9149084 11.584431 1.1009513 19
9.1187696 21.451233 2.86198 64
4.6455655 10.912477 1.8784653 15
4.4641261 10.47106 2.2126212 22
4.5662165 10.689832 2.6836662 24
4.059598 9.4900455 2.7657404 22
0.99683565 2.3135161 -0.67500007 43
1.0662209 2.4709888 -0.62131482 24
1.1841921 2.7391279 -0.58005941 30
1.3310776 3.0744648 -0.53062576 20
1.526388 3.5205278 -0.47114691 13
1.7869 4.1135192 -0.39237517 17
2.1240664 4.8826933 -0.27905536 23
2.6762991 6.1433339 -0.11696602 5
4.33741 10.056862 0.19117366 12
5.1190157 11.85205 0.67659932 6
5.0708036 11.723558 1.1175109 12
9.2982893 21.456268 2.871242 8
4.6484942 10.711258 1.8493685 37
4.3031373 9.9012747 2.0985174 13
4.4944715 10.321794 2.5990846 16
4.0693827 9.3322029 2.727953 18
1.0075251 2.2941191 -0.67137665 48
1.0920756 2.4831073 -0.6262638 21
1.202493 2.7289977 -0.57967776 26
1.3453302 3.0488327 -0.52780992 17
1.5380895 3.4807353 -0.4672471 22
1.8221145 4.1176577 -0.39394394 19
2.154057 4.8586154 -0.27853197 30
2.6858537 6.0495658 -0.11553493 10
4.2892189 9.7572336 0.18604267 12
5.1879539 11.784948 0.67481989 24
5.2272754 11.857417 1.1337218 6
4.7223239 10.691785 1.4351336 34
4.6927953 10.609896 1.8374794 13
4.4079351 9.9517689 2.1156902 15
4.5259042 10.203676 2.5770395 62
7.8428736 17.648527 5.1748285 15
1.02036 2.2799761 -0.6693061 31
1.1030085 2.4611962 -0.62266457 25
1.220237 2.7189584 -0.57929617 31
1.3223253 2.9423087 -0.51091504 36
1.5688722 3.4843931 -0.46919701 19
1.8418084 4.0848579 -0.39202651 23
2.1763921 4.820178 -0.27717125 28
2.7123628 5.9960504 -0.11487174 20
4.2640119 9.5234003 0.18213332 7
5.3603873 11.955299 0.68664783 9
5.3442121 11.896971 1.1410429 9
4.6988959 10.44577 1.4063724 29
4.7340813 10.509264 1.8255905 9
4.7373548 10.496956 2.2385712 24
4.6363592 10.258843 2.5990846 44
nan nan nan nan
1.0374579 2.2764938 -0.67034137 54
1.1092181 2.430584 -0.61681581 34
1.2383728 2.7085876 -0.57891452 35
1.3790159 3.012033 -0.52468127 22
1.5818001 3.4501741 -0.46602839 19
1.873729 4.0812793 -0.39289808 19
2.1932983 4.7685757 -0.27507779 28
2.7204852 5.9066148 -0.11351045 15
4.3461614 9.5279675 0.18279651 10
5.3864617 11.792232 0.67942542 18
5.5270066 12.083174 1.1624832 2
4.7344928 10.331503 1.3954041 34
4.677156 10.19229 1.776157 16
4.6865473 10.198666 2.1817102 26
4.3305359 9.4109392 2.3916798 22
nan nan nan nan
1.0484452 2.2586818 -0.66723549 49
1.1335524 2.4386857 -0.62086499 41
1.246011 2.6769571 -0.57395351 30
1.4011554 3.0061574 -0.525307 27
1.610046 3.4480414 -0.4672471 20
1.8861399 4.0338073 -0.38958618 21
2.2087679 4.7173595 -0.27298436 24
2.742975 5.8476481 -0.11274255 15
4.3578534 9.3839025 0.1805975 12
5.4800792 11.784271 0.68110019 9
4.9414768 10.60671 1.0237314 20
4.8248439 10.342213 1.4012538 34
4.6996093 10.059993 1.7586365 15
4.920742 10.514216 2.2565072 14
4.6541429 9.9310236 2.5320492 44
7.7573619 16.530153 4.8927155 13
1.0600592 2.2425749 -0.66464734 37
1.1597199 2.450088 -0.62581384 38
1.2693408 2.6768417 -0.57586157 41
1.4175471 2.9853475 -0.52342981 30
1.6408981 3.4510593 -0.46919701 13
1.9115297 4.0130124 -0.38888893 17
2.2433279 4.7032361 -0.27308905 20
2.6992695 5.6515212 -0.10932188 16
4.4240365 9.3506699 0.1805626 10
5.6839819 11.997446 0.69575429 12
5.0649409 10.676357 1.0338414 15
nan nan nan nan
4.7120466 9.9012518 1.7367356 13
3.6274884 7.6120262 1.6390493 5
4.7888961 10.03112 2.566242 20
4.4184842 9.2427826 2.7450349 40
1.0731761 2.2298973 -0.6630944 39
1.1717205 2.4313989 -0.62311447 30
1.2837287 2.6590755 -0.57395351 38
1.4228774 2.9433668 -0.51779813 26
1.6450565 3.3984246 -0.46359101 16
1.9125495 3.9439948 -0.38348526 18
2.2438288 4.6209841 -0.26921618 22
2.7194216 5.5929747 -0.10855397 9
4.4961505 9.3339691 0.18084183 14
5.8378849 12.103185 0.70423269 3
5.0154395 10.384182 1.0089148 5
4.9567389 10.244379 1.397354 16
5.0894041 10.504536 1.8487427 12
4.7260046 9.7414761 2.1046233 35
4.9133263 10.109615 2.5950356 28
4.4034395 9.0484247 2.6963768 11
1.0878689 2.2206156 -0.66257679 42
1.1783684 2.402164 -0.6177156 30
1.3048588 2.6553345 -0.57509834 25
1.4381584 2.9227266 -0.51592094 27
1.6696193 3.3886378 -0.46383476 19
1.9278893 3.9076579 -0.38121921 22
2.2751498 4.603416 -0.26911151 20
2.6528552 5.3605771 -0.1044003 9
4.5171814 9.2125807 0.17909659 12
5.0648823 10.315924 0.60228223 5
5.1176949 10.40971 1.0148414 3
nan nan nan nan
3.5646427 7.2283797 1.2765055 12
3.5543511 7.1980076 1.560436 23
4.5674334 9.2374401 2.3790824 30
4.4733624 9.0313129 2.7005181 13
1.1042061 2.2146959 -0.6630944 64
1.1829228 2.3694699 -0.611417 30
1.3185151 2.6376102 -0.57319027 33
1.4642103 2.9252341 -0.51811105 31
1.679001 3.348506 -0.45993495 19
1.9542309 3.8923221 -0.38104489 30
2.292078 4.5592713 -0.26743674 27
2.7684627 5.4973092 -0.10743701 16
4.4155517 8.8523626 0.1726741 14
5.1590838 10.329451 0.60510838 17
5.1813288 10.355909 1.0130984 13
5.2148786 10.409342 1.4295275 26
4.8218875 9.6123285 1.7032586 16
3.6503553 7.2642384 1.5802802 3
4.8350229 9.6091938 2.4834599 14
5.6977525 11.309044 3.3931179 10
1.1183819 2.205406 -0.66257679 70
1.199024 2.3613632 -0.611417 30
1.3315552 2.6178422 -0.57090056 29
1.4675617 2.8814971 -0.5121665 27
1.6981459 3.3299272 -0.45896 19
1.9668548 3.8501956 -0.3782559 22
2.3138471 4.5235987 -0.26628536 27
2.8039973 5.4747767 -0.10736721 14
4.4537182 8.7749557 0.17176658 13
5.1586819 10.150741 0.59673464 17
5.2336321 10.284884 1.0096121 5
nan nan nan nan
5.1663733 10.122099 1.7999352 9
3.7408147 7.3196383 1.5978346 24
3.6214302 7.0738568 1.8347008 14
4.9948959 9.744112 2.9339728 4
1.1195804 2.1700745 -0.65429455 39
1.2271085 2.3754423 -0.61726576 36
1.3353624 2.580584 -0.56479466 34
1.5040004 2.9027522 -0.51779813 20
1.7149525 3.3056557 -0.45725381 23
1.980822 3.8116207 -0.37581557 24
2.3389158 4.4949346 -0.26555267 13
2.8199723 5.4125071 -0.10652949 16
4.4093575 8.53932 0.16775253 13
5.2340026 10.123352 0.59725797 17
5.2173681 10.07824 0.9928782 5
5.031642 9.7028704 1.3420253 19
5.0239043 9.6755495 1.7267238 3
3.7746174 7.2602482 1.5905839 12
4.9822149 9.5666771 2.4902084 22
5.0083194 9.6045122 2.9023969 36
1.1266227 2.1468105 -0.64963585 31
1.2445675 2.3685431 -0.6177156 34
1.3515157 2.5677247 -0.56403142 34
1.5076524 2.8607252 -0.5121665 18
1.7324315 3.2830684 -0.45579138 26
1.9971422 3.7783237 -0.37389815 20
2.3627653 4.4643736 -0.26471528 13
2.8118095 5.3061085 -0.10481916 19
4.3544941 8.2905741 0.16345924 9
5.2050781 9.8974199 0.58605814 17
5.3265896 10.115614 1.0001993 52
3.5915196 6.8090448 0.94521874 28
5.0239825 9.5127316 1.7038844 1
3.7068174 7.0098367 1.5413551 7
3.6824484 6.9519973 1.816255 14
nan nan nan nan
1.1452212 2.14571 -0.6517064 31
1.2454586 2.3305786 -0.61006731 39
1.3592182 2.5391867 -0.55983365 24
1.5182542 2.8327198 -0.50903779 20
1.7524918 3.2656469 -0.45506018 22
2.0423381 3.799387 -0.37738436 16
2.3872509 4.4354577 -0.26398259 9
2.8174818 5.2282553 -0.10366729 18
4.392477 8.2229338 0.16272624 11
5.5453329 10.368059 0.61620361 8
3.715313 6.9377508 0.68853039 5
5.3411565 9.9570446 1.3873608 14
5.1444826 9.5783606 1.7220308 1
3.6877859 6.8575644 1.513497 43
3.711482 6.8900928 1.806807 19
5.2648125 9.7614908 2.9717603 2
1.1592517 2.1359646 -0.65118873 29
1.2551855 2.3098409 -0.60691798 34
1.3938065 2.560674 -0.56670272 31
1.530431 2.8081756 -0.50653487 26
1.7723951 3.2481048 -0.45432895 17
2.0344124 3.7220979 -0.37110916 15
2.3941855 4.3748837 -0.2613658 12
2.8769727 5.2505484 -0.10450501 20
4.0660768 7.4856739 0.1486945 14
5.5641432 10.230838 0.61034197 8
3.7588928 6.902895 0.68765879 11
3.7062008 6.7948322 0.95033723 11
3.9159946 7.1705279 1.294026 22
nan nan nan nan
3.6462219 6.6572046 1.7523688 34
nan nan nan nan
1.1862676 2.1498086 -0.65791804 28
1.2693949 2.297611 -0.60601819 43
1.3840821 2.501066 -0.55563581 28
1.5423394 2.7835996 -0.5040319 25
1.7892499 3.2252369 -0.45286649 20
2.0584123 3.7043211 -0.37076053 20
2.4139879 4.3388634 -0.26021439 14
2.9116118 5.226841 -0.1044352 20
3.9190965 7.0965014 0.14150412 1
5.5880756 10.106098 0.60521305 8
5.3683901 9.6968021 0.96969479 19
3.8247836 6.8972607 0.96837389 3
5.5136037 9.9304495 1.7989967 15
3.6086099 6.4913893 1.443661 1
3.6926091 6.631587 1.7523688 38
nan nan nan nan
1.1899068 2.1212556 -0.6517064 33
1.2787254 2.2767985 -0.60286885 28
1.3861066 2.4639657 -0.54952991 27
1.5617337 2.7727649 -0.5040319 21
1.8136715 3.2161262 -0.453354 28
2.0714848 3.6673086 -0.36849448 16
2.4422538 4.3184276 -0.26000506 10
2.9283252 5.1715851 -0.1037371 20
4.0664358 7.2433381 0.1449946 6
4.0496101 7.2045283 0.43313241 2
5.8209581 10.343193 1.0383735 15
3.8436017 6.8185101 0.96106172 8
4.0118461 7.1082711 1.2927746 5
4.1116567 7.2762156 1.6245478 23
3.6783395 6.4988046 1.724025 17
5.2433076 9.2524395 2.8495977 29
1.204687 2.1128967 -0.6517064 48
1.2907249 2.2610462 -0.60106927 36
1.423739 2.4900193 -0.55754393 27
1.5820359 2.7635081 -0.50434476 25
1.8232489 3.1809959 -0.45018539 24
2.094059 3.6475744 -0.36797154 20
2.4394956 4.2441311 -0.25655088 17
2.9473994 5.1215525 -0.10314372 22
4.0732942 7.1383538 0.14345878 16
5.7335844 10.035764 0.60573643 5
5.5517259 9.7056475 0.97823608 42
5.5568962 9.6989594 1.3724926 1
3.9119718 6.8196421 1.2452185 31
nan nan nan nan
3.7576332 6.5320859 1.7397715 29
5.2653503 9.1419506 2.8268218 19
1.2242502 2.1127932 -0.65429455 48
1.3143007 2.2654657 -0.6046685 29
1.4272797 2.4562538 -0.55220127 36
1.6132106 2.7728851 -0.5080992 16
1.8434135 3.1647589 -0.44969791 34
2.0983889 3.5967274 -0.36431101 26
2.4600015 4.2114744 -0.25560883 14
2.9820757 5.099124 -0.10310882 24
4.1009603 7.0716863 0.14269088 26
4.1718669 7.185286 0.43543521 5
4.1334057 7.1104674 0.71955782 7
2.5570302 4.3916583 0.6239711 15
3.8868594 6.6675873 1.2223791 49
4.0802355 6.9908924 1.573411 21
3.9595187 6.7731891 1.8113059 36
5.4441938 9.3017073 2.8879032 14
1.2419111 2.109189 -0.65584749 41
1.3370121 2.2679863 -0.60781777 23
1.4643557 2.4800413 -0.55983365 21
1.603376 2.7122424 -0.499026 25
1.8573726 3.1381469 -0.44774801 31
2.1173532 3.5717053 -0.36326513 22
2.4801686 4.17874 -0.25466678 4
3.0135155 5.0713043 -0.10296919 22
4.1207886 6.9929218 0.14167863 19
4.1437817 7.023531 0.42737547 17
2.5748236 4.3589935 0.44292548 12
2.5805521 4.3617401 0.62226492 13
5.4806647 9.2525558 1.7032586 12
4.0768666 6.8744278 1.5535669 10
3.9549539 6.6582599 1.7879111 44
3.8559999 6.4839339 2.0213768 14
1.2506549 2.0905201 -0.65274167 48
1.346805 2.2485659 -0.60511833 12
1.4775941 2.4630237 -0.55830717 32
1.6253233 2.706063 -0.49996459 28
1.8475229 3.0723662 -0.4401921 19
2.1323655 3.5418491 -0.3616963 31
2.4927776 4.1339583 -0.25299203 6
3.017839 4.9987864 -0.10192205 20
4.1243105 6.8884935 0.14014283 30
4.2183857 7.0372572 0.42999226 2
2.4780579 4.1290779 0.42131084 10
2.5465097 4.2364306 0.60690933 15
5.5838318 9.2783833 1.7151477 10
4.0254688 6.6810002 1.5161684 31
3.8985214 6.4626498 1.742471 36
5.2498488 8.6890593 2.7201881 11
1.2521745 2.0602775 -0.64601237 38
1.3503141 2.2191315 -0.59971952 28
1.4820682 2.4327893 -0.55372775 23
1.6509054 2.706742 -0.50215465 26
1.8772058 3.0729454 -0.44214204 28
2.1456056 3.5081797 -0.35977891 26
2.4989564 4.0811253 -0.25079393 21
3.0380273 4.9537311 -0.10143339 24
4.1866865 6.88589 0.1406664 30
2.6440401 4.3435578 0.26649469 17
2.3854759 3.9126432 0.40091643 20
2.5421915 4.1647797 0.59910977 13
6.2000079 10.145298 1.8831582 3
4.0135894 6.5572896 1.4944161 13
3.9364169 6.423645 1.7393217 48
4.2430601 6.9159107 2.1740801 31
1.2610976 2.0434859 -0.64342415 26
1.385874 2.2430456 -0.60871756 31
1.4804205 2.392333 -0.54685861 22
1.6593584 2.6783583 -0.499026 30
1.9158672 3.0887744 -0.44628558 23
2.1595328 3.4761899 -0.3580358 24
2.5094569 4.0347471 -0.24901451 17
3.0674503 4.9261451 -0.10129377 15
4.2262473 6.8428845 0.14038716 17
2.4915295 4.0294137 0.24828181 13
2.3386409 3.7777321 0.38871458 22
2.5304091 4.0811329 0.58960396 10
4.2620649 6.8659787 1.2799469 29
3.9886985 6.418098 1.4688478 49
4.0367713 6.4853477 1.7636163 19
4.2810183 6.8697262 2.1689036 9
1.2794362 2.0411801 -0.64549476 35
1.3869967 2.2102075 -0.60241896 15
1.4824598 2.3586686 -0.54151595 20
1.6674958 2.6499894 -0.49589729 33
1.9352682 3.0719645 -0.4457981 23
2.1933153 3.4761949 -0.3596046 22
2.519429 3.988425 -0.24723509 14
3.0932136 4.8910909 -0.10101452 24
2.6406493 4.2095551 0.08673846 8
2.434623 3.8766108 0.23990804 13
2.3734434 3.7748058 0.39010909 21
2.5948024 4.120481 0.59789103 22
4.2983031 6.8176785 1.2765055 36
3.919183 6.2091355 1.4272513 15
4.0548759 6.4141812 1.751919 36
5.7391152 9.0678711 2.8754797 19
1.2946924 2.0338278 -0.64601237 31
1.392967 2.1856799 -0.59836984 32
1.522128 2.3846693 -0.54991156 19
1.6923366 2.6482716 -0.49777454 20
1.9545262 3.0550356 -0.44531062 16
2.196507 3.4293089 -0.35629267 19
2.5342708 3.9505658 -0.24597903 14
3.1251233 4.8660126 -0.10094472 18
2.4776487 3.8891284 0.080490492 12
2.4057791 3.7719562 0.23446509 12
2.356848 3.6909747 0.38313666 20
2.5700319 4.0186472 0.58570409 26
nan nan nan nan
4.2379017 6.6113591 1.526472 73
4.1047564 6.3962717 1.7546183 21
6.0634098 9.4338646 3.0048892 7
1.3088607 2.024739 -0.64601237 33
1.4103106 2.1791732 -0.59926963 31
1.5436635 2.3824909 -0.55181968 25
1.7070999 2.6317184 -0.49683592 23
1.9379561 2.9830532 -0.43677977 16
2.2095315 3.3971889 -0.35454956 17
2.5371265 3.8964019 -0.24367623 14
2.6499925 4.06353 -0.084679075 1
2.5214365 3.8990419 0.081048973 12
2.3890643 3.6901088 0.23038292 15
2.3359461 3.6025481 0.37564126 18
2.5335536 3.9028249 0.57132351 13
6.5533967 10.083648 1.9047463 33
4.3203688 6.6375566 1.5394472 7
4.1269684 6.3331728 1.7451704 23
5.7601514 8.8293171 2.8247511 40
1.3183722 2.0093226 -0.64394182 40
1.4293897 2.176039 -0.60106927 28
1.5386773 2.3388538 -0.54418731 20
1.7471608 2.6527314 -0.5030933 18
1.9707595 2.9876778 -0.4394609 16
2.2277064 3.3733664 -0.35367799 22
2.5444398 3.8486059 -0.24179214 12
2.5877671 3.9082112 -0.081816882 17
2.5057898 3.8161533 0.079687685 12
2.4411006 3.713393 0.23289503 15
2.3626063 3.5898914 0.37598985 31
2.5541837 3.8750973 0.56986111 28
6.3070312 9.5578613 1.8137014 18
4.1284628 6.2468972 1.4554911 13
4.2076421 6.3594642 1.7604671 34
5.8152504 8.7792244 2.8216453 10
1.3273603 1.9917992 -0.64135361 30
1.4211308 2.1300912 -0.59117138 27
1.5560585 2.3296874 -0.5445689 30
1.7606069 2.6319516 -0.50152892 20
2.0103471 3.0018861 -0.44360444 16
2.2423267 3.3444932 -0.35228351 15
2.5407395 3.7838712 -0.23886132 14
2.5290885 3.7622614 -0.079129212 17
2.3815153 3.5722833 0.074940629 26
2.3799946 3.5646083 0.22462595 15
2.3671956 3.5414221 0.37267792 21
2.5215588 3.7680838 0.55669922 22
4.0063977 5.9779158 1.1397816 14
4.2179127 6.2863975 1.471519 18
4.2030358 6.2571416 1.7402215 42
6.2359271 9.2695484 2.9935012 14
1.3369032 1.9760838 -0.63928306 35
1.4501736 2.141093 -0.59702015 23
1.5737916 2.3201175 -0.54495054 23
1.7589628 2.5901806 -0.49589729 22
2.038475 2.9972723 -0.44506687 12
2.2718084 3.336596 -0.35315505 15
2.5524702 3.7445869 -0.23750059 18
2.5627103 3.7539761 -0.07933864 8
2.4776466 3.6594694 0.077139638 13
2.4025812 3.5445995 0.2244166 27
2.3683703 3.4901876 0.36901742 18
2.4870894 3.6596427 0.5432936 20
4.0680351 5.9791985 1.1454133 7
4.1091256 6.0305371 1.4184742 22
4.2092676 6.1705604 1.7244749 36
6.2972155 9.2210045 2.9919484 36
1.3510096 1.9664665 -0.63928306 41
1.4588319 2.1210275 -0.59432071 38
1.5955179 2.3171587 -0.54685861 39
1.7662386 2.5612657 -0.49276862 30
2.036793 2.9502966 -0.4401921 15
2.2848504 3.3059049 -0.35158628 8
2.5655601 3.7065196 -0.23624454 20
2.6606102 3.8395436 -0.081537649 3
2.475951 3.6025314 0.076301925 16
2.3780568 3.4549286 0.21981104 23
2.376327 3.4485412 0.36640272 23
2.5430145 3.6863072 0.54987448 13
3.2337787 4.6806369 0.90106261 1
4.367785 6.3149476 1.4925081 20
4.5539947 6.576807 1.8468482 19
6.2078152 8.9518709 2.9189613 36
1.3566303 1.9461315 -0.63565958 30
1.466544 2.10146 -0.59162134 34
1.5891613 2.2737806 -0.53922629 36
1.7836304 2.5491846 -0.49276862 27
2.0408819 2.9136028 -0.43677977 19
2.2775578 3.2478623 -0.34705415 9
2.5826931 3.6775301 -0.23551181 22
3.2582917 4.6343627 -0.098885335 8
2.5227795 3.6163194 0.076965116 12
2.3752179 3.4009991 0.21740359 33
2.3757691 3.3979971 0.36274219 18
2.5276961 3.6099253 0.54109991 12
3.0047724 4.2864828 0.82910275 6
4.2403765 6.0424104 1.4348837 11
4.5930552 6.537684 1.8445989 42
7.5636849 10.75006 3.5220098 21
1.3712997 1.93819 -0.63617724 36
1.4901901 2.1038923 -0.59522051 33
1.6159587 2.2789252 -0.54304242 25
1.8089463 2.5482595 -0.4949587 23
2.0404706 2.8701603 -0.43239245 17
2.2978661 3.2286365 -0.34670553 9
2.5775328 3.6175737 -0.23279037 20
2.7678852 3.8790014 -0.08317817 3
2.4768643 3.4994988 0.074835919 27
2.3809922 3.3603077 0.2158335 26
2.3740656 3.3455822 0.35890734 27
2.559108 3.6023464 0.54256237 18
3.0510533 4.2900777 0.83379585 15
4.5387211 6.3724594 1.5207478 23
4.5152659 6.332509 1.7955594 29
6.2943106 8.8177891 2.9029145 18
1.3765744 1.9178256 -0.63255376 31
1.5067499 2.0968659 -0.5961203 34
1.6215084 2.2532463 -0.53960788 34
1.8139912 2.5179381 -0.49151716 26
2.0692494 2.8690853 -0.43434238 23
2.3011284 3.1870749 -0.34391654 13
2.6144283 3.6156754 -0.23383708 26
2.7180078 3.7547815 -0.080909356 10
2.4499052 3.4106591 0.073300108 25
2.3892348 3.3225236 0.21447276 30
2.3641918 3.2840688 0.35402662 18
2.6120548 3.6230395 0.54841208 13
3.0878656 4.2782831 0.83567303 13
4.3669777 6.0438404 1.4493852 9
4.6610575 6.4437342 1.8360506 21
6.3081174 8.7079239 2.8811738 14
1.3899307 1.908168 -0.63255376 47
1.5110193 2.072124 -0.59207124 31
1.6576446 2.270699 -0.54647696 27
1.8240948 2.4959633 -0.48963994 26
2.0798483 2.8417552 -0.43239245 15
2.3244984 3.1725407 -0.34409088 17
2.65079 3.6139021 -0.2348838 15
2.860172 3.8936527 -0.08433003 10
2.5131025 3.448854 0.074486867 7
2.4012005 3.2916632 0.21353073 31
2.4058664 3.2932248 0.35681561 31
2.5499403 3.4866045 0.53037542 28
2.9255364 3.9957745 0.78436255 13
4.5971298 6.2696934 1.5112073 39
7.663712 10.440516 2.9900496 21
nan nan nan nan
1.3925539 1.8846798 -0.62789506 23
1.513499 2.0461245 -0.58757222 31
1.6711193 2.2559161 -0.54571378 23
1.8332388 2.4720612 -0.48744985 18
2.074296 2.79406 -0.42727396 15
2.3341563 3.1406527 -0.34234774 17
2.6473367 3.556854 -0.23237166 33
2.9093103 3.904561 -0.084993221 20
2.5026405 3.3845961 0.073474631 26
2.3908496 3.2298706 0.21059991 12
2.3985693 3.2367542 0.35245782 31
2.6203554 3.5308878 0.53988123 17
2.8661833 3.8579154 0.7612102 16
4.733428 6.364284 1.5417367 21
4.9705782 6.6758404 1.9215322 6
3.5648477 4.7808681 1.5979488 15
1.37323 1.831633 -0.61340117 54
1.537105 2.0479767 -0.59117138 29
1.6770005 2.2319329 -0.54266083 41
1.8488345 2.4579475 -0.48713696 33
2.0913615 2.77634 -0.42678648 19
2.342828 3.1067832 -0.34043032 16
2.6401968 3.497308 -0.22965018 16
2.5964191 3.4343266 -0.075150065 16
2.4284353 3.2379031 0.070647344 12
2.3995881 3.1959527 0.20944853 23
2.4115303 3.2071896 0.35106334 16
2.5858326 3.4352551 0.52793807 13
2.8638475 3.8004527 0.75370133 9
4.9232044 6.5238366 1.5886757 27
4.663487 6.1729493 1.7861115 14
3.5844891 4.7395434 1.5922549 1
1.3821577 1.8176298 -0.61184824 39
1.5533704 2.0405679 -0.59207124 21
1.6889716 2.2154863 -0.54151595 43
1.8383865 2.4088619 -0.47994098 23
2.098161 2.7462654 -0.42434907 19
2.3378255 3.0555396 -0.33659548 13
2.6572618 3.4692776 -0.22902218 22
2.502923 3.2642336 -0.071799204 12
2.4388716 3.2049572 0.070298299 32
2.3794804 3.1235156 0.20578501 15
2.4465935 3.2081282 0.35298076 23
2.5266144 3.3082645 0.51112008 25
2.9430988 3.8494155 0.76746756 12
4.7897029 6.2578816 1.5318148 13
nan nan nan nan
7.3125982 9.5299606 3.2186739 2
1.3983537 1.8125252 -0.61340117 30
1.5628136 2.0235043 -0.59027159 32
1.6935865 2.1896651 -0.53808141 27
1.8805542 2.4287701 -0.48651123 25
2.1221457 2.7378275 -0.42532405 22
2.3432195 3.0186825 -0.33432943 14
2.698576 3.4727194 -0.23048759 9
2.724561 3.502373 -0.077453777 8
2.4807379 3.2131793 0.070856772 26
2.4647405 3.189002 0.21122794 17
2.4238195 3.1326654 0.34653121 21
2.5216842 3.2544539 0.50551409 27
2.9590046 3.8147273 0.76465172 27
4.8140087 6.1994801 1.5257088 33
nan nan nan nan
7.2543435 9.3186197 3.1643219 1
1.4312149 1.8285801 -0.62220097 33
1.5696909 2.003341 -0.58757222 36
1.7173153 2.1886001 -0.54075271 31
1.8864822 2.4016013 -0.48369545 22
2.1412077 2.7229455 -0.42532405 22
2.3617702 2.9991207 -0.3339808 30
2.7091513 3.4365437 -0.2293362 20
2.5358667 3.2132711 -0.071450152 18
2.4932468 3.1831863 0.070577532 12
2.4203954 3.0868447 0.20557566 10
2.3964229 3.052978 0.33955875 20
2.5921876 3.2976351 0.51501989 16
2.989229 3.7986336 0.76559031 27
5.0819283 6.4510274 1.5963081 12
7.3783126 9.3526316 2.7502518 2
7.2425933 9.1707182 3.1311929 1
1.4439451 1.8185444 -0.62220097 40
1.5812124 1.9892831 -0.58667237 39
1.7423344 2.1888459 -0.54380566 37
1.8785816 2.3574753 -0.47743803 17
2.1403582 2.6831012 -0.42142424 20
2.3938425 2.9965692 -0.33554959 19
2.6956544 3.3707516 -0.22619602 20
2.8919213 3.6122923 -0.08076974 14
2.5004804 3.1469152 0.070158668 30
2.4431298 3.071435 0.20568034 7
2.3903739 3.0018842 0.33572391 10
2.5743036 3.2282403 0.50697654 23
3.0008874 3.7591474 0.76183593 13
nan nan nan nan
7.3569736 9.1928673 2.7183087 2
7.2834916 9.0912867 3.1213577 3
1.4590304 1.8114282 -0.6232363 47
1.5999556 1.9842632 -0.58847201 27
1.7440047 2.1598275 -0.53960788 45
1.9049274 2.3565934 -0.47994098 23
2.1520092 2.6584589 -0.41996178 20
2.3933794 2.9534693 -0.33258632 19
2.7128298 3.3440952 -0.22567266 31
2.8369992 3.4921727 -0.078535825 6
2.4885063 3.0873456 0.069216244 13
2.6112549 3.2361631 0.21792693 11
2.493902 3.0874171 0.34722847 10
2.5992754 3.2132764 0.50746399 20
2.9823048 3.6828399 0.75057268 13
5.1132588 6.3053498 1.5779905 18
3.581522 4.4117808 1.3119147 8
3.6295323 4.4661355 1.5420439 6
1.473177 1.8024375 -0.62375391 34
1.6042404 1.9606982 -0.58487278 41
1.7665058 2.1567116 -0.54189759 47
1.9179837 2.33832 -0.47900239 26
2.1566582 2.6264956 -0.41728067 15
2.3949614 2.9136024 -0.32997164 13
2.7265353 3.3122606 -0.22483528 16
2.8168006 3.4182682 -0.077314161 17
2.4732912 3.0250034 0.068204008 15
2.4293675 2.9670498 0.20097008 27
2.5096161 3.0617876 0.34635693 14
2.5914242 3.158221 0.50161427 23
2.9609263 3.6034079 0.73868364 15
5.2656627 6.4014063 1.6111913 10
7.4499245 9.0471296 2.7057116 30
7.4198847 8.9978504 3.1249812 30
1.4746286 1.7787232 -0.61909521 45
1.6253577 1.9584476 -0.58757222 39
1.7705989 2.1304274 -0.538463 41
1.9254178 2.3142433 -0.4768123 22
2.1762123 2.6129005 -0.4175244 11
2.4037621 2.8830373 -0.32840282 17
2.7649522 3.3115439 -0.22609136 13
2.7315874 3.2681041 -0.07434725 16
2.568929 3.0964899 0.070228487 11
2.4245 2.9192891 0.19887665 11
2.5513086 3.0687063 0.34914589 12
2.6469812 3.1792607 0.5079515 28
2.9771574 3.5720267 0.73649353 16
7.5615983 9.0628395 2.2942874 31
7.5328918 9.0188284 2.7129099 12
7.4093976 8.8583975 3.0944405 31
1.4894964 1.7713429 -0.62013048 24
1.6189102 1.9231998 -0.58037376 31
1.7863245 2.1198273 -0.53884465 40
1.9449469 2.3056133 -0.47775093 22
2.1982453 2.6021924 -0.41825563 15
2.421258 2.8631432 -0.32805422 14
2.7422638 3.2392921 -0.22242783 19
2.7026119 3.1879413 -0.072951064 24
2.4959788 2.9672203 0.067680433 23
2.4764781 2.9409108 0.20149344 18
2.5058806 2.9716177 0.34008169 9
2.6544735 3.1444857 0.50527036 16
3.0230765 3.5773304 0.74181229 13
7.6297541 9.0158272 2.295814 42
7.6788034 9.0641594 2.7426033 48
7.3908 8.7149401 3.0618296 18
1.5178126 1.7802743 -0.62685978 19
1.6332285 1.9136177 -0.58082366 33
1.7819468 2.0849185 -0.53312039 24
1.9481535 2.2769692 -0.47462222 37
2.2159057 2.5871701 -0.41825563 8
2.425127 2.8284466 -0.32596248 15
2.7491972 3.2018864 -0.22117178 19
2.5691378 2.9890072 -0.068797387 15
2.4608219 2.8843098 0.066179529 25
2.4424691 2.8597648 0.19709724 15
2.5752504 3.012037 0.34670553 10
2.6828184 3.1334152 0.50648904 25
3.0775459 3.5906332 0.7490083 16
7.7139616 8.9904995 2.3026831 25
3.6441505 4.2427025 1.2912191 17
7.3985519 8.6016169 3.0400887 41
1.5200956 1.757944 -0.62271863 11
1.6452731 1.9006958 -0.58037376 29
1.7960973 2.0727408 -0.53312039 27
1.9610186 2.2606716 -0.47399649 50
2.21699 2.552155 -0.41508701 11
2.4356623 2.8009229 -0.32474229 16
2.7683051 3.1800857 -0.22096242 17
2.6175354 3.0026541 -0.06953039 13
2.4987128 2.8886659 0.06666819 28
2.4723375 2.8551519 0.1979346 15
2.4944031 2.8765738 0.33310926 12
2.6936729 3.1030903 0.50453913 16
3.2081611 3.69187 0.77466357 13
nan nan nan nan
3.6788015 4.2230353 1.2930187 5
7.3820219 8.4651499 3.0095479 16
1.5141971 1.7272189 -0.61547172 13
1.6530309 1.8835938 -0.57857412 28
1.7975638 2.0454042 -0.52930421 31
1.996325 2.2691724 -0.47868952 17
2.2146308 2.5146594 -0.41143093 12
2.4459336 2.7733896 -0.32352212 13
2.8155556 3.1891284 -0.2229512 20
2.5981872 2.939815 -0.068483248 20
2.4911234 2.8395851 0.065935194 22
nan nan nan nan
2.5283961 2.8759882 0.33502665 23
2.6772311 3.0410006 0.49747071 23
3.1241465 3.5448966 0.74838257 19
3.1535766 3.5745158 0.92656857 1
3.8862474 4.3987899 1.3551052 1
2.865541 3.240046 1.1589917 22
1.5210834 1.7108316 -0.61340117 16
1.6920516 1.9011221 -0.58757222 22
1.8300872 2.0533233 -0.53464681 38
2.000282 2.2419145 -0.47587368 20
2.2255206 2.4917343 -0.41021225 13
2.4639063 2.7547622 -0.32334781 12
2.848408 3.1812994 -0.22378856 22
2.5559161 2.8516185 -0.06684272 27
2.5015838 2.8116653 0.06569086 24
2.4694531 2.7726276 0.1945851 7
2.5232203 2.8300111 0.33171475 15
2.6640198 2.983737 0.49113351 27
3.152766 3.5274198 0.74932122 12
8.9803171 10.036878 2.6178994 2
8.6464853 9.6502142 2.9913993 2
3.0248203 3.3724027 1.2138613 49
1.5420458 1.710214 -0.6170246 18
1.6817806 1.8632234 -0.57947397 37
1.8272625 2.021564 -0.5296858 34
1.9893764 2.198601 -0.46961632 30
2.2255363 2.4570112 -0.40704364 16
2.4870939 2.7419207 -0.32387072 16
2.8544366 3.1435926 -0.22253251 18
2.6026626 2.8633001 -0.06754081 20
2.5867929 2.8668807 0.067401193 10
2.5449772 2.8175702 0.19898133 7
2.4787753 2.7413907 0.32334781 23
2.7833843 3.0739553 0.50917011 12
5.1327925 5.6626678 1.21049 3
8.7506905 9.6439018 2.5312722 2
2.9735677 3.2724988 1.0208279 16
7.5277834 8.2758293 2.9976423 20
1.5604665 1.7065343 -0.61961281 23
1.6907998 1.8471247 -0.57812428 34
1.8426579 2.0102053 -0.53006744 38
2.0020061 2.1817482 -0.46899059 19
2.248008 2.4472609 -0.40801859 12
2.5034766 2.7215593 -0.32352212 13
2.8438435 3.0883265 -0.22002037 8
2.5765071 2.7950695 -0.066354051 35
2.5878437 2.8280993 0.066912524 10
2.5672824 2.802681 0.19919068 8
2.5207434 2.7489836 0.32631108 20
2.6866245 2.9257789 0.48772117 30
3.1415536 3.4176109 0.73524207 1
3.0987942 3.3675535 0.88955158 3
3.1865034 3.4580221 1.0856138 19
3.2314148 3.503078 1.2770132 22
1.5697147 1.6927663 -0.61857754 30
1.7036532 1.8352764 -0.57812428 23
1.8486277 1.9886636 -0.52777767 41
1.9970044 2.1460257 -0.46429756 21
2.2488015 2.4140768 -0.40509373 16
2.513792 2.6957116 -0.32247624 22
2.8598804 3.0625598 -0.21960169 21
2.6546776 2.8398292 -0.067854956 16
2.64153 2.8466091 0.067785151 11
2.6737826 2.8783419 0.20588967 10
2.5249488 2.7152693 0.32439366 25
2.6636932 2.8604646 0.47992152 14
4.9325371 5.2913489 1.1457262 14
3.3084106 3.5453537 0.94259644 8
7.4375997 7.9619079 2.5154028 16
3.2795475 3.5058272 1.2863307 7
1.5709068 1.6705079 -0.61443645 25
1.7097456 1.8162432 -0.57587475 25
1.8580811 1.9717488 -0.52663285 39
2.0115647 2.1323838 -0.46429756 10
2.2737792 2.4069767 -0.40655616 13
2.5229678 2.667963 -0.32125604 25
2.8380976 2.9980576 -0.21635687 21
2.8243942 2.979413 -0.071659587 16
2.5717847 2.7338889 0.065516338 12
2.5016184 2.6565113 0.1912356 15
2.5274417 2.6801801 0.32230192 18
2.6326845 2.788856 0.47090316 18
4.9399481 5.2275014 1.139156 10
nan nan nan nan
3.3611956 3.5481603 1.1283545 27
3.2315507 3.4077284 1.2583783 1
1.5729103 1.6499883 -0.61081296 26
1.711306 1.7932847 -0.57227552 25
1.863663 1.9502126 -0.52434313 29
2.0154784 2.106869 -0.46179458 11
2.2804985 2.3814089 -0.40485001 19
2.5259018 2.6349082 -0.31933865 24
2.9170494 3.0386865 -0.2207531 42
2.8792472 2.9961665 -0.072532199 13
2.5549204 2.6782477 0.064608812 28
2.5201035 2.6389818 0.1912356 36
2.5470023 2.6643555 0.32247624 10
2.6191454 2.7359939 0.46505347 14
4.9530873 5.1686406 1.1338371 12
nan nan nan nan
3.8873925 4.0480733 1.2957182 19
3.1494777 3.2750783 1.2174848 3
1.5843911 1.638967 -0.61081296 31
1.7251388 1.7826941 -0.57272542 34
1.8905544 1.9515828 -0.52815932 10
2.0118954 2.0746663 -0.45772728 9
2.2915375 2.3597324 -0.40387502 15
2.5414591 2.6143515 -0.31898999 13
2.8721998 2.9514844 -0.2158335 40
2.8526433 2.9272997 -0.071345441 25
2.8260899 2.9224195 0.070961483 11
2.5546792 2.6389859 0.19249167 30
2.6945112 2.7795498 0.33868721 9
2.6321766 2.712405 0.46407849 13
3.1698995 3.2630973 0.72053725 18
3.2293711 3.3196778 0.9002369 22
3.246649 3.3339443 1.0743662 3
3.096179 3.1761 1.1884971 12
1.5987839 1.6303459 -0.61184824 25
1.7214693 1.7536159 -0.56732661 51
1.8896691 1.9222723 -0.52396154 23
2.0201206 2.0528235 -0.45616296 7
2.2986133 2.3333752 -0.40216887 9
2.5419154 2.577656 -0.31672394 27
2.8895462 2.926089 -0.21551949 35
2.7976027 2.8300173 -0.069460578 31
2.6009309 2.6504254 0.064818241 28
2.5501597 2.595968 0.19071224 27
2.6388953 2.6834857 0.32927439 5
2.7299886 2.7722445 0.47772786 28
3.1493571 3.1947565 0.71052545 21
nan nan nan nan
3.2265987 3.2662632 1.0599694 30
3.12889 3.1629314 1.1921207 22
1.6101269 1.6191447 -0.61184824 26
1.7542925 1.7622714 -0.5740751 37
1.8999392 1.9065831 -0.52319831 32
2.0410235 2.0460172 -0.45772728 9
2.293802 2.296206 -0.39851278 4
2.5584385 2.5584395 -0.31654966 16
2.8401589 2.8371873 -0.21039055 38
2.7932255 2.7864072 -0.068867192 19
2.6146808 2.628407 0.064713523 12
2.5593152 2.5700581 0.19008422 32
2.71384 2.7214293 0.33624685 29
2.7684298 2.7732663 0.4811402 12
3.4600673 3.4624846 0.7752893 34
nan nan nan nan
3.2244976 3.2188756 1.0518712 11
3.0682693 3.0597146 1.1610622 33
1.6197386 1.6067877 -0.61133063 17
1.7620938 1.7461751 -0.57272542 23
1.9062259 1.8863679 -0.52129018 34
2.0608771 2.0372732 -0.4589788 9
2.313616 2.2847238 -0.39924401 4
2.5705631 2.53492 -0.3158524 10
2.9168108 2.8733559 -0.21457745 29
2.7109294 2.6677465 -0.066388957 28
2.6329668 2.6100891 0.064713523 23
2.6112549 2.5858564 0.19259633 26
2.7252192 2.6958878 0.33537531 10
2.7312348 2.6980686 0.47139066 21
3.2648141 3.2217929 0.72648174 16
3.2087052 3.1631093 0.87581331 38
3.3204944 3.2687423 1.075716 63
nan nan nan nan
1.6226315 1.5873343 -0.60822481 31
1.7812113 1.7406403 -0.57497495 25
1.9221581 1.875757 -0.52205342 32
2.0609038 2.009048 -0.45585006 9
2.3152871 2.2546675 -0.3968066 5
1.9954261 1.9404672 -0.24351314 2
2.9224737 2.8390062 -0.21353073 38
2.713702 2.6334369 -0.066004999 12
2.6525543 2.5930419 0.064748429 21
2.7221251 2.6582658 0.19940001 13
2.6455669 2.5807993 0.32334781 13
2.771333 2.699713 0.47504675 21
3.1201756 3.0363581 0.68956316 16
3.2743495 3.1830542 0.88764352 15
nan nan nan nan
3.4768181 3.3716261 1.2977188 16
1.6350639 1.5773085 -0.60874242 31
1.7750778 1.7105834 -0.56912625 31
1.952183 1.8786273 -0.52663285 34
2.0592155 1.9795514 -0.45240852 7
2.3281088 2.235698 -0.39631912 12
1.9913348 1.9102885 -0.24142142 6
3.0013537 2.8751826 -0.21782227 12
2.7580249 2.6393149 -0.066633284 15
2.6475568 2.5522559 0.064189956 29
2.6413491 2.5436051 0.19217765 10
2.6132636 2.5139232 0.31724688 11
2.8173125 2.7064285 0.47967777 12
3.5018914 3.3605399 0.76871902 48
3.8322065 3.6736703 1.0318952 10
3.5834045 3.4315624 1.1454508 24
3.5994017 3.4420679 1.334471 42
1.6306386 1.5512096 -0.60304838 36
1.7756748 1.687411 -0.56552702 34
1.9421425 1.8436699 -0.52052695 27
2.079808 1.972286 -0.45397288 14
2.3494258 2.2248499 -0.3972941 12
2.5937066 2.4536037 -0.31236616 24
2.9482746 2.7860954 -0.21258868 21
2.979996 2.8121367 -0.071519956 18
2.6938508 2.5617344 0.064888045 11
2.6730831 2.5393214 0.19322437 10
2.6350865 2.4997315 0.31776983 33
2.7650647 2.6202841 0.46773461 15
3.384099 3.2035406 0.73805791 33
3.24999 3.0722911 0.86932582 8
3.6271083 3.4251955 1.1517495 11
3.0971808 2.9217017 1.1408744 15
1.6524302 1.5506492 -0.60718954 30
1.8013376 1.6886119 -0.57002604 43
1.9478003 1.8233578 -0.51861888 21
2.0199428 1.8889079 -0.43801656 13
2.3674157 2.2115178 -0.39778158 13
2.6045201 2.4304559 -0.31166893 22
2.9355061 2.7354908 -0.21028589 42
3.0034585 2.7958763 -0.071624674 42
2.9523489 2.7685649 0.070647344 8
2.6630504 2.4946563 0.1912356 11
2.727689 2.5525274 0.32683402 20
2.789093 2.6063361 0.46870953 24
3.3139656 3.0935676 0.71803427 13
3.6987076 3.4490993 0.98304802 20
3.6360815 3.3871424 1.1472505 17
3.1090174 2.892112 1.1377686 27
1.6476177 1.5246429 -0.6014955 23
1.8087887 1.6720275 -0.56867629 36
1.9399732 1.7914106 -0.51327622 45
2.0661488 1.9059205 -0.44521254 10
2.3827982 2.1949348 -0.39778158 15
2.6243575 2.4149108 -0.31201756 22
2.9540594 2.7154446 -0.21028589 45
2.8888476 2.6517844 -0.068448335 11
2.7479975 2.5420029 0.065341808 11
2.7503788 2.5415347 0.19625986 12
2.8596528 2.6388125 0.34043032 7
2.7877934 2.5698013 0.46554092 10
3.4134145 3.1431978 0.73492926 12
3.5911868 3.3022673 0.94832075 12
nan nan nan nan
7.1454606 6.5567961 2.5985434 28
1.6508234 1.5068806 -0.59890729 30
1.8129281 1.6531116 -0.56642681 25
1.9480774 1.773858 -0.51213133 21
2.1086299 1.9180335 -0.45146993 10
2.3976824 2.1786661 -0.39778158 12
2.6706619 2.4233086 -0.31550378 10
2.9640644 2.6867082 -0.20965785 35
3.0239341 2.7380931 -0.071205825 9
nan nan nan nan
2.6986692 2.4590466 0.19134027 30
2.8377664 2.583075 0.33572391 41
2.7748184 2.5222368 0.4604224 15
3.0462651 2.7660632 0.6517061 6
3.6688387 3.3278682 0.9628222 19
3.8346713 3.4734125 1.1944902 11
3.1543264 2.854157 1.1398392 41
1.6584307 1.492735 -0.59787202 35
1.8099329 1.627386 -0.5619278 27
1.9545705 1.754968 -0.51060492 27
2.1160867 1.8979897 -0.45021844 9
2.4098771 2.1592245 -0.3972941 12
2.7038476 2.4192183 -0.3174212 4
2.9991295 2.6805909 -0.21080926 15
2.94751 2.6316788 -0.06897191 16
2.9541998 2.6571739 0.069355868 9
2.7009141 2.4267976 0.19029355 31
2.6600108 2.3875296 0.31271479 10
2.7746208 2.4869041 0.45749757 18
3.1228974 2.796119 0.663908 18
3.3773668 3.0207763 0.88077438 10
3.2498443 2.902637 1.0059812 30
nan nan nan nan
1.670257 1.4824021 -0.59838963 33
1.8154181 1.6095383 -0.56012815 34
1.9608945 1.7360752 -0.50907844 30
2.1322441 1.8857889 -0.4508442 9
2.4144778 2.1331487 -0.39558792 15
2.7161889 2.3963289 -0.31689829 3
3.0507352 2.6886394 -0.21311203 21
2.9853225 2.6282151 -0.069425672 17
2.7811821 2.4666457 0.064888045 13
2.7461946 2.4330475 0.19228233 10
2.7780688 2.4586923 0.32456797 24
2.95702 2.6133919 0.48455253 15
3.3940842 2.9965019 0.71709567 18
3.3394761 2.9451809 0.86550963 30
3.8608575 3.4002137 1.1877416 11
nan nan nan nan
1.6820192 1.4719776 -0.59890729 43
1.8251436 1.5955428 -0.55967826 35
1.9670515 1.7171777 -0.50755197 14
2.1140935 1.8435916 -0.44427395 12
2.4263186 2.1136315 -0.39510044 15
2.7193222 2.3655403 -0.31532949 4
3.0724449 2.6698973 -0.21332137 52
3.1893396 2.7685473 -0.073718965 12
2.9970317 2.6209342 0.069495484 4
2.7977078 2.4440396 0.19468978 10
2.7381208 2.3894587 0.31794414 19
2.774652 2.4179258 0.45189157 13
3.3508539 2.9169624 0.70364231 33
3.2888455 2.8599582 0.84719193 16
3.245913 2.8186471 0.99248409 1
1.9423461 1.6848882 0.68897635 7
1.6834781 1.4526274 -0.59580147 24
1.8362372 1.5827628 -0.55967826 37
1.9656001 1.6918766 -0.50411743 11
2.1239171 1.8262118 -0.44364822 12
2.4380038 2.0940545 -0.39461297 12
2.7157049 2.3301084 -0.31306344 13
3.0788774 2.6379852 -0.21248402 33
3.2663219 2.7956238 -0.075045347 14
2.9910252 2.5790536 0.068937011 16
2.8737199 2.4752834 0.19877198 3
2.7864511 2.3975742 0.32160467 11
3.0248382 2.5990193 0.48967105 13
3.0818381 2.6451914 0.64325857 16
nan nan nan nan
1.9684858 1.6860065 0.59836984 7
1.9423163 1.6612418 0.68483526 5
1.6729789 1.4233139 -0.58855456 31
1.853182 1.5749528 -0.56147784 37
1.969587 1.672106 -0.50220931 10
2.1227386 1.8002145 -0.44083238 13
2.4510477 2.075701 -0.39436921 12
2.7242994 2.3046594 -0.31219187 12
3.1837142 2.6904497 -0.21845031 17
3.1986487 2.6992421 -0.073055774 18
3.0481169 2.5923181 0.069844536 10
2.8189626 2.3948877 0.19385241 8
2.7499468 2.3329492 0.31550378 40
2.9122207 2.4679949 0.46870953 9
nan nan nan nan
1.9970732 1.6882567 0.50831515 10
1.9831868 1.6747365 0.59926963 6
1.9801584 1.6704037 0.69415271 9
1.7107459 1.4354868 -0.59838963 31
1.856392 1.5560428 -0.55922836 39
1.975191 1.6532733 -0.50068283 10
2.1473794 1.7954869 -0.44333532 14
2.2228746 1.8566343 -0.35561478 25
2.7403224 2.2855842 -0.31219187 27
3.1978166 2.6643224 -0.2181363 19
2.9264531 2.4356358 -0.066458762 15
2.9512177 2.4746115 0.067226671 11
2.8340824 2.373867 0.19374773 12
2.7993791 2.3423061 0.31933865 11
