# .PCD v0.7 - Point Cloud Data file format
VERSION 0.7
FIELDS x y z intensity
SIZE 4 4 4 4
TYPE F F F F
COUNT 1 1 1 1
WIDTH 1497
HEIGHT 1
VIEWPOINT 0 0 0 1 0 0 0
POINTS 1497
DATA ascii
nan nan nan nan
nan nan nan nan
-10.501031 43.639259 5.5111761 25
-10.433816 43.459953 7.0789733 36
-10.39976 43.418236 8.6783752 35
nan nan nan nan
nan nan nan nan
-0.83597034 3.5502415 -0.97730076 5
-0.97242713 4.1394658 -0.98168647 4
-1.1562632 4.9375067 -0.98571932 4
-1.4371828 6.1516027 -1.0005549 3
-1.8114066 7.7717657 -0.97982955 23
-2.4181838 10.407958 -0.93483251 9
-3.9280767 16.94684 -0.91169238 19
-3.925328 16.975418 -0.30412564 21
-10.255528 43.621849 0.78218192 20
nan nan nan nan
-10.22384 43.692368 3.9258432 22
-10.146512 43.498856 5.4843645 25
-10.104185 43.420143 7.0608268 36
-10.071528 43.38269 8.6570044 35
nan nan nan nan
nan nan nan nan
-0.80834717 3.540782 -0.97315967 5
-0.93817174 4.1193876 -0.97538787 4
-1.1130685 4.903142 -0.97732371 4
-1.3778279 6.0841789 -0.98804021 3
-1.7567179 7.7761703 -0.97885466 23
-2.3302085 10.348372 -0.92803437 9
-3.8134997 16.977087 -0.91190183 19
-3.8219314 17.056379 -0.30510297 14
-9.932126 43.575615 0.78012258 19
-9.9543619 43.77895 2.3529203 44
-9.8609476 43.473381 3.9000449 22
-9.819128 43.429432 5.4670591 25
-9.7866688 43.391567 7.0451837 36
-9.7471247 43.321911 8.6314363 35
nan nan nan nan
nan nan nan nan
-0.78027195 3.5312486 -0.96901858 5
-0.90099889 4.0877757 -0.96638978 4
-1.0762836 4.8992882 -0.975034 4
-1.323902 6.0415502 -0.97959268 3
-1.7252778 7.8929667 -0.99201655 28
-2.235429 10.26121 -0.91879582 9
-3.7025182 17.038425 -0.91378587 26
-3.7286022 17.201859 -0.30723214 7
-9.6095972 43.561874 0.77865654 39
-9.5738201 43.507965 2.3347073 43
-9.5354424 43.441914 3.8911552 22
-9.4940386 43.398033 5.4546285 25
-9.4590731 43.346893 7.0270371 36
-9.421895 43.285309 8.6108284 70
nan nan nan nan
nan nan nan nan
-0.7519691 3.5196061 -0.96435976 3
-0.86634839 4.0653768 -0.95964128 4
-1.0290025 4.8452287 -0.9628222 4
-1.2710458 6.0004015 -0.9714582 3
-1.6672564 7.8912249 -0.99031037 31
-2.1621006 10.268767 -0.91809857 13
-3.6101665 17.190908 -0.92058951 13
-3.6506536 17.429064 -0.31082737 14
-9.2827196 43.522297 0.77677172 19
-9.2490654 43.47607 2.3294737 43
-9.2153854 43.429462 3.8841827 21
-9.1698856 43.364204 5.4421978 25
-9.1342096 43.307503 7.0101418 35
-9.0976515 43.246288 8.5902214 34
nan nan nan nan
nan nan nan nan
-0.72386545 3.5077424 -0.95970106 5
-0.83480275 4.0560555 -0.95604199 4
-0.98883826 4.8215237 -0.95671636 4
-1.2196236 5.9626813 -0.96394926 3
-1.609347 7.8890567 -0.98860419 5
-2.0796428 10.230895 -0.91339219 9
-3.4979918 17.254843 -0.922683 6
-5.7627125 28.502853 -0.50758582 25
-8.958477 43.48811 0.77502644 19
-8.915575 43.394806 2.321728 43
-8.8859701 43.365871 3.8728523 21
-8.8478813 43.333797 5.4304981 24
-8.8111687 43.269558 6.9938731 35
-8.7826405 43.245251 8.5776281 34
nan nan nan nan
nan nan nan nan
-0.69370091 3.4842906 -0.95193648 6
-0.80380929 4.0484052 -0.95289272 4
-0.94524997 4.778235 -0.94679433 4
-1.1626761 5.8935294 -0.95143455 3
-1.5389078 7.8221889 -0.97885466 5
-1.9874673 10.139585 -0.90397936 9
-3.2843401 16.802523 -0.89724773 6
-5.5674105 28.562017 -0.50793487 25
-8.6305094 43.427982 0.77286232 39
-8.6061726 43.424652 2.3200531 43
-8.5605764 43.313488 3.8627427 21
-8.524045 43.287388 5.4170928 24
-8.4890814 43.229221 6.9776039 35
-8.4563704 43.182209 8.5532045 34
-8.4180393 43.146149 10.148892 49
nan nan nan nan
-0.66462898 3.4643841 -0.94520718 6
-0.76930368 4.021379 -0.94524437 4
-0.90525287 4.7500038 -0.93992513 4
-1.1115457 5.8491054 -0.94298708 3
-1.4554332 7.6806111 -0.95984304 2
-1.9118315 10.127761 -0.90171331 9
-3.2013235 17.00758 -0.90698218 19
-5.3457551 28.482265 -0.50584054 25
-8.3124266 43.410587 0.77150106 19
-8.2840929 43.385582 2.3148196 43
-8.2423515 43.289989 3.8554215 21
-8.2038784 43.252235 5.4053936 24
-8.1738415 43.21756 6.9663405 35
-8.1390295 43.157234 8.5367947 68
-8.1051035 43.142582 10.134496 48
nan nan nan nan
-0.63902229 3.4613411 -0.94313669 5
-0.73662227 4.0017376 -0.93939567 4
-0.86994517 4.7446213 -0.93763542 4
-1.0618032 5.8081431 -0.93516535 3
-1.3829111 7.587081 -0.94692487 2
-1.7955245 9.8899374 -0.87940139 8
nan nan nan nan
-5.1141076 28.337843 -0.50262928 25
-7.9903183 43.365295 0.76968604 19
-7.9579053 43.316635 2.3081205 42
-7.9273643 43.277885 3.8493204 21
-7.8814111 43.19714 5.3915 24
-7.8507352 43.156963 6.9475684 34
-7.814785 43.08744 8.5119896 33
-7.7801557 43.067707 10.103902 48
nan nan nan nan
-0.6118049 3.4485984 -0.93847787 6
-0.70595169 3.991431 -0.9357965 4
-0.82522285 4.6848402 -0.92466044 3
-1.013029 5.7687201 -0.92765647 3
-1.3103974 7.4850945 -0.93303174 2
-1.7257515 9.8983059 -0.87905282 8
nan nan nan nan
-4.9304867 28.45561 -0.50409532 25
-7.6748266 43.349136 0.76842946 19
-7.6316977 43.237392 2.301003 42
-7.6115689 43.255646 3.8425221 21
-7.5673103 43.180717 5.3827257 24
-7.5342932 43.125099 6.9338021 34
-7.4999766 43.061649 8.4963436 33
-7.4606476 43.013451 10.078708 48
nan nan nan nan
-0.58382422 3.4299321 -0.93226624 6
-0.67089719 3.953994 -0.92589861 4
-0.78660685 4.6556435 -0.91779137 3
-0.96977836 5.7581201 -0.92484063 3
-1.2456205 7.4196687 -0.92376971 2
-1.655297 9.9022512 -0.8783555 8
-2.757776 16.550789 -0.87934875 11
-4.7035322 28.319689 -0.50109351 25
-7.355618 43.305058 0.76671916 38
-7.3156748 43.206905 2.2966068 42
-7.2888646 43.185925 3.8317149 20
-7.2449408 43.109165 5.3673701 23
-7.2186794 43.090927 6.9200363 34
-7.1846151 43.025818 8.4791708 33
-7.1461115 42.979904 10.058912 47
nan nan nan nan
-0.55893362 3.4282043 -0.93071336 5
-0.64327866 3.958581 -0.92589861 6
-0.75094968 4.6416407 -0.91397518 3
-0.91603345 5.680892 -0.91138726 3
-1.1793019 7.3380265 -0.91255772 2
-1.5751042 9.8447094 -0.87225467 8
-2.5893261 16.238287 -0.86176395 16
-2.9819407 18.763638 -0.33163062 25
-7.036737 43.254692 0.76493895 19
-7.0099978 43.233265 2.2953506 42
-6.9722323 43.143318 3.8235223 20
-6.9337354 43.095974 5.35957 23
-6.9014287 43.038841 6.9037671 34
-6.8744793 43.014828 8.4673405 66
-6.8354702 42.963314 10.043615 47
nan nan nan nan
-0.52992833 3.3995731 -0.9219135 7
-0.61143893 3.9360163 -0.91960001 4
-0.71312857 4.611846 -0.90710598 3
-0.86672682 5.6246738 -0.90137547 3
-1.1141881 7.2558246 -0.90134573 2
-1.5125819 9.8847437 -0.87486929 8
-2.4530427 16.105906 -0.85380888 5
-2.8604748 18.847263 -0.33274758 16
-6.7228923 43.22768 0.76361257 18
-6.6884241 43.154839 2.2886517 42
-6.661438 43.129898 3.8181188 20
-6.6206346 43.06485 5.3498211 23
-6.5923963 43.031303 6.8950062 34
-6.5547328 42.935627 8.4425354 33
-6.5296812 42.92215 10.02337 47
nan nan nan nan
-0.50589609 3.4012792 -0.92139584 5
-0.5779441 3.8997078 -0.91015196 4
-0.68028402 4.606883 -0.90519798 3
-0.82036686 5.5757222 -0.8926152 3
-1.0508517 7.1770034 -0.89062124 2
-1.4510146 9.9463224 -0.87940139 8
-2.2181087 15.260479 -0.80817193 4
-2.7377093 18.928125 -0.33382961 17
-6.4108844 43.153759 0.7615183 18
-6.3857703 43.140091 2.2855115 42
-6.3477073 43.090599 3.8106234 20
-6.3163924 43.034279 5.340559 23
-6.2856383 42.981361 6.8799887 33
-6.2466259 42.924 8.431469 65
-6.2144885 42.860619 9.9986248 47
nan nan nan nan
-0.47975099 3.3836036 -0.91570181 3
-0.54948014 3.890044 -0.90700269 4
-0.64182317 4.5668039 -0.89642078 3
-0.77485007 5.5343623 -0.88510633 2
-0.9926517 7.1171436 -0.88233411 2
-1.3889298 10.009494 -0.88410783 8
-2.0912719 15.129189 -0.80042619 4
-2.657896 19.302904 -0.34011251 8
-6.1027369 43.149944 0.76068062 18
-6.0738511 43.108467 2.281534 41
-6.0426192 43.049934 3.803302 20
-6.0023499 42.980995 5.3286157 23
-5.9734426 42.938107 6.8662224 33
-5.9413905 42.872173 8.4131508 32
-5.9034233 42.818012 9.9788294 46
nan nan nan nan
-0.45147619 3.3524084 -0.90638429 7
-0.52101374 3.8841283 -0.90475321 4
-0.60499173 4.5341992 -0.88916999 5
-0.73229063 5.5102644 -0.88041329 2
-0.93304223 7.049119 -0.87307209 2
-1.2976966 9.8569689 -0.86981428 4
-1.9643145 14.981033 -0.79184312 4
-2.5572603 19.582726 -0.34471995 9
-5.7901649 43.108253 0.75921458 18
-5.7568588 43.031044 2.2752535 41
-5.7306108 43.006153 3.7958069 20
-5.691967 42.945107 5.3191099 23
-5.6626744 42.896511 6.8530817 33
-5.6342645 42.85421 8.4017019 32
-5.5950041 42.78669 9.962183 46
nan nan nan nan
-0.42610684 3.3401477 -0.9022432 6
-0.49069387 3.8625393 -0.8989045 2
-0.57160002 4.5246782 -0.88649869 5
-0.68764001 5.4662437 -0.8725915 2
-0.87689877 7.0003095 -0.86624736 2
-1.2281059 9.8458014 -0.86807114 4
-1.8468964 14.891315 -0.7864002 4
-3.6366093 29.447783 -0.51791763 27
-5.4784727 43.064316 0.7577486 18
-5.4507823 43.026592 2.2729506 41
-5.4210048 42.971966 3.7893572 19
-5.3836145 42.916828 5.310823 23
-5.3547378 42.868355 6.8424444 33
-5.3250127 42.812626 8.3860559 32
-5.2962093 42.763832 9.9482365 46
nan nan nan nan
-0.40092754 3.3276975 -0.89810216 7
-0.46069729 3.8407176 -0.89305574 1
-0.53636497 4.4914255 -0.8792479 5
-0.64062172 5.3884125 -0.85945106 2
-0.81729227 6.9155774 -0.85503536 2
-1.1244196 9.5573244 -0.84192449 4
-1.7543199 14.978922 -0.79037774 9
-2.5273039 21.710064 -0.3815096 12
-5.178309 43.04303 0.75673634 36
-5.148303 42.983376 2.268764 41
-5.1095653 42.913807 3.7809906 19
-5.0829515 42.881512 5.3020477 23
-5.0540204 42.829262 6.8305554 33
-5.0166178 42.768814 8.37041 64
-4.9878135 42.71653 9.9288902 46
nan nan nan nan
-0.37739679 3.3226712 -0.89603156 7
-0.43038607 3.8069725 -0.8845076 2
-0.50192732 4.4677472 -0.8739053 5
-0.60123181 5.377048 -0.85694808 2
-0.76153612 6.8540344 -0.84674829 2
-1.0467204 9.4659252 -0.83320886 3
-1.6280755 14.794261 -0.78001517 18
-2.3539526 21.528393 -0.37801915 12
-4.8655162 42.970837 0.75485152 18
-4.8391294 42.938881 2.2645769 41
-4.8126769 42.90601 3.7773297 19
-4.7740231 42.831116 5.2915673 22
-4.7470727 42.79282 6.8192921 32
-4.7101693 42.73254 8.3566713 32
-4.6833124 42.694134 9.915843 46
nan nan nan nan
-0.35279354 3.3176026 -0.89396101 8
-0.40108249 3.7905757 -0.88000858 4
-0.46661532 4.4320927 -0.86627293 5
-0.55945194 5.3497782 -0.85194218 2
-0.70257407 6.7525644 -0.83358634 2
-0.9666602 9.3382406 -0.8213557 3
-1.4950016 14.54129 -0.76609379 9
-2.2056229 21.564196 -0.37836817 12
-4.5597043 42.950062 0.75390905 18
-4.5242219 42.900902 2.2608089 41
-4.496398 42.852165 3.7696602 19
-4.4695101 42.812073 5.2852302 22
-4.4333978 42.754955 6.8080287 32
-4.4061046 42.709702 8.3459854 31
-4.3758063 42.634678 9.8946981 45
nan nan nan nan
-0.32580644 3.2815368 -0.88360828 7
-0.37269431 3.7738903 -0.87550956 4
-0.43258908 4.4118714 -0.8616935 5
-0.51844943 5.3161988 -0.84599775 2
-0.64813596 6.6822233 -0.82432431 2
-0.87957066 9.1346979 -0.80287874 3
-1.3831668 14.444012 -0.76044154 9
-2.0648808 21.682585 -0.38018322 12
-4.2471261 42.929859 0.75300157 18
-4.21911 42.875793 2.2578781 41
-4.1910868 42.821041 3.7642565 19
-4.1551881 42.761951 5.2752371 22
-4.1287236 42.721947 6.798017 32
-4.0997505 42.655388 8.3295765 31
-4.0657954 42.61446 9.8830004 45
nan nan nan nan
-0.3014695 3.2683418 -0.87946719 7
-0.34455878 3.7569942 -0.87101054 5
-0.40017644 4.3971868 -0.8582589 3
-0.47544858 5.2547665 -0.83567303 2
-0.59684551 6.6351805 -0.81798708 2
-0.81117636 9.0890179 -0.79834664 3
-1.2627032 14.232489 -0.74882293 13
-1.9341872 21.931522 -0.38430199 12
-3.940383 42.88279 0.75167519 18
-3.9142466 42.844528 2.2547379 41
-3.8853893 42.775833 3.7578068 19
-3.8515425 42.734562 5.2684121 22
-3.8229427 42.667095 6.7848763 32
-3.7962658 42.620396 8.3173647 31
-3.7630448 42.583569 9.869503 45
nan nan nan nan
-0.27848083 3.2684419 -0.87894952 5
-0.31569085 3.7282395 -0.86381209 5
-0.36667573 4.3666158 -0.85177141 5
-0.4353022 5.2166176 -0.82910275 5
-0.54296297 6.5481839 -0.80677515 2
-0.72965413 8.8560495 -0.77742916 3
-1.1659195 14.272807 -0.7504977 17
nan nan nan nan
nan nan nan nan
-3.6126904 42.842949 2.2532725 41
-3.5820043 42.746326 3.7529261 19
-3.5486875 42.706993 5.2618313 22
-3.521564 42.651405 6.778306 32
-3.494132 42.591072 8.3066788 31
-3.6147766 44.346558 10.272165 50
nan nan nan nan
-0.25339755 3.2414169 -0.87118495 3
-0.28874996 3.7186952 -0.86111265 6
-0.33588788 4.3553085 -0.84910011 5
-0.39721903 5.185977 -0.82378399 5
-0.49122283 6.4726391 -0.79702556 2
-0.65583086 8.7019882 -0.7634843 3
-1.0651562 14.232613 -0.74798554 17
-2.1965621 29.628164 -0.51858079 54
nan nan nan nan
-3.3145041 42.782909 2.2488763 40
-3.2784588 42.704739 3.747174 19
-3.2524743 42.658901 5.253057 22
-3.2261121 42.60741 6.7676682 32
-3.3269913 44.350952 8.645174 35
-3.4710052 46.597794 10.787753 57
nan nan nan nan
-0.23022996 3.2276509 -0.86704385 13
-0.26205629 3.7011354 -0.85661364 6
-0.30204159 4.3085856 -0.83955961 5
-0.35839933 5.1511817 -0.81783944 2
-0.44360119 6.4243422 -0.7906884 2
-0.59250098 8.6466179 -0.758255 3
-0.97415382 14.363246 -0.75447518 22
-1.9913473 29.590555 -0.51767325 53
nan nan nan nan
-3.0112507 42.741253 2.2455268 40
-2.9850597 42.688301 3.7438619 19
-2.9505839 42.623138 5.2459879 22
-2.9257143 42.587513 6.7610984 31
-3.1773636 46.60746 9.0806007 40
nan nan nan nan
nan nan nan nan
-0.20992145 3.2638812 -0.87636131 15
-0.23596121 3.6989853 -0.85571384 5
-0.27097154 4.2831111 -0.83421695 5
-0.32172003 5.1278729 -0.81377214 5
-0.39468685 6.3619003 -0.78264499 2
-0.52600944 8.5511122 -0.74953938 3
-0.88949448 14.584848 -0.76577979 18
-1.7817093 29.553833 -0.51680064 26
nan nan nan nan
-2.7159593 42.692989 2.2419679 40
-2.6829634 42.64447 3.7382841 18
-2.6584311 42.610535 5.2420888 22
nan nan nan nan
-2.941458 48.092319 9.3656693 44
nan nan nan nan
nan nan nan nan
-0.18559505 3.2285895 -0.86652619 27
-0.20124878 3.5331855 -0.81702226 4
-0.23985015 4.2633371 -0.83001924 3
-0.28228539 5.0649076 -0.80344748 2
-0.34972906 6.3347082 -0.7789889 2
-0.45631802 8.3715477 -0.73350269 3
-0.79378802 14.704381 -0.77174604 9
-1.5815685 29.585247 -0.51714975 26
nan nan nan nan
-2.4160337 42.679008 2.2402933 40
-2.3881662 42.582176 3.7313113 18
nan nan nan nan
nan nan nan nan
-2.7322643 50.287231 9.7892647 48
nan nan nan nan
nan nan nan nan
-0.1617845 3.2047248 -0.85979694 30
-0.18153654 3.6337664 -0.83996731 4
-0.20863378 4.2354941 -0.82429492 5
-0.24499573 5.0272937 -0.79719013 2
-0.30243716 6.2735457 -0.77118921 2
-0.39521515 8.3188057 -0.72862202 3
-0.68380135 14.55395 -0.76358169 4
nan nan nan nan
-1.3056226 26.043325 0.45515877 34
-2.1128531 42.591106 2.2348504 40
nan nan nan nan
-2.1325161 44.075062 5.4180679 24
-2.4053562 50.259274 7.9693985 49
-2.5554504 53.987949 10.505943 55
nan nan nan nan
nan nan nan nan
-0.13982701 3.2154262 -0.86238509 31
-0.15490726 3.605741 -0.83321875 5
-0.17856197 4.2250781 -0.82200515 12
-0.20907128 5.0091453 -0.79406142 4
-0.25544721 6.1981525 -0.76168346 2
-0.33259141 8.1739883 -0.71572298 2
-0.55727977 13.935721 -0.73092401 4
nan nan nan nan
-1.1280954 26.151695 0.45690399 59
nan nan nan nan
nan nan nan nan
nan nan nan nan
-2.1569886 52.785427 8.3673677 53
-2.2819848 56.57032 11.0051 59
nan nan nan nan
nan nan nan nan
-0.11737569 3.2163241 -0.86238509 30
-0.12966062 3.6047871 -0.83276886 9
-0.14882296 4.1987276 -0.81666255 4
-0.17365795 4.9729428 -0.78811693 4
-0.21046942 6.1501861 -0.75559002 2
-0.27376962 8.1243391 -0.71119088 2
-0.44876799 13.527984 -0.70936161 4
nan nan nan nan
-0.95274538 26.232708 0.45819548 25
-1.58002 44.141117 2.3148196 43
-1.5471747 44.084362 3.8592563 21
nan nan nan nan
-1.4946477 43.899044 6.9569545 35
nan nan nan nan
nan nan nan nan
nan nan nan nan
-0.094677754 3.1900146 -0.85513818 35
-0.10461115 3.5880549 -0.82871974 23
-0.11733072 4.1231284 -0.80177945 14
-0.13778012 4.9325671 -0.78154671 4
-0.16778858 6.1217108 -0.75193387 2
-0.2139589 8.0105333 -0.7010808 2
-0.34427586 13.147445 -0.68926466 4
nan nan nan nan
nan nan nan nan
nan nan nan nan
nan nan nan nan
nan nan nan nan
nan nan nan nan
nan nan nan nan
nan nan nan nan
nan nan nan nan
-0.072362632 3.1886661 -0.85462052 43
-0.079517774 3.5867493 -0.82826984 31
-0.088711575 4.1316981 -0.80330586 19
-0.10238946 4.8879852 -0.7743507 7
-0.12342554 6.0433459 -0.74218434 2
-0.15583308 7.90028 -0.69131935 2
-0.24504873 12.76213 -0.66895825 3
nan nan nan nan
nan nan nan nan
nan nan nan nan
nan nan nan nan
-0.90379965 43.879101 5.3888192 48
nan nan nan nan
nan nan nan nan
nan nan nan nan
nan nan nan nan
-0.050158963 3.1929569 -0.85565579 37
-0.053793341 3.5424013 -0.81792206 31
-0.059068426 4.0772519 -0.7926206 22
-0.067407385 4.8273501 -0.76465172 2
-0.080565095 5.9944377 -0.7360909 2
-0.1005614 7.7856088 -0.68120927 2
-0.1526766 12.495918 -0.65493226 3
nan nan nan nan
nan nan nan nan
nan nan nan nan
-0.62752879 43.844021 3.8362472 20
nan nan nan nan
nan nan nan nan
nan nan nan nan
nan nan nan nan
nan nan nan nan
-0.028035276 3.2125471 -0.86083221 31
-0.02896549 3.5309985 -0.81522268 35
-0.031359263 4.0834489 -0.79376549 30
-0.034744926 4.8553519 -0.76903194 13
-0.038291033 5.9293475 -0.72804755 2
-0.045779515 7.714397 -0.67493409 2
-0.06545458 12.09722 -0.6339978 3
-0.18402544 39.049625 -0.68162119 52
-0.33520439 39.192596 0.6841343 14
nan nan nan nan
nan nan nan nan
nan nan nan nan
-0.27504432 43.773491 6.9331765 34
nan nan nan nan
nan nan nan nan
nan nan nan nan
-0.0061244853 3.189481 -0.85462052 31
-0.0049562082 3.5486526 -0.8192718 19
-0.0028314609 4.0560822 -0.78842276 37
-0.00084181584 4.8238702 -0.76402605 15
0.002051706 5.8778582 -0.72171032 2
0.0079947896 7.6348324 -0.6679616 2
0.018443132 11.741872 -0.61536622 3
0.081798472 39.057964 -0.68176085 52
-0.06529931 41.573616 0.72567105 16
nan nan nan nan
nan nan nan nan
0.0076173381 43.763348 5.3734636 24
nan nan nan nan
nan nan nan nan
nan nan nan nan
nan nan nan nan
0.015831055 3.1276278 -0.83805609 30
0.019808985 3.5466518 -0.81882185 26
0.025384791 4.040298 -0.78536987 35
0.032187503 4.7289424 -0.7490083 24
0.042778481 5.8360147 -0.71659178 2
0.060208064 7.4991126 -0.65610844 2
0.097102791 11.354003 -0.59505987 3
0.35396436 39.000458 -0.68078351 52
0.21338543 39.437412 0.6883927 14
nan nan nan nan
0.28272623 43.779854 3.8303206 20
nan nan nan nan
nan nan nan nan
nan nan nan nan
nan nan nan nan
nan nan nan nan
0.037456248 3.1100559 -0.83339739 41
0.044079036 3.5074553 -0.80982387 26
0.053512648 4.034133 -0.78422499 29
0.063460112 4.6021905 -0.72898471 19
0.083438046 5.8296189 -0.71586055 2
0.11030579 7.4347792 -0.65053046 2
0.17170757 11.053496 -0.57935911 3
0.62544107 38.949047 -0.67994577 52
0.48313609 38.987068 0.68057406 14
nan nan nan nan
0.58775043 43.732986 3.8264856 20
nan nan nan nan
nan nan nan nan
nan nan nan nan
nan nan nan nan
nan nan nan nan
0.058835387 3.0923347 -0.82873863 30
0.068372488 3.4973204 -0.80757433 22
0.079985894 3.9846039 -0.77468461 22
0.094538555 4.5898023 -0.72710747 19
0.12286647 5.7693553 -0.70854843 2
0.1602083 7.3421998 -0.64251208 2
0.23927388 10.708629 -0.56135553 3
0.89689928 38.92374 -0.67959672 52
0.74521905 38.810936 0.67757225 14
nan nan nan nan
nan nan nan nan
nan nan nan nan
0.93658847 43.622066 6.9106498 34
nan nan nan nan
nan nan nan nan
nan nan nan nan
0.080731146 3.1246932 -0.83753842 27
0.092073761 3.492878 -0.80667454 22
0.10727067 3.9643228 -0.77086836 30
0.12625229 4.5771823 -0.72523028 23
0.15995656 5.6909976 -0.69904256 2
0.20939387 7.2692065 -0.63623691 2
0.30758235 10.487093 -0.54984158 3
1.1589417 38.820789 -0.6779213 52
1.0161338 38.804787 0.67757225 14
nan nan nan nan
nan nan nan nan
1.2183518 43.617302 5.3576207 23
nan nan nan nan
nan nan nan nan
nan nan nan nan
nan nan nan nan
0.10190988 3.1047451 -0.83236206 26
0.11613165 3.4824119 -0.80442506 23
0.13420941 3.9418941 -0.76667058 34
0.15690723 4.5386801 -0.71928573 24
0.19571473 5.5766616 -0.68514949 2
0.25685894 7.1759763 -0.62821859 2
0.370785 10.209249 -0.53539687 3
1.3891459 37.704674 -0.658584 49
1.286222 38.772766 0.67715341 14
nan nan nan nan
1.4938304 43.651611 3.8212564 20
nan nan nan nan
nan nan nan nan
nan nan nan nan
nan nan nan nan
nan nan nan nan
0.12196866 3.0634217 -0.82149172 28
0.14059772 3.4854102 -0.80532485 23
0.16108176 3.9251683 -0.76361769 26
0.18694875 4.4980001 -0.71302837 24
0.23263903 5.5275593 -0.67929977 2
0.30179662 7.0824947 -0.62020022 3
0.42511117 9.8153152 -0.51488119 3
nan nan nan nan
1.5565544 38.754848 0.67701381 14
nan nan nan nan
nan nan nan nan
nan nan nan nan
1.845252 43.482365 6.8931293 34
nan nan nan nan
nan nan nan nan
nan nan nan nan
0.14452668 3.0875819 -0.82822096 26
0.16391353 3.4629316 -0.80037588 22
0.18535572 3.8729947 -0.75369561 31
0.21708407 4.4867582 -0.71146405 30
0.26771957 5.4544225 -0.67052519 2
0.34866774 7.0284767 -0.61566812 3
0.47891188 9.5528765 -0.50127381 3
nan nan nan nan
1.8199395 38.735367 0.6768741 14
nan nan nan nan
nan nan nan nan
nan nan nan nan
2.1403103 43.451042 6.8903131 33
nan nan nan nan
nan nan nan nan
nan nan nan nan
0.16450526 3.0672357 -0.8230446 27
0.18695427 3.4520061 -0.7981264 24
0.21217287 3.8676856 -0.75293231 31
0.24741702 4.4673824 -0.7086482 20
0.30140281 5.3910322 -0.66296923 2
0.39434904 6.9661951 -0.61043882 3
0.5401234 9.4535885 -0.49624959 3
nan nan nan nan
2.0883787 38.685772 0.67624581 14
nan nan nan nan
nan nan nan nan
2.5812333 46.313778 5.6954422 28
nan nan nan nan
nan nan nan nan
nan nan nan nan
nan nan nan nan
0.1850961 3.0525146 -0.81942111 28
0.20985959 3.4311659 -0.79362738 28
0.23953474 3.8719885 -0.7540772 27
0.27540326 4.4142861 -0.7005136 26
0.334672 5.3194556 -0.65443844 2
0.43285012 6.804203 -0.5964939 3
0.59715515 9.3100653 -0.48892254 3
nan nan nan nan
2.3569262 38.646301 0.67582703 14
nan nan nan nan
2.6972983 43.478016 3.811146 20
nan nan nan nan
nan nan nan nan
nan nan nan nan
nan nan nan nan
nan nan nan nan
0.20600955 3.0453658 -0.81786817 22
0.23327674 3.4218404 -0.7918278 23
0.26359272 3.8271327 -0.74568158 27
0.30484644 4.392549 -0.69738495 26
0.36736947 5.2536211 -0.64663881 2
0.47529179 6.7294674 -0.59021866 3
0.64683193 9.0905094 -0.47761798 3
nan nan nan nan
2.629113 38.664818 0.67645526 14
nan nan nan nan
nan nan nan nan
3.0275986 43.405777 5.3425088 23
3.0442579 43.317867 6.8777986 33
nan nan nan nan
nan nan nan nan
nan nan nan nan
0.22366923 2.9956911 -0.80492729 32
0.25379938 3.3754337 -0.78148001 30
0.28703433 3.7821312 -0.73728597 28
0.33550268 4.3903141 -0.69738495 24
0.3994664 5.1915512 -0.63932663 2
0.51670808 6.6544743 -0.58394349 3
0.70000637 8.9543543 -0.47070965 3
nan nan nan nan
2.9160514 38.872845 0.68043447 14
nan nan nan nan
nan nan nan nan
3.3279715 43.349937 5.3383651 23
3.3479695 43.313286 6.8806143 33
nan nan nan nan
nan nan nan nan
1.8062185 22.848207 6.1412582 8
0.2439485 2.9863548 -0.80285674 37
0.27671945 3.3658106 -0.77968037 15
0.31164709 3.7585135 -0.7330882 31
0.36253086 4.3445568 -0.69050181 24
0.43304279 5.1569858 -0.63542682 4
0.55393618 6.5555077 -0.57557648 3
0.74758136 8.7741251 -0.46149853 3
nan nan nan nan
nan nan nan nan
nan nan nan nan
nan nan nan nan
nan nan nan nan
nan nan nan nan
nan nan nan nan
1.9512054 22.853527 5.2953482 9
2.6297352 30.549374 8.2159519 17
0.26581556 2.9961247 -0.8059625 30
0.29830498 3.3424456 -0.77473152 22
0.33652112 3.7484832 -0.73156172 31
0.38427794 4.2554245 -0.67673558 30
0.46543655 5.1142988 -0.63055205 4
0.59424037 6.4919581 -0.57034713 3
0.79593134 8.645525 -0.45500883 6
1.6055202 17.307043 -0.30339265 6
3.9669886 44.625202 0.78200746 20
nan nan nan nan
3.9071934 43.352016 3.8081827 20
nan nan nan nan
nan nan nan nan
3.0628853 33.333065 6.506587 15
2.8269467 30.589592 7.0922575 17
2.8370962 30.524994 8.2143993 17
0.28197563 2.9500148 -0.79405683 26
0.31750703 3.3034813 -0.76618332 20
0.36097956 3.7284555 -0.72812718 36
0.41072345 4.2192144 -0.67141682 22
0.4946301 5.0537181 -0.6234836 1
0.62866026 6.3886223 -0.56163162 3
0.84701514 8.5463428 -0.45008928 3
1.5357406 15.413321 -0.27037269 11
4.2791767 44.604382 0.78214705 20
nan nan nan nan
nan nan nan nan
4.4972005 46.031506 5.6788683 28
nan nan nan nan
3.0315311 30.697325 5.9959822 72
3.0345061 30.563824 7.0909076 34
3.0533845 30.537123 8.2231989 17
0.29999825 2.9229918 -0.78732753 52
0.33816066 3.2779231 -0.76078451 16
0.38493082 3.7122428 -0.72545588 25
0.43881696 4.2104273 -0.67047822 21
0.52472085 5.0007858 -0.61739016 3
0.66990274 6.3523755 -0.5588426 3
0.89842856 8.4768238 -0.44673976 3
1.5626847 14.646629 -0.25710884 10
4.5532622 44.287773 0.77712077 19
nan nan nan nan
nan nan nan nan
4.5211658 43.233795 5.3373899 23
2.4018092 22.851711 3.639292 7
3.2468126 30.685175 5.9978905 84
3.2434952 30.501198 7.0814595 17
3.2583144 30.488737 8.2159519 17
0.31934401 2.9112244 -0.78473938 58
0.3606112 3.2716084 -0.75988472 18
0.40867123 3.6840267 -0.72049481 36
0.4656525 4.177731 -0.66578513 21
0.5554201 4.9595184 -0.61275911 1
0.70641708 6.2682252 -0.55187017 3
0.94490761 8.34515 -0.44014546 3
1.5824003 13.910151 -0.2443686 14
4.8709369 44.262009 0.77726042 19
nan nan nan nan
5.1160326 46.045689 4.0532646 25
2.5524173 22.827248 2.8203006 7
3.4335196 30.562378 4.871057 13
3.4613824 30.665665 5.9986534 60
3.4612193 30.473337 7.0805597 100
3.4744177 30.447369 8.2112932 17
0.34078205 2.9185181 -0.78732753 42
0.38094527 3.2477207 -0.7549358 18
0.43300015 3.6693852 -0.71820509 39
0.49015677 4.1351457 -0.65952778 22
0.58252245 4.8924417 -0.60495949 1
0.74589539 6.2275319 -0.54873258 3
0.98739976 8.2074747 -0.43323711 3
1.6329342 13.513626 -0.23759706 18
5.1779432 44.211037 0.77698112 19
nan nan nan nan
3.6199865 30.63102 2.6985161 9
3.6383584 30.603039 3.7840433 35
3.6510179 30.572969 4.8766885 27
4.7853184 39.89399 7.8101945 25
3.6748128 30.456169 7.0823593 86
3.6873603 30.426207 8.2123289 17
0.35996026 2.9064817 -0.78473938 47
0.39879724 3.2063057 -0.74593776 25
0.4573901 3.6565325 -0.71629703 13
0.5165534 4.1120224 -0.65639907 22
0.61542171 4.8784089 -0.60374081 3
0.77174109 6.091856 -0.53722799 6
1.0254886 8.0498066 -0.42528203 6
1.6655775 13.019898 -0.22911519 17
5.4440751 43.832485 0.7709775 19
4.1523771 33.289993 1.7581743 22
3.8349814 30.614885 2.6993876 9
3.8504305 30.565073 3.7825811 23
3.8648643 30.550653 4.8773141 27
4.0567117 31.932871 6.2570086 13
3.8830225 30.438181 7.0841589 86
3.901406 30.413134 8.2159519 17
0.38099501 2.9096446 -0.78629225 31
0.41634527 3.166733 -0.73738962 31
0.4799546 3.6358173 -0.71286243 22
0.54245281 4.0927458 -0.65389615 22
0.63950092 4.799221 -0.59447873 16
0.80209845 5.9954786 -0.52920967 3
1.0616506 7.9040756 -0.41795498 2
0.75325388 5.5785174 -0.09825705 10
5.3450866 40.764809 0.71764296 15
nan nan nan nan
4.0509872 30.605139 2.7009563 9
4.0604835 30.553898 3.7845309 11
4.0737715 30.531469 4.8785658 13
4.2787485 31.897938 6.2558641 13
4.0943718 30.402609 7.0823593 86
4.1077995 30.382048 8.2149172 17
0.39709899 2.8801911 -0.7790454 21
0.44029701 3.1811986 -0.74143875 25
0.50099742 3.6012657 -0.70675659 18
0.5669142 4.0595131 -0.64920312 22
0.66333234 4.7318487 -0.58667904 14
0.83566868 5.9385839 -0.52467757 6
0.78453016 5.5471082 -0.29360473 25
0.78446001 5.5257449 -0.097419336 27
1.493906 10.807577 0.19044067 1
nan nan nan nan
4.2553539 30.549232 2.6985161 19
4.2736912 30.524807 3.7845309 23
4.2835231 30.478811 4.8748112 13
4.3213634 30.631683 6.013155 24
4.3020558 30.379822 7.0837092 52
4.3222704 30.369841 8.2195759 17
0.41220576 2.8429353 -0.76972789 18
0.46305498 3.1819043 -0.74233854 32
0.51954025 3.5569766 -0.69874257 16
0.59310079 4.0457878 -0.6476388 29
0.69085622 4.6897883 -0.582048 17
0.8348574 5.6468148 -0.4994024 9
0.82491094 5.5594196 -0.29454678 52
0.82213318 5.5142002 -0.097314619 31
1.5671442 10.795181 0.19040576 3
4.4696212 30.675543 1.6246129 17
4.467658 30.512865 2.697993 59
4.4825087 30.502869 3.785506 35
4.4914489 30.452862 4.8754373 27
4.5322146 30.58135 6.0093389 36
4.5355301 30.493614 7.1174517 70
4.5257401 30.318701 8.2138815 17
0.42429084 2.7923155 -0.75678688 24
0.48352623 3.1709728 -0.7405389 16
0.54019767 3.526094 -0.69339991 16
0.61502784 4.0005469 -0.64106852 16
0.7241841 4.6887751 -0.58253551 15
0.85503203 5.5168095 -0.48842075 45
0.86247259 5.5456319 -0.29412812 35
0.86092091 5.5103021 -0.097349517 42
1.6159792 10.610008 0.18733412 1
2.1705763 14.201364 0.75290513 10
4.6752496 30.481749 2.697993 59
4.6965585 30.478678 3.7864809 23
4.7063699 30.436377 4.8779402 13
4.7603693 30.644022 6.028038 12
4.7501059 30.472761 7.1201515 17
4.7384882 30.294001 8.2159519 17
0.45003623 2.8254561 -0.76662207 18
0.50097823 3.1347182 -0.73289061 13
0.56076044 3.4970365 -0.68843889 26
0.63924158 3.9687402 -0.63668835 21
0.74549925 4.6130571 -0.57376093 19
0.89480138 5.5185728 -0.48911804 36
0.89956576 5.5235476 -0.2932907 52
0.9000113 5.5081048 -0.097419336 57
1.5706686 9.8500395 0.17410521 1
2.2370803 13.966562 0.74128658 16
4.8957815 30.463249 2.6993876 59
4.9085932 30.441229 3.7859933 11
4.9249802 30.407772 4.8788786 13
4.9779682 30.633297 6.0326176 12
5.5516343 34.050896 7.9650674 24
4.9598289 30.287914 8.2237167 17
0.46562591 2.7974725 -0.75989276 31
0.52188605 3.1253779 -0.73154086 22
0.58739376 3.5026155 -0.69034702 17
0.66201705 3.9349606 -0.63199526 17
0.76777524 4.5490179 -0.56644875 22
0.93264127 5.5082622 -0.48876941 57
0.93844038 5.5191021 -0.2933954 60
0.93844324 5.501687 -0.097419336 31
1.5657697 9.386858 0.16611201 1
2.3388162 13.976213 0.74264729 9
5.1109743 30.444046 2.7007821 59
5.1256399 30.401409 3.785506 35
5.1371465 30.372648 4.8788786 27
5.3815355 31.71657 6.2531929 13
5.1747856 30.401546 7.1197014 52
5.1724591 30.260166 8.2257872 17
0.48448503 2.7903466 -0.75885749 29
0.54402852 3.1235781 -0.73199081 33
0.60547781 3.4656584 -0.68385947 16
0.68469447 3.9070151 -0.62824088 17
0.79676032 4.5279069 -0.5644989 15
0.97626555 5.5310483 -0.49138409 39
0.97842336 5.5263529 -0.29412812 45
0.97752947 5.4989395 -0.097489148 29
1.4816937 8.5248756 0.15103312 1
2.394439 13.733699 0.73061001 26
5.3350706 30.47435 2.7067087 9
5.3365774 30.389278 3.7884309 23
5.3454814 30.346706 4.8804431 27
5.3836522 30.439013 6.0085754 48
5.3739662 30.291765 7.1026049 35
5.3854218 30.264198 8.2366571 17
0.50071836 2.771776 -0.75471634 37
0.55485296 3.0622773 -0.71849376 23
0.62544149 3.4381685 -0.67928004 17
0.71124476 3.8982527 -0.62761515 19
0.82506329 4.508709 -0.56279266 15
1.0090983 5.492744 -0.4885951 9
1.0166187 5.5174232 -0.29402342 40
1.0127566 5.48036 -0.097279713 40
1.4581835 8.0558443 0.1429003 3
2.4824171 13.673413 0.72830725 22
5.5413089 30.431448 2.7061858 9
5.5507321 30.363001 3.7898932 24
5.5593338 30.320307 4.8823199 13
5.5750818 30.316706 5.9917846 24
5.5899115 30.278423 7.1084538 17
5.5983329 30.235363 8.2392454 17
0.51541978 2.7435303 -0.74798709 39
0.5715276 3.0334337 -0.71264499 32
0.64650875 3.4182861 -0.67622709 17
0.73255062 3.8621407 -0.62260926 18
0.83945411 4.4131336 -0.55158067 32
1.0354625 5.4229398 -0.48301712 6
1.056991 5.5199995 -0.29454678 62
1.054386 5.4908299 -0.097593859 51
1.4407811 7.6543956 0.13595425 1
2.5800381 13.667525 0.72893524 13
5.7584434 30.417471 2.708452 9
5.7655354 30.339109 3.7918432 36
5.7734771 30.294336 4.88451 27
5.7877164 30.282829 5.992929 36
5.8180332 30.3267 7.1291494 17
5.8078051 30.187956 8.237175 17
0.53419203 2.7379687 -0.74746948 30
0.58932483 3.012157 -0.70859587 27
0.66316932 3.3770866 -0.66897637 13
0.75186253 3.8181691 -0.6163519 16
0.87178141 4.4149561 -0.55255568 13
1.0636107 5.3667197 -0.4786593 5
1.0947208 5.5085688 -0.29433745 40
1.0899553 5.4696078 -0.097349517 27
2.6906753 13.765361 0.24482237 5
2.6738493 13.641342 0.72851658 16
5.9748702 30.398035 2.7103693 9
5.9772162 30.298117 3.7918432 24
5.9932647 30.295925 4.8913937 27
6.0161796 30.328342 6.0101018 36
7.0288391 35.30423 8.3105917 27
6.0241027 30.175087 8.2449398 17
0.55367553 2.7360661 -0.74798709 11
0.60723776 2.9926908 -0.70499665 28
0.68477094 3.3627555 -0.66706824 15
0.77257413 3.7837946 -0.61165881 28
0.89103848 4.3523641 -0.54548723 14
1.0930322 5.3201313 -0.47517309 5
1.1311365 5.4910111 -0.29381409 40
1.1317542 5.4794903 -0.097663663 34
2.7791612 13.709003 0.24415916 34
2.7694166 13.6243 0.72862124 3
6.1917171 30.379011 2.712461 19
6.1941462 30.282881 3.7952554 24
6.206594 30.263023 4.8929577 27
6.236845 30.329832 6.0188789 36
7.3046932 35.397434 8.3443346 28
6.2381406 30.149324 8.2495985 17
0.57078153 2.7226808 -0.74539888 27
0.62691337 2.9826577 -0.70364696 25
0.69526541 3.2964213 -0.6548565 22
0.79692602 3.7686465 -0.61009449 30
0.91851801 4.3324442 -0.5437811 13
1.1152222 5.2422147 -0.46889788 2
1.1719457 5.4947 -0.29444212 50
1.1687287 5.4655886 -0.097558953 36
2.9142542 13.87714 0.24751003 27
2.8817477 13.686719 0.73301744 6
6.4131169 30.379879 2.71647 59
6.409523 30.258318 3.7976928 36
6.4218221 30.238279 4.8960867 13
6.4541597 30.312439 6.0242219 49
nan nan nan nan
6.4476609 30.101259 8.2485628 17
0.59018511 2.7205174 -0.74591655 29
0.64565021 2.9686868 -0.70139742 42
0.72161037 3.3068321 -0.65790945 24
0.8202616 3.7494829 -0.60790437 24
0.93896091 4.2813292 -0.53817511 19
1.1342399 5.1545219 -0.46175113 5
1.2102773 5.4863844 -0.29444212 40
1.2064254 5.4553432 -0.097524047 40
3.1401451 14.450501 0.2581211 16
2.9572475 13.574547 0.72809792 9
6.6276031 30.346046 2.7175162 59
6.6274085 30.24386 3.8015926 24
6.6353116 30.204285 4.8979635 13
6.671957 30.295399 6.0299463 24
6.6797819 30.230442 7.1475954 53
6.6622319 30.076263 8.2542572 17
0.6023984 2.6861706 -0.7376343 33
0.66379386 2.9526997 -0.69869804 38
0.73603988 3.2634108 -0.65027708 31
0.83944786 3.712837 -0.60289848 16
0.96882731 4.2746696 -0.53817511 14
1.1635586 5.1214252 -0.45948508 2
1.2516544 5.4914331 -0.29517484 35
1.2475969 5.4604354 -0.097768381 8
3.1852994 14.180438 0.25368819 28
3.0809009 13.682169 0.73500621 3
6.8406124 30.304867 2.7180388 9
6.8427587 30.216219 3.8040299 24
6.8530269 30.188042 4.9029694 27
6.8597865 30.144707 6.0093389 36
8.2874603 36.330563 8.6030293 30
6.8767819 30.049732 8.2599516 17
0.61677915 2.6630788 -0.73245794 24
0.67910463 2.9252145 -0.69329923 33
0.75823617 3.2583251 -0.65027708 30
0.86155987 3.6935709 -0.60070843 16
0.98778957 4.2214127 -0.53232533 21
1.1847233 5.0511055 -0.4539071 5
1.2880875 5.478898 -0.29496548 20
2.1417415 9.0814457 -0.16286586 6
3.2876122 14.183755 0.25414193 21
3.177119 13.674501 0.73573893 19
8.2604399 35.441074 3.1837993 12
7.0482903 30.16894 3.8040299 24
7.0659947 30.173399 4.9082885 13
7.0790343 30.13431 6.0169711 24
nan nan nan nan
7.0860462 30.022911 8.265645 17
0.62501949 2.6174805 -0.72106987 47
0.69582355 2.9072578 -0.69014984 40
0.77684021 3.2357709 -0.64684254 28
0.87715757 3.6452138 -0.59382528 16
1.020499 4.2279215 -0.53403151 13
1.2040315 4.9768696 -0.44798052 5
1.503746 6.2015328 -0.33442679 8
2.1833506 8.9768915 -0.16126025 3
3.3005056 13.800659 0.24768455 18
3.2548156 13.578182 0.7317614 19
8.5051947 35.399525 3.1851938 12
7.2643042 30.142159 3.8069549 24
7.2806325 30.140619 4.9111042 13
7.2966366 30.114683 6.023077 36
nan nan nan nan
7.3018694 29.998987 8.272892 18
0.64512014 2.6185684 -0.72262281 58
0.71147096 2.8813932 -0.68520099 37
0.79516512 3.2131174 -0.643408 24
0.89560562 3.6081686 -0.58881938 22
1.0389683 4.1763873 -0.52842557 14
1.239711 4.9722085 -0.44832912 2
1.5393631 6.1557364 -0.33254269 2
2.2031877 8.7907362 -0.15818861 12
3.3833754 13.722917 0.24670722 24
3.3734713 13.641792 0.73647165 9
7.4986839 30.255526 2.727103 10
7.4841309 30.12924 3.8118296 24
7.4994698 30.101164 4.9132943 27
7.514308 30.093483 6.0291829 24
nan nan nan nan
7.5271673 29.989067 8.2847977 18
0.65863347 2.5952761 -0.71744639 37
0.73301053 2.8820217 -0.68655062 32
0.81377 3.1902242 -0.6399734 39
0.91734713 3.5884318 -0.58662933 24
1.0656364 4.1594172 -0.52720684 11
1.2574099 4.8937402 -0.44205391 2
1.6042149 6.2299433 -0.33714828 5
2.2405207 8.6822004 -0.15651318 3
3.4839439 13.708046 0.24688175 21
3.0717814 12.05986 0.65221077 8
3.5476134 13.89756 1.2548684 7
7.7015076 30.082605 3.8128045 12
7.7113972 30.055729 4.914546 13
7.7290921 30.059309 6.032999 36
7.7570248 30.080803 7.1718903 54
7.7416644 29.95636 8.2904921 18
0.67282969 2.5756614 -0.71330529 34
0.75163245 2.8711786 -0.68520099 22
0.82605165 3.146487 -0.63234103 26
0.93332988 3.5475535 -0.58099771 31
1.0809826 4.1000504 -0.52062589 16
1.2691355 4.8000898 -0.4343842 5
1.5474074 5.8401861 -0.31663257 2
2.2692626 8.5465183 -0.15434909 3
3.6220708 13.845896 0.24981375 27
3.1138566 11.877769 0.64352298 8
3.6116436 13.7472 1.2435381 15
7.9254966 30.081854 3.8196292 36
7.9321456 30.043175 4.9214287 13
7.9442954 30.02549 6.0371971 36
7.9543304 29.978827 7.1606421 18
7.9565525 29.92399 8.2967033 18
0.68528056 2.5503793 -0.70761132 33
0.75848669 2.816936 -0.67350352 27
0.84646285 3.1349571 -0.6311962 28
0.94775522 3.502815 -0.57474029 36
1.105424 4.077076 -0.51867592 16
1.3067951 4.8064942 -0.43577868 2
1.6175392 5.9371552 -0.32249418 2
2.2920032 8.3954315 -0.15190575 3
3.7378695 13.891719 0.25110522 25
3.1800642 11.794032 0.64017349 14
3.7184358 13.762044 1.2471986 18
8.1394825 30.041115 3.8215792 36
8.1577387 30.046164 4.9311275 27
8.1614504 29.997715 6.0429211 24
8.1793289 29.980844 7.1745892 36
8.1759815 29.906843 8.3075743 18
0.70564038 2.5548434 -0.71019953 27
0.77241504 2.7909129 -0.66855454 19
0.86307704 3.1100543 -0.62738001 30
0.96636653 3.4751775 -0.57129872 27
1.1280015 4.0482244 -0.51599485 15
1.3371023 4.7857409 -0.43473285 5
1.6977168 6.0641961 -0.33003056 2
2.30951 8.2328968 -0.14925298 3
3.8534179 13.932742 0.25232691 28
3.2815273 11.840834 0.6439417 11
3.8085587 13.714632 1.2452812 15
8.3596458 30.021809 3.8264539 36
8.3736572 30.011314 4.9348822 13
8.3801756 29.974043 6.0497904 37
10.670853 38.064724 9.1267147 35
8.3965855 29.891811 8.3194799 18
0.71782935 2.5333791 -0.70554072 27
0.79835957 2.8119738 -0.67485321 12
0.87293428 3.0664968 -0.61974764 30
0.9758445 3.4212027 -0.56347704 28
1.1433681 4.0005727 -0.51087636 18
1.3485059 4.7059011 -0.4282833 9
1.714749 5.9721756 -0.32563433 2
2.3336546 8.1117029 -0.14733322 6
3.3622563 11.850377 0.21501365 16
3.4064107 11.982105 0.65283883 8
3.8792381 13.618173 1.2388318 18
8.5716591 30.011515 3.8323038 12
8.575778 29.966513 4.9367595 13
8.5912333 29.961208 6.0585675 37
11.010304 38.296524 9.1995993 36
8.6010704 29.857744 8.3256922 18
0.72794366 2.5023367 -0.69829381 33
0.80979156 2.7782681 -0.66810465 21
0.89487344 3.062212 -0.62012929 33
1.0102534 3.450326 -0.56942153 26
1.1673577 3.9791589 -0.50917011 18
1.3807642 4.6944609 -0.42810899 16
1.7213972 5.84128 -0.3191447 5
2.3647456 8.0089102 -0.1457625 3
3.4846056 11.96293 0.21749189 14
3.5162721 12.048146 0.65775836 9
3.9669468 13.565899 1.2365657 20
8.787672 29.973803 3.8352284 24
8.7964668 29.945715 4.9433298 28
8.8118334 29.94005 6.0665812 25
11.383268 38.577591 9.2859802 37
8.8043633 29.780298 8.3210325 18
0.74594682 2.4990451 -0.69881141 30
0.8258177 2.7613449 -0.66540527 23
0.91848516 3.063412 -0.62165576 33
1.0320435 3.4356215 -0.56817007 16
1.188244 3.948102 -0.50624532 22
1.4109609 4.6792307 -0.42758605 23
1.7517321 5.7947068 -0.31726059 5
2.4182827 7.9845519 -0.14562289 12
3.5560129 11.898076 0.21675889 12
3.6449871 12.172544 0.66592276 9
3.6344416 12.114243 1.1065294 2
9.0081501 29.949741 3.8401034 12
9.0138607 29.911943 4.9480228 14
9.0274487 29.900356 6.0711608 37
nan nan nan nan
9.0243874 29.758776 8.3324203 55
0.76733357 2.5067074 -0.70243496 28
0.84393132 2.7517867 -0.66450548 13
0.94046766 3.0608428 -0.62241894 30
1.0420365 3.3850944 -0.56097406 22
1.2175339 3.9454007 -0.50697654 19
1.4294697 4.6235824 -0.42340261 23
1.7674975 5.7063355 -0.31307372 7
2.3500307 7.568336 -0.13832778 5
3.6047125 11.768433 0.21483912 38
3.6310842 11.832401 0.6486519 5
3.7470524 12.179978 1.1148963 8
9.2223272 29.921877 3.8444905 12
9.2359076 29.910295 4.9580345 14
9.2458277 29.868494 6.0776482 37
9.2841978 29.936951 7.2362266 93
9.2404833 29.740942 8.3448439 55
0.77397513 2.4682455 -0.69311744 33
0.85388309 2.7180905 -0.65775692 22
0.96063411 3.0504575 -0.62165576 40
1.0608889 3.3626666 -0.55847108 28
1.2371824 3.9143085 -0.50405163 16
1.4502776 4.5774031 -0.42009068 26
1.7897663 5.6386514 -0.31003824 2
2.445725 7.6912789 -0.14087583 18
3.6909711 11.756337 0.21508345 26
3.7147939 11.810575 0.64886123 5
3.6963363 11.730431 1.0760248 16
9.4256163 29.839729 3.8422971 36
9.4558201 29.880871 4.9639792 28
9.460803 29.842289 6.0852809 25
12.547927 39.484329 9.5649195 41
9.4607964 29.716202 8.3562326 56
0.79236841 2.4664607 -0.69415271 31
0.86328459 2.6823831 -0.65055853 19
0.96864748 3.0025709 -0.61326015 27
1.0794806 3.3401403 -0.55596817 28
1.2498044 3.86025 -0.49820194 21
1.4938841 4.6031737 -0.42340261 19
1.8012995 5.5405459 -0.30532798 15
2.4275291 7.4534545 -0.13682686 11
3.8641877 12.013927 0.22028428 29
3.8173707 11.847087 0.65231544 14
3.7677355 11.672107 1.0730615 18
9.6538601 29.835529 3.8503404 61
9.67941 29.861111 4.9718008 14
9.6852674 29.825935 6.0955844 38
12.875147 39.55513 9.603611 41
9.6812 29.689835 8.3676205 56
0.80232376 2.4388478 -0.68794107 27
0.87711054 2.6614842 -0.6469593 49
0.984658 2.9808221 -0.6102072 42
1.0984274 3.319396 -0.55377805 35
1.2736459 3.8399026 -0.49673948 16
1.5046262 4.5283465 -0.41747603 26
1.8374156 5.5202541 -0.30490932 2
2.4624465 7.3808842 -0.13581464 23
3.9504633 11.994256 0.22042391 21
3.85618 11.68738 0.64498836 8
3.8547633 11.662543 1.0746303 16
9.8768978 29.812632 3.8561902 61
9.8938665 29.811556 4.9749293 14
9.9133224 29.800575 6.1047435 38
13.159587 39.49017 9.6099091 42
9.8986225 29.652679 8.37642 37
0.82098895 2.4367056 -0.68897635 30
0.88616234 2.625597 -0.63976085 28
1.0048152 2.9720154 -0.60982555 27
1.1208843 3.307709 -0.55315232 33
1.2991445 3.8271585 -0.496252 21
1.5349181 4.5139599 -0.41712737 19
1.8620516 5.4634843 -0.30250186 2
2.4809678 7.2669969 -0.13403448 17
4.0347471 11.968277 0.22045881 23
3.9294846 11.629212 0.64331365 11
3.9246993 11.595029 1.0709697 18
10.098812 29.784309 3.8615522 61
10.118381 29.773659 4.9805613 14
10.133781 29.767809 6.1123753 25
10.169308 29.82098 7.2740178 19
10.14055 29.668833 8.4012671 19
0.83294356 2.4163034 -0.68483526 33
0.91146743 2.6396086 -0.64470977 24
1.0164255 2.9369197 -0.6041013 26
1.143949 3.299803 -0.55315232 26
1.3160636 3.7898672 -0.49259594 22
1.5552664 4.4711432 -0.4141641 15
1.8902836 5.4220634 -0.30093178 2
2.5065844 7.1777606 -0.1327081 17
4.1281152 11.961782 0.22087765 25
4.0621276 11.75062 0.65158272 8
4.0368462 11.657718 1.0793368 18
10.315607 29.739338 3.8649645 61
10.3474 29.763866 4.9908857 14
10.351684 29.726002 6.1184816 38
10.363129 29.708775 7.2641196 18
10.357559 29.642893 8.4136906 19
0.85258162 2.419688 -0.68742341 34
0.93071085 2.6370187 -0.64560956 25
1.0422839 2.9465914 -0.6075359 33
1.1584655 3.2695971 -0.54939789 26
1.3331987 3.7565012 -0.48942733 18
1.5689803 4.4135208 -0.40980628 13
1.8882685 5.2999487 -0.29486081 2
2.5143847 7.0456471 -0.13057891 19
nan nan nan nan
4.1333675 11.698217 0.650222 23
4.1161041 11.62997 1.0793368 20
10.54433 29.743271 3.8747141 37
10.567613 29.743002 4.9993334 28
10.574846 29.714041 6.1306934 25
10.576234 29.668755 7.2717681 37
10.61366 29.724527 8.4571714 58
0.87099427 2.4192822 -0.68897635 31
0.94467115 2.6196234 -0.64291012 23
1.062318 2.9394281 -0.6075359 27
1.1746444 3.2449186 -0.5465821 15
1.3526475 3.7305434 -0.48723367 13
1.5881864 4.370626 -0.40684301 18
1.9051735 5.2344217 -0.29192999 2
2.5205047 6.9137659 -0.12844971 16
4.2614164 11.823584 0.21937676 25
4.2210374 11.692353 0.65147805 23
4.180944 11.562337 1.0756762 16
10.809871 29.829443 3.8956757 49
10.781266 29.701952 5.004652 29
10.796298 29.694881 6.1417599 39
10.831139 29.726027 7.3041611 57
10.838801 29.698706 8.4711485 59
0.88386041 2.4022644 -0.68587047 39
0.97371823 2.642221 -0.65010858 34
1.0637673 2.880374 -0.59685057 30
1.1965826 3.2347865 -0.54626918 24
1.3641738 3.6819196 -0.48211515 23
1.6061772 4.3258114 -0.40370542 20
1.933316 5.1985302 -0.29067394 2
2.5198493 6.7648273 -0.12600638 16
4.3715024 11.868604 0.22077294 25
4.2984147 11.651358 0.65085006 14
4.2981629 11.631917 1.0849147 21
11.031657 29.790474 3.9005504 75
11.002802 29.66485 5.0112219 14
11.021819 29.668472 6.1520638 26
14.658924 39.374645 9.6998901 43
8.1117697 21.753803 6.2209749 17
0.8924545 2.3743348 -0.67965883 28
0.98527592 2.6171207 -0.64560956 33
1.0935521 2.8985934 -0.60219324 26
1.2163436 3.2189629 -0.54501772 16
1.3919531 3.6778758 -0.48284638 16
1.6328032 4.3051786 -0.40283385 24
1.9482819 5.1288948 -0.28753379 2
2.5741229 6.7657619 -0.12635542 19
4.464108 11.863999 0.22126161 42
4.3810549 11.624804 0.65105933 17
4.3560395 11.540115 1.0791624 28
11.249197 29.738726 3.9039629 75
11.233429 29.65012 5.0218596 29
4.1861138 11.031619 2.2935243 4
4.2119875 11.076486 2.7358549 6
8.0881176 21.236275 6.0889769 24
0.91316146 2.3788679 -0.68276465 39
0.99652845 2.5919895 -0.64111054 33
1.1158803 2.8963838 -0.60333806 20
1.2217208 3.1661618 -0.5375089 17
1.4097259 3.6477001 -0.48016527 23
1.6664169 4.3029642 -0.40370542 22
1.9587619 5.0499949 -0.28387025 11
2.5785711 6.6376505 -0.12429604 15
nan nan nan nan
4.5037127 11.702046 0.65713036 8
4.4479647 11.539169 1.0819514 18
11.473691 29.703915 3.9098125 75
11.46152 29.626247 5.0312462 29
11.469727 29.601397 6.170763 13
4.1523757 10.694386 2.6485739 22
8.0492306 20.698559 5.9507675 22
0.92410773 2.3580456 -0.67862362 39
1.0046316 2.5595729 -0.63481188 38
1.1260122 2.8629451 -0.5979954 26
1.231486 3.1263113 -0.53219014 19
1.4329699 3.6322303 -0.47943404 24
1.697132 4.295228 -0.40405402 15
1.9711796 4.9786291 -0.28062543 7
2.5703051 6.4819288 -0.12171309 21
4.0575032 10.342902 0.19393115 5
4.5852985 11.67032 0.65713036 8
4.6225286 11.747002 1.1044376 12
13.746638 34.862206 4.6012993 15
11.686935 29.593277 5.0393806 14
4.3765535 11.065206 2.3129869 34
4.1705241 10.528183 2.6143813 38
8.018919 20.201946 5.8239465 28
0.93696028 2.3425684 -0.6760354 28
1.0289981 2.568778 -0.63886106 28
1.1301228 2.8169506 -0.58998144 32
1.267467 3.1545153 -0.5384475 16
1.4390169 3.57426 -0.47309685 24
1.7188811 4.262949 -0.40213659 17
1.9915586 4.9317617 -0.27874133 4
2.5757411 6.3655815 -0.11986313 21
3.9405885 9.8471909 0.18513513 3
4.6512556 11.605468 0.65524626 8
4.642056 11.559138 1.0897954 19
13.999176 34.806503 4.6064177 15
4.466064 11.087317 1.8931701 22
nan nan nan nan
4.1394868 10.240451 2.5500453 38
4.1821499 10.330408 2.9862542 28
0.95580244 2.3432913 -0.67810595 52
1.0383531 2.5418699 -0.63391209 25
1.1452975 2.7980907 -0.58769172 22
1.2902081 3.1474178 -0.53876036 15
1.4580374 3.551527 -0.47139066 28
1.7061548 4.1476603 -0.39237517 27
2.0852807 5.06178 -0.28690574 16
2.6251087 6.3626904 -0.12014236 15
4.3516569 10.658092 0.20094702 7
4.766181 11.655904 0.65995646 6
4.7281799 11.545712 1.0915384 21
8.8914423 21.66881 2.8758731 40
4.5433593 11.055868 1.8931701 10
4.2402883 10.303023 2.1656821 26
4.1982527 10.180674 2.542397 46
4.2254086 10.231323 2.9660666 46
0.96991223 2.3312106 -0.67655301 74
1.0455801 2.5093753 -0.62761348 30
1.1542162 2.7646625 -0.58234906 30
1.2991959 3.1073513 -0.5334416 17
1.481261 3.5375998 -0.47090316 26
1.7157974 4.0897174 -0.38801736 24
2.1020026 5.0029054 -0.28439364 23
2.6485279 6.2944422 -0.11919994 13
3.8885655 9.3370953 0.17654854 3
4.9481487 11.863827 0.6736685 3
4.8793111 11.681561 1.1075752 14
8.9965191 21.496336 2.8612487 72
4.473062 10.672267 1.8327864 19
4.3242707 10.302134 2.1717882 26
4.2087812 10.00741 2.5064046 12
4.592926 10.904828 3.1705334 15
0.98088062 2.311934 -0.67292953 40
1.061548 2.4984279 -0.62671363 30
1.1719511 2.7529244 -0.58158582 31
1.3162096 3.0873027 -0.53156441 19
1.5082604 3.5326493 -0.47163439 16
1.7474434 4.0849657 -0.38871458 22
2.1274381 4.9660792 -0.28313756 21
2.671905 6.2280188 -0.11829241 10
4.3288541 10.193206 0.19330285 14
5.1848488 12.191066 0.69428885 9
4.9342055 11.584887 1.1016486 17
9.1338959 21.403795 2.8573489 24
4.5280476 10.59537 1.8249646 19
4.4563346 10.412477 2.2015543 30
4.5926576 10.710313 2.6904149 30
4.0614095 9.4577408 2.7579758 24
1.0031326 2.3192148 -0.67707068 50
1.065797 2.4605567 -0.61906534 31
1.1942667 2.7518802 -0.58311236 30
1.3361546 3.0744157 -0.53093863 17
1.522586 3.4983723 -0.46846578 15
1.7990142 4.1256294 -0.39376962 17
2.1316831 4.8815522 -0.27916002 28
2.6800663 6.1285982 -0.1167566 7
4.3172889 9.9718857 0.18967277 10
5.2992287 12.222372 0.69816172 3
5.1228805 11.798705 1.1253549 15
9.3242769 21.434162 2.8700233 8
4.612957 10.588852 1.8293447 18
4.315392 9.8916559 2.0977542 22
4.5190244 10.338721 2.6049335 20
4.0816336 9.3247423 2.7274351 20
1.0107282 2.2927098 -0.67137665 41
1.0853112 2.4584038 -0.62041503 23
